# .PCD v0.7 - Point Cloud Data file format
VERSION 0.7
FIELDS x y z
SIZE 4 4 4
TYPE F F F
COUNT 1 1 1
WIDTH 1339
HEIGHT 1
VIEWPOINT 0 0 0 1 0 0 0
POINTS 1339
DATA ascii
0 0.0039492249 0.7160064
0 0.0029341877 0.71472895
0 0.0019379556 0.71347541
0 0.00096026063 0.71226656
0 -0 0.71108073
0 -0.00094330311 0.70992875
0 -0.0018703341 0.70880562
0 -0.0027815998 0.7077049
0 -0.003683567 0.70683479
0 -0.0045877695 0.70637244
0 -0.0054965615 0.70617056
0 -0.0064099133 0.70611644
0 -0.0073243976 0.70609504
0 -0.0082387924 0.7060771
0 -0.0091531575 0.70606303
0 -0.01006788 0.7060554
0 -0.010982871 0.70605254
0 -0.011898309 0.70605421
0 -0.01281479 0.70606661
0 -0.013731629 0.70608068
0 -0.014650226 0.7061075
0 -0.01557076 0.70614719
0 -0.01647675 0.7060709
0 -0.017361581 0.70584905
0 -0.018244773 0.70563769
0 -0.019136071 0.70549983
0 -0.020075887 0.70567942
0 -0.021109819 0.70640844
0 -0.022464126 0.70892066
0 -0.023786366 0.71105468
0 -0.025068253 0.71281016
0 -0.026317209 0.71426719
0 -0.027540326 0.71549261
0 -0.028759301 0.71661395
0 -0.029964626 0.71759754
0 -0.031150103 0.71842921
0 -0.032330275 0.71918601
0 -0.033499688 0.71985197
0 -0.03466022 0.72044271
0 -0.035814553 0.72097522
0 -0.0369564 0.72142994
0 -0.038095474 0.72185016
0 -0.039222062 0.72220266
0 -0.040326983 0.72246039
0 -0.04143101 0.72270215
0 -0.042530507 0.72291678
0 -0.043608725 0.72305131
0 -0.04467839 0.72315204
0 -0.0457398 0.72322226
0 -0.046797633 0.72327852
0 -0.048040718 0.7238884
0.0015152815 0.050004303 0.78893763
0.0014742317 0.047175437 0.78326732
0.0014380333 0.044579059 0.77826709
0.0014055002 0.042165011 0.77377325
0.0013758881 0.03990078 0.76968277
0.0013486162 0.037761271 0.76591575
0.0013233285 0.035729885 0.76242262
0.0012996583 0.033791125 0.75915301
0.0012774616 0.031936556 0.75608695
0.0012565625 0.030157536 0.75320011
0.0012367937 0.028446287 0.75046939
0.0012180313 0.026796699 0.74787766
0.0012001492 0.025203168 0.74540758
0.0011831187 0.023662359 0.74305505
0.0011668485 0.022170126 0.74080759
0.0011512737 0.020722955 0.73865622
0.0011362871 0.019316882 0.73658609
0.0011219481 0.01795122 0.73460537
0.0011081358 0.016622066 0.73269743
0.0010947682 0.015326768 0.73085093
0.0010819829 0.014065832 0.72908485
0.0010695622 0.012834787 0.72736919
0.0010575999 0.011633635 0.72571677
0.0010460126 0.010460138 0.72411621
0.001034799 0.0093131959 0.72256726
0.0010239361 0.0081914961 0.72106671
0.001013399 0.007093817 0.71961117
0.0010031847 0.0060191453 0.71820027
0.00099326065 0.0049663186 0.71682942
0.00098361878 0.0039344728 0.71549761
0.00097426132 0.0029228032 0.71420503
0.00096512708 0.0019302368 0.71294332
0.00095628866 0.00095632672 0.71172237
0.00094761368 -0 0.71052408
0.00093924889 -0.00093924999 0.70936865
0.00093103625 -0.0018620491 0.70823413
0.00092341029 -0.0027702153 0.7071808
0.00091865531 -0.0036745965 0.70652395
0.00091631169 -0.004581511 0.70620024
0.00091550779 -0.0054930151 0.70608914
0.00091525132 -0.0064067543 0.70605379
0.00091504864 -0.0073203743 0.70602578
0.0009148544 -0.0082336664 0.7059989
0.00091472495 -0.0091472268 0.70598102
0.00091459556 -0.010060549 0.70596319
0.00091450557 -0.01097405 0.70595074
0.00091448025 -0.011888206 0.70594722
0.00091446622 -0.012802511 0.70594537
0.00091452518 -0.01371786 0.70595348
0.00091462932 -0.014634043 0.70596784
0.00091414008 -0.015540391 0.70590025
0.00091262249 -0.016427189 0.70569062
0.00091109873 -0.017310858 0.70548016
0.00090964127 -0.018192828 0.70527887
0.00091035129 -0.019117385 0.70537692
0.00091502612 -0.020130545 0.70602268
0.00093474687 -0.021499187 0.70874679
0.00095093151 -0.02282235 0.71098238
0.00096471695 -0.024117887 0.71288657
0.00097527402 -0.025357097 0.71434492
0.00098495116 -0.026593685 0.71568167
0.00099365553 -0.027822345 0.71688402
0.0010009529 -0.029027641 0.71789199
0.0010072995 -0.030218989 0.71876866
0.0010130779 -0.031405419 0.71956682
0.001018274 -0.032584757 0.72028458
0.0010229711 -0.033758014 0.72093344
0.001027211 -0.034925163 0.72151905
0.0010305464 -0.036069095 0.7219798
0.0010335656 -0.037208349 0.72239691
0.0010363894 -0.03834638 0.7227869
0.0010387859 -0.039473832 0.72311795
0.0010408617 -0.040593594 0.72340471
0.0010422223 -0.041688859 0.72359264
0.0010435792 -0.042786717 0.72378004
0.001044767 -0.043880224 0.72394419
0.0010451967 -0.044943422 0.72400349
0.0010455714 -0.04600513 0.72405529
0.0010458399 -0.047062755 0.7240923
0.0010473131 -0.048176348 0.72429585
0.0029866758 0.047786832 0.78590655
0.00290523 0.045031101 0.78028136
0.0028338756 0.042508185 0.77535313
0.0027697415 0.040161282 0.77092361
0.0027113846 0.037959397 0.76689315
0.0026576903 0.035878837 0.76318467
0.0026080927 0.033905238 0.75975913
0.0025616686 0.032020867 0.75655282
0.0025180723 0.030216902 0.75354177
0.0024770075 0.028485596 0.75070554
0.0024381897 0.026820093 0.74802458
0.002401374 0.025214463 0.74548185
0.0023663314 0.023663342 0.74306154
0.0023329374 0.022162914 0.74075514
0.0023010152 0.020709127 0.73855042
0.0022703796 0.019298255 0.73643452
0.0022411232 0.017929018 0.73441386
0.0022129733 0.016597301 0.73246962
0.0021857789 0.015300483 0.73059142
0.002159762 0.014038473 0.72879457
0.0021345259 0.01280719 0.72705156
0.0021102394 0.011606365 0.72537416
0.0020867484 0.010433763 0.72375172
0.0020639892 0.0092879534 0.72217989
0.0020420437 0.0081681907 0.72066414
0.0020206699 0.0070723593 0.71918792
0.0020000481 0.006000191 0.71776366
0.0019799417 0.0049498975 0.71637499
0.0019605071 0.0039210618 0.7150327
0.0019415579 0.0029123724 0.71372402
0.0019231893 0.0019232035 0.71245533
0.001905299 0.00095269084 0.71121967
0.0018878645 2.9802322e-08 0.71001554
0.0018709521 -0.0009354651 0.70884752
0.0018543515 -0.0018543303 0.70770097
0.0018413662 -0.0027620196 0.70680404
0.0018344207 -0.0036688447 0.7063244
0.0018313369 -0.0045783222 0.70611143
0.0018304182 -0.0054912269 0.70604795
0.0018298101 -0.0064043403 0.70600593
0.0018292924 -0.0073171854 0.70597017
0.0018288143 -0.0082296729 0.70593715
0.0018283926 -0.009141922 0.70590806
0.0018280499 -0.01005426 0.70588434
0.0018277972 -0.010966778 0.70586687
0.0018275443 -0.011879027 0.70584947
0.0018274488 -0.01279211 0.70584285
0.0018274096 -0.013705552 0.70584017
0.0018270559 -0.0146164 0.70581573
0.0018239018 -0.015503168 0.70559788
0.0018202011 -0.0163818 0.70534229
0.0018166986 -0.017258614 0.70510036
0.0018170982 -0.018170953 0.70512795
0.0018243997 -0.019156158 0.70563227
0.0018625973 -0.02048856 0.70827043
0.001898797 -0.021836162 0.71077061
0.0019274958 -0.02312994 0.7127527
0.0019503818 -0.02437979 0.71433347
0.0019715412 -0.025630027 0.71579486
0.001988434 -0.026843876 0.7169615
0.0020039361 -0.028055072 0.71803212
0.0020181946 -0.029263824 0.71901697
0.0020300492 -0.030450732 0.7198357
0.0020410905 -0.031636894 0.72059834
0.0020508943 -0.032814294 0.72127545
0.0020596152 -0.033983618 0.72187775
0.0020674544 -0.035146713 0.7224192
0.002074579 -0.0363051 0.72291124
0.0020805877 -0.037450582 0.72332627
0.0020854168 -0.038580179 0.72365975
0.0020898497 -0.039707154 0.723966
0.0020939403 -0.040831834 0.72424847
0.0020968043 -0.04193607 0.7244463
0.0020988614 -0.043026656 0.72458827
0.0021009224 -0.044119358 0.72473067
0.0021022737 -0.045198888 0.72482401
0.0021024891 -0.046254784 0.72483897
0.0021027122 -0.047311038 0.72485429
0.0021032474 -0.048374712 0.7248913
0.0022916268 -0.053853184 0.73790193
0.0045614159 0.048655152 0.78965461
0.004417134 0.045643747 0.7830112
0.0042958208 0.0429582 0.77742547
0.0041897893 0.040501267 0.77254331
0.0040947772 0.038217932 0.76816857
0.0040086745 0.036078095 0.76420403
0.0039294031 0.034054875 0.76055408
0.003856071 0.032133937 0.75717753
0.0037876917 0.030301541 0.75402904
0.003723497 0.02854681 0.75107324
0.0036630353 0.026862293 0.74828935
0.0036058608 0.025241047 0.74565673
0.0035517297 0.023678184 0.74316436
0.0035002159 0.02216804 0.74079239
0.0034510021 0.020706058 0.7385264
0.0034039973 0.019289345 0.73636204
0.0033590649 0.01791504 0.73429322
0.0033159314 0.016579688 0.7323072
0.0032743847 0.015280485 0.73039418
0.0032346395 0.014016807 0.72856414
0.0031961685 0.012784719 0.72679275
0.0031590939 0.011583358 0.72508574
0.0031233614 0.010411203 0.72344047
0.0030886957 0.0092661381 0.72184426
0.0030553348 0.0081475675 0.72030818
0.0030228405 0.0070533156 0.71881205
0.0029915718 0.005983144 0.7173723
0.0029610218 0.004935056 0.71596563
0.0029316002 0.003908813 0.71461093
0.0029027951 0.0029028058 0.71328461
0.002875051 0.0019167364 0.71200711
0.0028478771 0.00094932318 0.710756
0.0028215963 2.9802322e-08 0.70954591
0.0027959186 -0.00093197823 0.70836353
0.0027717885 -0.0018478632 0.7072525
0.0027565451 -0.002756536 0.7065506
0.002748901 -0.0036652088 0.70619869
0.0027461259 -0.0045768619 0.7060709
0.0027450023 -0.0054899752 0.70601916
0.0027439892 -0.0064026117 0.70597255
0.0027430444 -0.0073147416 0.70592898
0.0027421422 -0.0082264543 0.70588744
0.0027413755 -0.0091378689 0.70585215
0.0027406851 -0.010049164 0.70582032
0.0027400367 -0.010960102 0.70579052
0.0027396078 -0.011871636 0.70577073
0.0027392209 -0.012782991 0.70575297
0.0027386153 -0.013693064 0.70572507
0.0027350809 -0.014587045 0.70556235
0.0027295668 -0.015467525 0.70530844
0.0027233844 -0.016340286 0.70502377
0.0027210754 -0.017233461 0.70491749
0.0027288652 -0.018192381 0.70527613
0.0027777255 -0.019444078 0.70752585
0.0028384815 -0.020815521 0.71032333
0.0028856141 -0.022123009 0.71249354
0.0029227457 -0.023381948 0.71420324
0.0029551568 -0.024626255 0.7156955
0.0029826809 -0.025849879 0.71696293
0.0030078397 -0.027070522 0.71812129
0.0030305001 -0.028284669 0.71916473
0.0030500495 -0.029483795 0.72006488
0.0030673621 -0.030673623 0.72086197
0.0030831986 -0.031859696 0.72159117
0.0030971661 -0.033036441 0.72223431
0.0031092332 -0.034201562 0.72278988
0.003120041 -0.035360456 0.72328752
0.0031299249 -0.036515772 0.72374266
0.0031391422 -0.037669688 0.72416705
0.0031461937 -0.038803041 0.72449172
0.0031523521 -0.039929777 0.72477525
0.0031575733 -0.041048437 0.72501564
0.0031624197 -0.042165577 0.7252388
0.0031651233 -0.04325667 0.72536331
0.0031674043 -0.04434365 0.7254684
0.0031695985 -0.045430899 0.72556937
0.0031698577 -0.046491235 0.72558129
0.0031697224 -0.04754585 0.72557515
0.0031694183 -0.048597753 0.72556108
0.0031812959 -0.049840331 0.72610795
0.006001771 0.046513736 0.78688788
0.0058085029 0.043563783 0.78021377
0.0056475438 0.040944695 0.77465528
0.005507553 0.03855288 0.76982093
0.0053827977 0.036333859 0.76551276
0.0052693509 0.034250796 0.76159507
0.0051654503 0.032284111 0.75800705
0.0050692367 0.030415446 0.75468445
0.0049797301 0.028633475 0.75159353
0.0048956447 0.02692607 0.74868983
0.0048164767 0.025286525 0.74595594
0.0047416422 0.023708224 0.74337167
0.0046706926 0.022185773 0.74092156
0.0046031699 0.020714313 0.73858976
0.0045388364 0.01929009 0.73636806
0.0044774213 0.017909706 0.73424721
0.0044185487 0.016569585 0.73221421
0.004361988 0.015266985 0.73026097
0.004307902 0.014000714 0.7283932
0.0042557037 0.012767106 0.72659063
0.0042053796 0.011564791 0.72485274
0.0041569872 0.010392487 0.72318166
0.0041099656 0.0092474222 0.7215578
0.0040649124 0.0081298351 0.72000194
0.0040209997 0.0070367754 0.71848553
0.0039787167 0.0059680939 0.7170254
0.0039375615 0.0049219728 0.71560413
0.0038978115 0.0038978457 0.71423137
0.0038590434 0.0028943121 0.71289265
0.0038215909 0.0019108057 0.71159935
0.0037849674 0.00094625354 0.7103346
0.0037496297 2.9802322e-08 0.70911425
0.0037149573 -0.00092872977 0.70791692
0.0036861328 -0.0018430948 0.70692152
0.0036709132 -0.0027531683 0.70639592
0.0036637227 -0.0036637187 0.70614761
0.0036612984 -0.0045765936 0.70606387
0.0036596088 -0.0054893792 0.70600551
0.0036580558 -0.0064015985 0.70595193
0.0036565491 -0.0073130727 0.70589989
0.0036552346 -0.0082242489 0.70585454
0.0036539773 -0.0091349185 0.70581108
0.0036527654 -0.010045052 0.70576924
0.003651801 -0.010955364 0.70573592
0.003650882 -0.011865348 0.70570421
0.0036500308 -0.012775093 0.70567477
0.0036473114 -0.013677388 0.70558083
0.0036389546 -0.014555752 0.70529222
0.0036306917 -0.01543045 0.70500696
0.0036244197 -0.016309857 0.70479035
0.003629894 -0.017241985 0.70497942
0.0036759158 -0.018379569 0.70656866
0.0037664163 -0.019773692 0.70969391
0.0038350942 -0.021092981 0.71206558
0.0038889933 -0.022361666 0.71392685
0.0039343191 -0.023605883 0.71549213
0.0039741443 -0.024838388 0.71686745
0.0040103989 -0.026067555 0.7181195
0.0040402962 -0.027272016 0.71915191
0.0040693898 -0.028485745 0.72015667
0.004092799 -0.029672801 0.72096503
0.0041153398 -0.030865043 0.7217434
0.0041353689 -0.03204906 0.72243506
0.0041535473 -0.033228368 0.72306281
0.0041702189 -0.034404278 0.72363853
0.0041840947 -0.03556478 0.72411776
0.0041961824 -0.03671658 0.72453517
0.0042071943 -0.037864745 0.72491544
0.0042175162 -0.039011985 0.72527188
0.0042247209 -0.040134847 0.72552067
0.0042312271 -0.041254461 0.72574532
0.0042371801 -0.04237178 0.7259509
0.0042409264 -0.043469459 0.7260803
0.0042436649 -0.044558465 0.72617489
0.0042459066 -0.045643479 0.72625226
0.0042461492 -0.04670763 0.72626066
0.0042457553 -0.047764719 0.72624701
0.0042449976 -0.048817426 0.72622085
0.004253041 -0.04997322 0.72649872
0.007738499 0.047978729 0.79341561
0.0074068839 0.044441342 0.78425425
0.0071638059 0.04155007 0.77753884
0.0069636228 0.038996309 0.77200848
0.0067898827 0.03666535 0.7672087
0.0066351835 0.034502983 0.76293486
0.0064957365 0.03247872 0.75908244
0.0063676154 0.030564547 0.75554287
0.0062493053 0.028746814 0.75227433
0.006139365 0.027013212 0.74923706
0.0060360418 0.025351375 0.74638265
0.0059386757 0.023754716 0.74369276
0.0058467677 0.022217721 0.74115366
0.0057596015 0.020734608 0.73874551
0.0056767943 0.019301116 0.73645788
0.0055979569 0.017913461 0.73427987
0.0055224067 0.01656723 0.73219264
0.0054501267 0.015260398 0.73019576
0.0053809802 0.013990581 0.72828555
0.0053143823 0.01275453 0.72644562
0.005250284 0.011550635 0.72467488
0.0051887818 0.010377616 0.72297573
0.0051291105 0.0092324018 0.72132725
0.005071782 0.0081148446 0.71974349
0.0050161774 0.007022649 0.71820724
0.0049624913 0.0059550107 0.71672416
0.0049104285 0.0049104393 0.71528578
0.0048599867 0.003888011 0.71389222
0.0048111309 0.0028866827 0.71254253
0.0047636447 0.0019054711 0.7112307
0.00471752 0.00094351172 0.70995641
0.0046727355 2.9802322e-08 0.70871913
0.0046291393 -0.00092583895 0.70751476
0.0046006097 -0.001840204 0.70672655
0.0045851893 -0.002751112 0.70630062
0.004579315 -0.0036634505 0.70613825
0.0045769047 -0.0045768619 0.70607162
0.0045745252 -0.0054893792 0.70600593
0.0045723869 -0.0064013004 0.70594686
0.0045702932 -0.0073124468 0.70588899
0.0045682713 -0.008222878 0.70583314
0.0045664199 -0.0091328323 0.705782
0.0045648073 -0.010042578 0.70573747
0.0045631966 -0.010951668 0.70569295
0.004561699 -0.0118604 0.70565158
0.0045598103 -0.012767434 0.70559943
0.0045510875 -0.013653249 0.70535845
0.0045405123 -0.014529616 0.70506632
0.0045290752 -0.01539886 0.70475036
0.0045290338 -0.016304523 0.70474917
0.0045531504 -0.017301947 0.70541543
0.0046787048 -0.018714786 0.70888406
0.0047730175 -0.020046651 0.71148962
0.0048451801 -0.021318763 0.71348321
0.0049060863 -0.022567958 0.71516585
0.0049599092 -0.023807555 0.71665281
0.0050066016 -0.025032997 0.71794271
0.0050473022 -0.026245981 0.7190671
0.0050847894 -0.027457833 0.72010279
0.0051190988 -0.028666914 0.72105062
0.005148699 -0.029862434 0.7218684
0.005175292 -0.031051725 0.72260302
0.0051989048 -0.032233179 0.7232554
0.0052200756 -0.033408433 0.7238403
0.0052395174 -0.034580797 0.72437739
0.0052575795 -0.035751551 0.7248764
0.0052722879 -0.036905974 0.72528267
0.0052846544 -0.038049459 0.72562432
0.0052966829 -0.039195448 0.72595668
0.0053062467 -0.04032743 0.72622091
0.0053137369 -0.041447133 0.72642779
0.0053202962 -0.042562366 0.72660905
0.0053251162 -0.043665946 0.72674215
0.00532794 -0.044754654 0.72682017
0.0053307475 -0.045844406 0.72689778
0.0053311111 -0.046913743 0.72690779
0.0053298306 -0.047968447 0.72687244
0.0053285509 -0.049022645 0.7268371
0.0053333291 -0.050133258 0.72696906
0.0091959881 0.045979977 0.7913388
0.0087786363 0.042430073 0.78173041
0.0084846886 0.039595217 0.7749632
0.008244535 0.037100434 0.76943427
0.008038043 0.034831554 0.76468045
0.0078551397 0.032729745 0.76046962
0.0076892781 0.030757129 0.75665116
0.007537974 0.028895587 0.75316781
0.0073979953 0.027126014 0.74994516
0.0072677364 0.025437087 0.74694633
0.0071457596 0.023819238 0.74413812
0.0070309667 0.022264749 0.74149537
0.0069227298 0.020768195 0.73900354
0.0068201204 0.019323707 0.73664129
0.006722508 0.017926693 0.73439401
0.0066293254 0.01657331 0.73224878
0.0065403441 0.015260786 0.73020023
0.0064554005 0.013986737 0.7282446
0.0063737053 0.012747437 0.72636378
0.0062951399 0.011541128 0.72455508
0.0062198965 0.010366529 0.72282279
0.0061470876 0.0092206597 0.72114664
0.00607706 0.0081027448 0.7195344
0.0060093785 0.0070109665 0.71797621
0.0059438022 0.005943805 0.71646655
0.0058805905 0.0049005151 0.7150113
0.0058190892 0.0038793981 0.71359539
0.0057598273 0.0028799474 0.71223104
0.0057019792 0.0019006431 0.71089929
0.0056462102 0.00094106793 0.70961535
0.0055916966 -0 0.70836031
0.0055431118 -0.00092384219 0.70724183
0.0055146576 -0.0018382072 0.70658672
0.0055013788 -0.0027506351 0.70628101
0.0054964139 -0.0036642551 0.70616668
0.0054932158 -0.0045776665 0.70609307
0.0054901731 -0.005490154 0.70602304
0.0054872693 -0.0064018071 0.70595622
0.0054843859 -0.0073125362 0.70588976
0.005481774 -0.0082226098 0.70582968
0.0054792995 -0.0091321766 0.70577276
0.0054768445 -0.010040879 0.70571613
0.0054746093 -0.010949194 0.70566475
0.0054726116 -0.011857331 0.70561874
0.00546609 -0.012754202 0.7054686
0.0054520941 -0.013630182 0.70514643
0.0054383692 -0.014502287 0.70483041
0.0054303091 -0.015385866 0.70464486
0.0054434286 -0.016330242 0.70494688
0.0055613033 -0.017610788 0.70766062
0.0056891805 -0.018963933 0.71060467
0.0057869875 -0.020254463 0.71285635
0.0058674803 -0.021514058 0.71470946
0.0059365449 -0.022756726 0.71629947
0.0059958901 -0.023983538 0.71766573
0.0060490631 -0.02520442 0.71888983
0.0060984939 -0.026426762 0.72002792
0.0061399383 -0.027629703 0.72098202
0.0061774766 -0.028828204 0.72184622
0.0062119933 -0.030024648 0.72264093
0.0062433351 -0.031216711 0.72336245
0.0062721716 -0.032406211 0.72402626
0.0062963837 -0.03358072 0.72458375
0.0063179191 -0.034748524 0.72507954
0.0063380939 -0.035915852 0.72554398
0.0063569476 -0.037082195 0.72597808
0.0063704741 -0.038222849 0.72628945
0.0063839438 -0.039367616 0.72659951
0.0063957963 -0.040506691 0.72687238
0.0064036003 -0.041623384 0.72705209
0.0064113084 -0.042742014 0.72722954
0.0064171646 -0.043850571 0.72736436
0.0064195655 -0.044936955 0.72741961
0.0064219688 -0.046024084 0.72747499
0.0064229625 -0.047101706 0.72749788
0.0064212061 -0.048159063 0.7274574
0.0064191963 -0.049213797 0.72741115
0.0064212983 -0.050300181 0.72745955
0.010640203 0.044080853 0.78959346
0.010121586 0.040486366 0.77935946
0.0097736968 0.037698567 0.77249444
0.009493784 0.035262644 0.76697081
0.0092541166 0.033050388 0.76224142
0.0090426393 0.031003356 0.75806832
0.0088515887 0.029083818 0.75429821
0.0086773681 0.027271748 0.75086027
0.0085163135 0.025548935 0.74768221
0.0083667068 0.02390486 0.74472994
0.0082271732 0.02233091 0.74197644
0.0080955513 0.020817161 0.73937911
0.0079711573 0.019358546 0.73692447
0.0078532519 0.017950296 0.7345978
0.0077411723 0.016588271 0.73238611
0.0076344586 0.015268952 0.73028028
0.0075327177 0.013989359 0.72827256
0.0074350601 0.012745857 0.72634554
0.0073413514 0.011536449 0.72449636
0.0072516929 0.010359555 0.72272706
0.0071650855 0.0092122555 0.72101808
0.0070817997 0.0080935061 0.71937454
0.0070015807 0.0070016086 0.71779156
0.0069236886 0.0059345961 0.71625447
0.0068489746 0.0048921406 0.71478009
0.0067760325 0.0038720369 0.71334076
0.0067060534 0.0028740466 0.71195984
0.0066376524 0.0018964708 0.71061009
0.0065717739 0.00093886256 0.70931005
0.0065073734 -0 0.70803922
0.0064573553 -0.00092247128 0.70705217
0.0064313421 -0.0018375218 0.70653886
0.0064189681 -0.002750963 0.70629466
0.0064146761 -0.0036655068 0.70621002
0.0064106262 -0.0045790076 0.70613009
0.0064067398 -0.0054914653 0.70605338
0.0064030155 -0.0064029992 0.70597988
0.0063994727 -0.0073136687 0.70590997
0.0063960319 -0.008223474 0.70584208
0.0063926145 -0.0091322958 0.70577472
0.006389495 -0.010040641 0.70571309
0.006386633 -0.010948509 0.70565659
0.0063829711 -0.011854082 0.70558429
0.006368502 -0.012737006 0.70529878
0.006351694 -0.01361075 0.70496714
0.0063353991 -0.014480919 0.70464563
0.0063371155 -0.015390128 0.70467949
0.0064010071 -0.016459703 0.70594025
0.0065812478 -0.017863363 0.70949697
0.0067108739 -0.01917392 0.71205497
0.0068155867 -0.020446777 0.71412128
0.0069006006 -0.021687567 0.71579885
0.0069758901 -0.022920728 0.71728456
0.0070424383 -0.024145484 0.71859777
0.0071022874 -0.025365323 0.71977884
0.0071539315 -0.026571721 0.7207979
0.0072030914 -0.027783334 0.72176802
0.0072452067 -0.028980821 0.72259909
0.0072840182 -0.03017664 0.72336495
0.0073187682 -0.03136614 0.7240507
0.0073505538 -0.032552421 0.72467792
0.007380235 -0.033738166 0.72526366
0.0074043577 -0.034906209 0.7257396
0.0074262018 -0.036070108 0.72617066
0.0074473484 -0.03723672 0.72658801
0.0074634748 -0.038383543 0.72690624
0.0074779252 -0.039526165 0.72719133
0.0074915146 -0.040668219 0.72745955
0.0075002867 -0.041787297 0.72763264
0.0075082667 -0.042904347 0.72779012
0.0075160465 -0.04402253 0.72794366
0.0075180824 -0.045108497 0.72798383
0.0075200647 -0.046194673 0.72802287
0.0075209611 -0.04727459 0.72804064
0.0075183809 -0.048332423 0.72798967
0.0075158025 -0.049389571 0.72793883
0.007516508 -0.050467938 0.72795272
0.012086719 0.042303503 0.78832412
0.011437294 0.038600862 0.7771107
0.011032421 0.035855383 0.77011997
0.010711987 0.033474952 0.76458716
0.010439283 0.03131789 0.75987846
0.010199584 0.029323816 0.75573969
0.009984077 0.027456224 0.75201857
0.0097873025 0.025691718 0.74862099
0.0096059619 0.02401489 0.7454899
0.0094379168 0.022415072 0.74258828
0.0092808586 0.020881951 0.73987645
0.0091326591 0.019406915 0.73731756
0.0089926496 0.017985344 0.7349
0.008860101 0.016612738 0.73261136
0.0087344814 0.015285343 0.73044235
0.0086147431 0.013998955 0.72837484
0.0085001253 0.012750238 0.72639585
0.0083903531 0.011536747 0.72450042
0.0082855131 0.010356903 0.72269017
0.0081844721 0.0092075467 0.7209456
0.0080872122 0.008087188 0.71926618
0.0079939021 0.0069946945 0.717655
0.0079033766 0.0059275329 0.71609199
0.0078165215 0.0048853457 0.71459228
0.0077321073 0.0038661063 0.71313477
0.0076506538 0.00286901 0.71172827
0.0075715967 0.0018928945 0.71036327
0.0074951011 0.00093689561 0.70904249
0.007421386 -0 0.70776963
0.0073734308 -0.00092163682 0.7069416
0.0073484029 -0.0018370748 0.70650947
0.0073394259 -0.0027522743 0.7063545
0.0073344028 -0.0036671758 0.70626777
0.0073293871 -0.0045808852 0.70618117
0.0073247384 -0.0054935217 0.70610088
0.0073201414 -0.0064051151 0.70602149
0.0073156171 -0.0073156059 0.70594341
0.0073111658 -0.0082250237 0.70586652
0.0073071239 -0.0091338754 0.70579672
0.0073031988 -0.010041863 0.70572895
0.0072992775 -0.010948896 0.70566118
0.0072895717 -0.011845529 0.70549363
0.0072700586 -0.012722582 0.70515668
0.007249855 -0.013593435 0.70480788
0.0072380109 -0.014475971 0.70460343
0.0072585479 -0.015424401 0.70495802
0.007444934 -0.016751081 0.70817626
0.0076144151 -0.018084198 0.7111026
0.0077424999 -0.019356221 0.71331418
0.0078487545 -0.020602971 0.71514893
0.0079436442 -0.021845013 0.71678728
0.0080240704 -0.023069173 0.71817595
0.0080972584 -0.024291784 0.71943969
0.0081608342 -0.025502592 0.72053742
0.0082208691 -0.026717812 0.72157401
0.0082745347 -0.027926534 0.72250056
0.0083213607 -0.029124767 0.72330916
0.0083652185 -0.030323893 0.72406644
0.0084025608 -0.031509578 0.72471118
0.0084365578 -0.032691658 0.72529823
0.0084686298 -0.033874482 0.72585201
0.008497606 -0.035052627 0.72635233
0.0085207345 -0.03621313 0.72675169
0.0085435603 -0.037378043 0.72714579
0.0085624708 -0.038531095 0.72747231
0.0085778134 -0.039672375 0.72773719
0.0085927155 -0.040815383 0.72799456
0.0086027505 -0.041938394 0.72816777
0.0086110011 -0.043054998 0.72831023
0.0086192684 -0.044173747 0.72845304
0.0086217988 -0.045264423 0.72849673
0.008624143 -0.046354741 0.72853714
0.0086250808 -0.047437906 0.72855335
0.0086214235 -0.048495501 0.72849017
0.008617769 -0.049552172 0.72842711
0.0086174263 -0.050627381 0.72842121
0.013584102 0.040752321 0.78811759
0.012727759 0.036769122 0.77497435
0.012263225 0.034064591 0.76784462
0.011901218 0.031736612 0.76228845
0.011596631 0.029635847 0.75761366
0.011328449 0.027691782 0.75349754
0.011088626 0.025873482 0.74981683
0.010869905 0.024155378 0.74645984
0.010669121 0.022523731 0.74337816
0.010482348 0.020964712 0.74051154
0.010307675 0.019470066 0.73783064
0.010143684 0.018033236 0.73531371
0.0099890409 0.016648412 0.73294026
0.009842624 0.015310764 0.73069304
0.0097033912 0.014016032 0.72855604
0.0095705399 0.012760699 0.72651708
0.0094437096 0.01154232 0.72457039
0.0093228584 0.010358751 0.72271562
0.0092065176 0.0092065036 0.72093004
0.0090946211 0.0080841184 0.71921265
0.0089875534 0.0069903433 0.71756929
0.008883833 0.0059225857 0.71597743
0.0087841796 0.0048801005 0.71444786
0.0086878641 0.0038613081 0.71296966
0.0085945483 0.0028648674 0.71153742
0.0085045416 0.0018899143 0.71015602
0.0084169284 0.00093522668 0.70881128
0.0083377976 -0 0.70759684
0.0082923854 -0.0009213388 0.70689982
0.0082708364 -0.001837939 0.70656908
0.008262028 -0.0027540028 0.70643389
0.0082559884 -0.0036693215 0.70634115
0.0082501099 -0.0045833588 0.70625097
0.0082443412 -0.0054962039 0.70616239
0.0082387077 -0.0064078867 0.70607591
0.0082332334 -0.0073184371 0.70599198
0.0082280962 -0.0082280636 0.70591313
0.0082229897 -0.009136647 0.70583475
0.0082178898 -0.010044068 0.70575643
0.0082130739 -0.010950744 0.70568252
0.0081943162 -0.011836231 0.70539469
0.0081694052 -0.012707949 0.70501232
0.0081471 -0.013578475 0.70466989
0.0081479931 -0.014485329 0.70468366
0.0082389619 -0.015562475 0.70607984
0.0084732035 -0.016946346 0.70967501
0.0086429771 -0.018246233 0.71228069
0.0087786466 -0.019508064 0.71436298
0.0088954065 -0.020755947 0.71615505
0.008990813 -0.021977544 0.71761936
0.0090807974 -0.023206443 0.71900046
0.0091568483 -0.024418235 0.72016764
0.0092304563 -0.02564016 0.72129744
0.0092912074 -0.026841253 0.72222984
0.0093494644 -0.028048337 0.72312391
0.0094003277 -0.029245436 0.72390461
0.0094477758 -0.030442804 0.72463286
0.009492171 -0.03164053 0.7253142
0.0095288362 -0.032821536 0.72587699
0.0095626758 -0.034000605 0.72639638
0.0095956903 -0.035184175 0.72690302
0.0096206609 -0.036344677 0.72728634
0.0096447896 -0.037507504 0.7276566
0.0096664205 -0.038665622 0.72798854
0.0096826805 -0.039806545 0.72823822
0.0096987849 -0.040950418 0.72848535
0.0097100092 -0.042076677 0.72865766
0.0097186472 -0.043193996 0.72879028
0.0097272648 -0.044313103 0.72892249
0.0097297039 -0.045405269 0.72895992
0.0097316857 -0.046495825 0.72899038
0.0097325705 -0.047581404 0.72900391
0.0097286431 -0.048643202 0.72894359
0.0097242957 -0.049701899 0.72887689
0.009724685 -0.050784439 0.72888285
0.013999559 0.034998924 0.77300733
0.013467658 0.032322377 0.76566011
0.013062974 0.030044854 0.76007003
0.012725422 0.027995944 0.75540739
0.01243028 0.026103616 0.75133049
0.01216666 0.024333358 0.74768907
0.011926267 0.022659928 0.74436843
0.011705732 0.021070331 0.7413221
0.011500494 0.01955086 0.73848706
0.011309334 0.018094957 0.73584658
0.011130754 0.016696125 0.73337978
0.010961401 0.015345991 0.73104048
0.010800928 0.014041215 0.72882378
0.010648401 0.012778074 0.72671694
0.010503424 0.011553794 0.72471428
0.010365265 0.010365307 0.72280586
0.010232703 0.0092094541 0.72097468
0.010105374 0.0080842972 0.71921593
0.0099837901 0.0069886744 0.71753645
0.0098662749 0.0059197843 0.71591318
0.0097531565 0.0048765838 0.71435058
0.0096443221 0.0038577318 0.71284729
0.0095385946 0.0028615892 0.7113868
0.0094372556 0.0018874407 0.70998704
0.0093383109 0.00093382597 0.70862025
0.0092566069 -0 0.70749164
0.0092143621 -0.0009213984 0.70690811
0.0091947615 -0.0018389225 0.70663732
0.0091870073 -0.002756089 0.70653027
0.0091798892 -0.0036719143 0.70643198
0.0091728112 -0.0045863688 0.70633411
0.0091660824 -0.005499661 0.70624125
0.0091594476 -0.006411612 0.70614958
0.0091530494 -0.0073224306 0.70606112
0.0091466587 -0.0082319677 0.70597291
0.0091403052 -0.0091403127 0.70588517
0.0091344938 -0.010047913 0.70580488
0.0091243209 -0.010949194 0.70566434
0.0090985559 -0.011828125 0.70530844
0.0090701682 -0.012698203 0.7049163
0.0090519469 -0.013577938 0.70466465
0.0090726027 -0.014516145 0.70494992
0.0092972945 -0.015805393 0.70805371
0.0095189633 -0.0171341 0.71111566
0.0096839871 -0.018399566 0.71339512
0.00982037 -0.019640714 0.7152791
0.0099412054 -0.020876497 0.71694815
0.010048559 -0.022106826 0.71843112
0.010139 -0.023319691 0.71968037
0.01022665 -0.024543941 0.72089112
0.010298932 -0.025747299 0.72188962
0.010368013 -0.026956797 0.72284377
0.01043129 -0.028164476 0.72371787
0.010486905 -0.029363334 0.72448611
0.010536768 -0.030556619 0.7251749
0.010583677 -0.031751007 0.72582281
0.010625955 -0.032940447 0.72640687
0.010661687 -0.034117371 0.7269004
0.010696736 -0.035299242 0.72738457
0.010724857 -0.036464512 0.72777301
0.010750446 -0.037626535 0.72812641
0.010774164 -0.038786978 0.72845411
0.010791561 -0.039928764 0.72869438
0.010809015 -0.041074246 0.72893548
0.010821404 -0.042203456 0.72910666
0.010830822 -0.043323278 0.72923678
0.010839587 -0.044442266 0.72935784
0.010842432 -0.045538187 0.72939712
0.010844449 -0.046631128 0.72942495
0.010844211 -0.047714502 0.72942168
0.010839666 -0.048778474 0.72935885
0.01083465 -0.049839377 0.72928959
0.010836309 -0.050930649 0.72931254
0.015255459 0.033284605 0.77119845
0.014648321 0.030628324 0.76357424
0.014200425 0.028400838 0.75794983
0.013828147 0.026399225 0.75327486
0.013505487 0.024555445 0.74922311
0.013218071 0.022831261 0.74561381
0.012956576 0.02120167 0.74233013
0.012716586 0.019652933 0.7393164
0.012494242 0.018173456 0.73652428
0.012287796 0.016756117 0.73393184
0.012093781 0.015392095 0.73149556
0.011909958 0.014075398 0.72918725
0.011735933 0.012802869 0.72700185
0.011571421 0.011571467 0.72493601
0.011414683 0.01037699 0.72296774
0.011264655 0.009216547 0.72108376
0.011120938 0.0080879629 0.71927905
0.010983938 0.0069897771 0.71755862
0.010851823 0.0059191883 0.71589959
0.010724568 0.0048747957 0.71430159
0.010602635 0.0038554966 0.7127704
0.010484216 0.0028593242 0.71128339
0.010370648 0.0018856227 0.70985723
0.010260382 0.00093278289 0.70847261
0.01018119 -0 0.70747817
0.010139882 -0.00092178583 0.70695937
0.010122907 -0.0018405616 0.70674622
0.010114613 -0.002758503 0.70664203
0.010106332 -0.0036750138 0.70653808
0.010098314 -0.0045901537 0.70643735
0.010090527 -0.0055039227 0.7063396
0.010082722 -0.0064162314 0.70624155
0.010074958 -0.0073272288 0.70614409
0.010067393 -0.0082369447 0.70604908
0.010060304 -0.0091456771 0.70596009
0.010052853 -0.01005283 0.70586652
0.010034259 -0.010946423 0.70563304
0.010002872 -0.011821538 0.70523882
0.0099713765 -0.012690812 0.7048434
0.0099645127 -0.013587952 0.70475721
0.010033429 -0.014594048 0.70562261
0.010334055 -0.015970796 0.70939773
0.010550658 -0.017264694 0.71211773
0.010724393 -0.018523932 0.71429944
0.010872489 -0.019768149 0.71615916
0.010993795 -0.020988137 0.71768242
0.011105874 -0.02221173 0.71908987
0.011205581 -0.023429841 0.72034192
0.011294056 -0.024641573 0.72145301
0.011375626 -0.025853664 0.72247732
0.01144976 -0.027063072 0.72340822
0.011515252 -0.028264701 0.72423065
0.011577359 -0.029469609 0.72501051
0.011630373 -0.030661881 0.72567624
0.011679578 -0.031853378 0.72629416
0.011726215 -0.033046603 0.72687984
0.011763872 -0.034222156 0.72735268
0.011802067 -0.035406202 0.72783232
0.011832803 -0.036574095 0.72821832
0.011861248 -0.03774029 0.72857547
0.011885467 -0.038897872 0.72887963
0.01190597 -0.040047318 0.72913706
0.011922938 -0.041188329 0.72935009
0.01193651 -0.042320341 0.72952062
0.01194719 -0.043444306 0.72965473
0.011955006 -0.044559568 0.7297529
0.011958939 -0.04566139 0.72980219
0.011960295 -0.046753854 0.7298193
0.011959244 -0.047836959 0.72980607
0.011955661 -0.048909485 0.72976106
0.011948805 -0.049967736 0.72967505
0.011954612 -0.051078767 0.72974795
0.016503023 0.031630814 0.76959497
0.015807422 0.028980285 0.76158786
0.015312111 0.026796192 0.75588626
0.014907053 0.024845123 0.75122362
0.014555985 0.023047 0.74718243
0.014244743 0.021367133 0.74359977
0.013962573 0.019780338 0.74035162
0.013704353 0.018272519 0.73737931
0.013465816 0.016832262 0.73463345
0.013242956 0.01545012 0.73206806
0.013033442 0.014119595 0.72965634
0.012836499 0.012836516 0.72738934
0.012650171 0.011595994 0.72524452
0.012473054 0.010394245 0.72320575
0.012304178 0.0092281699 0.72126174
0.012142912 0.008095324 0.71940541
0.011989524 0.0069939196 0.71763974
0.011841926 0.0059209764 0.71594071
0.011699721 0.0048749149 0.71430379
0.011563925 0.003854692 0.71274066
0.011432417 0.0028581321 0.71122688
0.0113058 0.0018843412 0.70976931
0.011184691 0.00093203783 0.70837528
0.011107029 2.9802322e-08 0.70748127
0.011069512 -0.00092244148 0.70704937
0.01105487 -0.0018424988 0.70688093
0.011045393 -0.002761364 0.70677185
0.011035897 -0.0036786199 0.70666242
0.011026691 -0.0045944452 0.70655656
0.011017534 -0.0055087507 0.70645112
0.011008527 -0.0064215958 0.70634747
0.010999806 -0.0073331892 0.70624709
0.010991338 -0.0082435012 0.70614958
0.010982881 -0.0091523826 0.70605224
0.010973459 -0.010058999 0.70594376
0.010943713 -0.010943681 0.70560133
0.010908422 -0.011817425 0.70519513
0.010877004 -0.012689859 0.70483345
0.010888387 -0.013610452 0.70496446
0.011089704 -0.014786243 0.70728183
0.011381736 -0.016124129 0.71064347
0.011593942 -0.017390907 0.71308613
0.011768046 -0.01863271 0.71509033
0.011920163 -0.019866914 0.71684134
0.012053098 -0.021092892 0.71837151
0.012166883 -0.022305936 0.71968138
0.01227561 -0.023528218 0.72093296
0.01236707 -0.024734139 0.7219857
0.012455641 -0.02594924 0.72300524
0.012531261 -0.027151048 0.72387576
0.012602373 -0.0283553 0.72469431
0.012667774 -0.029558122 0.72544712
0.012726545 -0.030755788 0.72612363
0.01278092 -0.031952262 0.72674954
0.012828839 -0.033141166 0.72730118
0.012870433 -0.034321129 0.72777998
0.012909774 -0.035501868 0.72823286
0.012941889 -0.036668688 0.72860253
0.012971761 -0.037834316 0.72894633
0.012997982 -0.038993955 0.72924817
0.01301818 -0.040139377 0.72948074
0.013038346 -0.041288078 0.72971284
0.013051125 -0.042416126 0.72985989
0.01306216 -0.043540508 0.72998691
0.013071441 -0.044660747 0.73009378
0.013073979 -0.045758903 0.73012298
0.013076326 -0.046856821 0.73015004
0.013074841 -0.047941089 0.73013288
0.013068952 -0.049008548 0.73006511
0.013063163 -0.050075442 0.72999847
0.013080448 -0.051231742 0.73019749
0.017746314 0.030032277 0.76819283
0.01694599 0.027374297 0.75968885
0.016402122 0.025234073 0.75390995
0.015961953 0.023329049 0.74923283
0.015584646 0.021578759 0.7452237
0.015249263 0.01994136 0.74166012
0.014947174 0.018396527 0.73845017
0.014670169 0.016927123 0.73550689
0.014414467 0.015523285 0.73278987
0.014175369 0.014175385 0.73024935
0.013951472 0.012878299 0.72787035
0.013742347 0.011628151 0.72564822
0.01354291 0.01041761 0.7235291
0.013353467 0.0092447102 0.72151613
0.013173333 0.0081066489 0.71960211
0.013002149 0.0070011616 0.71778321
0.012837998 0.0059252381 0.71603894
0.012680018 0.0048769414 0.71436036
0.012529412 0.0038552284 0.71276003
0.012384047 0.0028578639 0.7112155
0.012243761 0.0018836558 0.70972484
0.012115153 0.00093194842 0.70835829
0.012039847 -0 0.70755816
0.012005116 -0.00092348456 0.70718908
0.011990372 -0.0018446445 0.70703244
0.011979672 -0.002764523 0.70691872
0.011968991 -0.0036827326 0.70680523
0.011958403 -0.0045993626 0.7066927
0.011948128 -0.0055145025 0.70658356
0.01193802 -0.0064281523 0.70647621
0.011928039 -0.0073403418 0.70637012
0.011918111 -0.0082510114 0.70626462
0.0119082 -0.009160161 0.70615929
0.011891973 -0.010062426 0.70598692
0.011856306 -0.010944247 0.70560789
0.011816988 -0.011816949 0.70519012
0.011792046 -0.012699127 0.70492512
0.011826928 -0.013646424 0.70529574
0.012148272 -0.014951706 0.70871025
0.012422725 -0.016245067 0.71162647
0.012641419 -0.0175035 0.71395016
0.012816378 -0.018731594 0.71580923
0.012970871 -0.019955158 0.7174508
0.013112437 -0.021181613 0.71895504
0.013231854 -0.022392362 0.7202239
0.013343558 -0.02360785 0.72141087
0.013443874 -0.024819434 0.72247672
0.013534282 -0.026027441 0.72343737
0.013618139 -0.027236283 0.72432852
0.013692413 -0.028438061 0.72511768
0.013761669 -0.029640526 0.72585356
0.013823323 -0.030836612 0.72650862
0.013879349 -0.032029241 0.72710395
0.013931313 -0.033220798 0.72765613
0.013975174 -0.034400463 0.72812212
0.014019313 -0.03558746 0.72859114
0.014051872 -0.036751032 0.72893715
0.01408443 -0.037919611 0.72928309
0.014111316 -0.039077491 0.72956872
0.01413324 -0.040225357 0.72980165
0.014155284 -0.041376978 0.73003596
0.014167421 -0.042502254 0.73016495
0.014179477 -0.04362914 0.73029298
0.014188427 -0.044748098 0.73038816
0.014191187 -0.045848459 0.73041749
0.014193896 -0.046948999 0.73044622
0.014191499 -0.048032731 0.73042071
0.014185928 -0.049105108 0.73036158
0.014179944 -0.05017519 0.73029798
0.014221045 -0.05141452 0.73073465
0.019007158 0.02851072 0.76716417
0.018069424 0.02581346 0.7579118
0.017471256 0.023711026 0.75200993
0.01699432 0.021849871 0.74730426
0.016589599 0.020144552 0.74331093
0.016231436 0.018550247 0.73977715
0.015909053 0.017045468 0.73659623
0.01561356 0.015613586 0.73368073
0.015340759 0.014245033 0.7309891
0.015086289 0.012931108 0.72847837
0.014850072 0.011667937 0.72614765
0.014627046 0.010447919 0.72394717
0.014414911 0.0092667639 0.72185409
0.01421437 0.0081225336 0.7198754
0.01402382 0.0070119202 0.71799535
0.013841669 0.0059321523 0.71619815
0.013667014 0.004881084 0.71447486
0.013500563 0.0038573146 0.71283257
0.013340427 0.0028586984 0.71125257
0.013185631 0.0018836856 0.70972526
0.013049828 0.00093212724 0.70838535
0.012977063 2.9802322e-08 0.70766735
0.01294402 -0.00092452765 0.70734131
0.012930072 -0.0018471479 0.70720375
0.012918036 -0.0027681589 0.70708501
0.012906024 -0.0036874413 0.70696652
0.012894353 -0.0046050847 0.7068513
0.012882782 -0.0055211782 0.70673716
0.012871273 -0.0064356029 0.70662355
0.012859744 -0.0073483884 0.70650983
0.012848276 -0.0082595944 0.7063967
0.012837421 -0.0091695786 0.70628965
0.012815334 -0.010069162 0.70607162
0.0127697 -0.01094541 0.70562142
0.012725792 -0.0118168 0.70518816
0.012714406 -0.012714416 0.70507586
0.01280938 -0.013724297 0.70601296
0.013185839 -0.015069515 0.70972729
0.013457016 -0.016340613 0.71240294
0.013678823 -0.017587036 0.71459144
0.013867024 -0.018819511 0.71644831
0.014024245 -0.020034611 0.71799958
0.01417001 -0.021254987 0.71943784
0.014299019 -0.022469878 0.72071069
0.014417356 -0.023685634 0.72187829
0.014521242 -0.024893552 0.72290325
0.014615852 -0.026099712 0.72383678
0.014702768 -0.027305096 0.72469425
0.014782375 -0.028508872 0.72547972
0.014858657 -0.029717267 0.72623235
0.014920531 -0.030906796 0.72684288
0.014981951 -0.032104194 0.72744894
0.015034698 -0.033291101 0.72796929
0.015082573 -0.034474462 0.72844172
0.015127288 -0.035657167 0.72888285
0.015163098 -0.036824614 0.72923619
0.01519891 -0.037997276 0.72958958
0.015225422 -0.039151073 0.72985113
0.015249567 -0.040302396 0.73008937
0.015271437 -0.041451037 0.73030519
0.015285005 -0.042579651 0.73043907
0.015298709 -0.043710589 0.73057425
0.015306807 -0.044827074 0.73065412
0.015310635 -0.045931876 0.73069191
0.01531441 -0.047037095 0.7307291
0.015309847 -0.048116654 0.7306841
0.015303713 -0.049190491 0.7306236
0.015297697 -0.050263852 0.73056424
0.0203276 0.027103484 0.76682144
0.01917428 0.024287432 0.75620067
0.018518636 0.02222237 0.75016296
0.018007252 0.020408213 0.74545372
0.017571947 0.018743426 0.74144506
0.017191043 0.017191082 0.73793733
0.016848672 0.015725464 0.73478448
0.016535224 0.014330566 0.73189801
0.016246352 0.012997091 0.72923785
0.015978895 0.011717886 0.72677481
0.015728306 0.01048556 0.72446722
0.015491423 0.0092948675 0.72228575
0.01526857 0.0081432462 0.72023356
0.015056862 0.0070265532 0.71828401
0.014855102 0.0059420764 0.71642596
0.014662192 0.0048874319 0.71464956
0.014478787 0.0038610101 0.71296054
0.014302893 0.0028606057 0.71134079
0.014133191 0.0018844306 0.70977801
0.013991079 0.00093278289 0.70846933
0.013921482 2.9802322e-08 0.7078284
0.01388785 -0.00092583895 0.70751876
0.013874287 -0.0018499196 0.70739388
0.013860966 -0.0027721822 0.70727116
0.0138478 -0.0036927164 0.70714992
0.013834658 -0.004611522 0.70702893
0.013821542 -0.005528599 0.70690811
0.013808621 -0.0064440072 0.70678914
0.013795896 -0.0073577762 0.70667195
0.013783533 -0.0082701147 0.70655811
0.013770471 -0.0091802776 0.70643783
0.013737057 -0.010073841 0.70613009
0.013690345 -0.010952264 0.70569992
0.013645162 -0.0118258 0.70528382
0.013648502 -0.012738585 0.70531458
0.013856532 -0.0138565 0.70723033
0.014221093 -0.015169144 0.7105875
0.014494593 -0.016427189 0.7131061
0.014718113 -0.017661691 0.71516448
0.014915847 -0.018893361 0.71698534
0.015080838 -0.020107746 0.71850479
0.015232179 -0.021325052 0.71989846
0.015364649 -0.022534817 0.72111833
0.015485401 -0.023744255 0.72223037
0.015596768 -0.024954826 0.72325593
0.015699688 -0.026166141 0.72420365
0.015790159 -0.027369589 0.7250368
0.015876137 -0.028577 0.72582853
0.015949987 -0.029773295 0.72650868
0.016018659 -0.030969411 0.72714102
0.016084732 -0.032169461 0.72774947
0.016137918 -0.033351719 0.72823924
0.016190983 -0.034540743 0.72872794
0.016235061 -0.03571713 0.72913384
0.016274743 -0.036889404 0.72949922
0.016312772 -0.038063139 0.72984946
0.016339481 -0.03921473 0.73009545
0.016366277 -0.040370136 0.73034227
0.016387438 -0.041514814 0.73053706
0.016403167 -0.042648196 0.7306819
0.016418802 -0.043783456 0.7308259
0.016424667 -0.044894069 0.7308799
0.016428839 -0.046000749 0.73091829
0.016431987 -0.047105014 0.73094738
0.016426241 -0.04818362 0.73089445
0.016420919 -0.049262732 0.73084533
0.016419346 -0.050352633 0.73083091
0.020271247 0.022805154 0.75463533
0.019550316 0.020772249 0.7484113
0.01900012 0.019000143 0.74366128
0.018536773 0.017378241 0.73966104
0.018130995 0.01586464 0.73615789
0.017768176 0.014436662 0.73302555
0.017437976 0.013078481 0.73017478
0.017134007 0.011779666 0.72755057
0.016851664 0.01053229 0.72511297
0.016586507 0.0093299448 0.72282386
0.016337024 0.0081685185 0.72066998
0.016103812 0.007045418 0.7186566
0.015880451 0.0059551895 0.71672827
0.015667634 0.0048961639 0.71489096
0.015466025 0.0038665235 0.71315038
0.015273018 0.0028637052 0.71148413
0.015087449 0.0018859208 0.70988202
0.014940641 0.00093376637 0.70861459
0.014868188 2.9802322e-08 0.7079891
0.014838189 -0.00092738867 0.70773005
0.014823536 -0.0018529296 0.70760363
0.014808912 -0.0027766824 0.70747733
0.014794316 -0.0036985874 0.70735133
0.014779704 -0.0046186745 0.7072252
0.01476544 -0.0055370331 0.707102
0.014751388 -0.0064537227 0.70698071
0.014737408 -0.0073687136 0.70686001
0.014723408 -0.0082819164 0.70673919
0.014707298 -0.0091920197 0.70660007
0.014663697 -0.010081291 0.70622361
0.014611466 -0.010958582 0.7057727
0.01456843 -0.011836827 0.70540118
0.014592242 -0.012768179 0.70560676
0.014903112 -0.013971627 0.70829058
0.015256662 -0.015256643 0.71134293
0.015529929 -0.016500533 0.71370208
0.015760629 -0.017730683 0.71569377
0.015962169 -0.018955082 0.71743369
0.016132584 -0.020165741 0.71890497
0.016287813 -0.021377742 0.72024512
0.016428625 -0.022589356 0.72146082
0.016556958 -0.023800582 0.72256869
0.016671175 -0.025006771 0.72355485
0.016779048 -0.026217282 0.72448611
0.016876226 -0.027423859 0.72532511
0.01696286 -0.028624803 0.72607297
0.017042385 -0.029824197 0.72675961
0.01711835 -0.031026959 0.72741538
0.017182203 -0.032216609 0.72796667
0.017241409 -0.033405244 0.72847784
0.01729851 -0.034597009 0.72897083
0.01734239 -0.035768688 0.72934961
0.017386304 -0.036945879 0.72972876
0.017422972 -0.03811273 0.73004532
0.017452942 -0.03926909 0.73030406
0.017483082 -0.040429622 0.73056424
0.017503211 -0.041570127 0.73073804
0.017520096 -0.042705238 0.73088384
0.017535206 -0.043837994 0.73101419
0.01754115 -0.044949204 0.73106557
0.017547037 -0.046061009 0.73111641
0.017548915 -0.047162682 0.73113257
0.017544579 -0.048247546 0.73109519
0.017539082 -0.049328625 0.73104769
0.017552733 -0.050464064 0.73116553
0.021357141 0.021357149 0.75316411
0.020565366 0.019355655 0.74673063
0.019972304 0.017622679 0.74191165
0.019482056 0.01604408 0.73792815
0.019053638 0.014570475 0.73444712
0.018670235 0.013179004 0.73133177
0.01832265 0.01185587 0.72850746
0.018002309 0.0105896 0.72590464
0.017704813 0.009373188 0.72348726
0.017425753 0.0082003772 0.72121978
0.017166303 0.007068485 0.71911162
0.016920468 0.0059719384 0.71711409
0.01668587 0.0049076378 0.71520787
0.016464278 0.0038739741 0.71340734
0.016252728 0.0028681755 0.7116884
0.016049854 0.0018882155 0.71003997
0.015898541 0.00093522668 0.70881051
0.015824497 2.9802322e-08 0.7082088
0.015794488 -0.0009290576 0.70796496
0.015778467 -0.0018562675 0.70783484
0.01576253 -0.0027815998 0.70770526
0.015746573 -0.0037050545 0.70757568
0.015730796 -0.0046266913 0.70744747
0.015715199 -0.00554654 0.70732075
0.015699582 -0.0064644814 0.70719385
0.015684048 -0.007380724 0.70706761
0.015668541 -0.008295089 0.7069416
0.01564982 -0.0092057586 0.70678949
0.015597483 -0.010092467 0.70636427
0.015539045 -0.010968745 0.7058894
0.01550169 -0.011854202 0.7055859
0.015547933 -0.01280418 0.70596159
0.015939392 -0.014064163 0.70914245
0.01629227 -0.015333861 0.71200973
0.016566839 -0.016566813 0.71424067
0.016800089 -0.017788291 0.71613598
0.017004581 -0.01900512 0.71779752
0.017181356 -0.020213366 0.71923399
0.017345998 -0.021427423 0.72057176
0.017490195 -0.022634357 0.72174346
0.017628878 -0.023850828 0.72287029
0.017745767 -0.025052845 0.72382003
0.017855885 -0.026258618 0.72471476
0.017957294 -0.027464062 0.72553879
0.018050255 -0.028668046 0.72629416
0.018136961 -0.029872596 0.72699869
0.018212292 -0.031067997 0.72761071
0.018279854 -0.03225854 0.72815979
0.018345321 -0.033453196 0.7286917
0.018400069 -0.034635395 0.72913659
0.018448882 -0.035812497 0.7295332
0.018497685 -0.036995351 0.72992969
0.018531857 -0.038153797 0.73020732
0.018565884 -0.039315969 0.73048389
0.018596342 -0.040474355 0.73073137
0.018616064 -0.041612357 0.73089164
0.018635824 -0.042752773 0.73105222
0.018649641 -0.043881476 0.73116446
0.018658038 -0.044998795 0.73123264
0.018664788 -0.046113014 0.73128754
0.018663066 -0.047206581 0.73127353
0.01865907 -0.048294097 0.73124111
0.018655147 -0.049381256 0.73120916
0.018723475 -0.050663531 0.73176438
0.022448534 0.019954264 0.75189865
0.021562746 0.017969012 0.74510098
0.020929612 0.016278595 0.74024236
0.02040709 0.01473847 0.73623246
0.019956335 0.013304234 0.73277336
0.019553304 0.011949271 0.72968054
0.01918794 0.010659963 0.72687662
0.018851502 0.0094257891 0.72429484
0.01853917 0.0082396865 0.72189796
0.018249577 0.0070970654 0.71967566
0.017977459 0.0059925318 0.71758735
0.017719146 0.0049219728 0.71560502
0.017476074 0.0038836002 0.71373969
0.017243968 0.0028740168 0.71195853
0.01702228 0.0018914044 0.71025729
0.016862173 0.0009368062 0.7090286
0.016784715 -0 0.70843422
0.016757078 -0.00093093514 0.70822215
0.016739788 -0.0018599331 0.70808935
0.01672253 -0.0027870536 0.70795703
0.016705258 -0.0037122667 0.70782441
0.016688071 -0.0046355426 0.7076925
0.016670922 -0.005556941 0.7075609
0.016653806 -0.0064764619 0.70742959
0.016636675 -0.0073940456 0.7072981
0.016619733 -0.0083098412 0.7071681
0.016593974 -0.0092188716 0.70697045
0.01654157 -0.010108709 0.70656824
0.016475793 -0.010983855 0.70606351
0.0164432 -0.011875629 0.70581341
0.016518395 -0.012847632 0.70639044
0.016966116 -0.01413843 0.70982623
0.017315701 -0.015391707 0.71250898
0.01759411 -0.016616613 0.71464556
