# .PCD v0.7 - Point Cloud Data file format
VERSION 0.7
FIELDS x y z
SIZE 4 4 4
TYPE F F F
COUNT 1 1 1
WIDTH 1315
HEIGHT 1
VIEWPOINT 0 0 0 1 0 0 0
POINTS 1315
DATA ascii
-0.039848 0.011385143 0.73689371
-0.039752278 0.010222048 0.73651594
-0.039668351 0.0090670884 0.73618466
-0.039595466 0.0079191327 0.735897
-0.039535161 0.0067774653 0.735659
-0.039485671 0.0056408644 0.73546374
-0.039445866 0.0045081079 0.73530662
-0.039415993 0.0033785403 0.73518878
-0.039397344 0.0022512972 0.73511517
-0.039387804 0.0011253953 0.73507744
-0.039387651 -0 0.7350769
-0.039396748 -0.0011256039 0.73511279
-0.039416589 -0.0022523403 0.73519105
-0.039446466 -0.0033811033 0.735309
-0.039485671 -0.0045126379 0.73546374
-0.03953471 -0.0056478381 0.73565733
-0.03959607 -0.0067878664 0.73589945
-0.039668351 -0.0079336464 0.73618472
-0.039751675 -0.0090860724 0.73651356
-0.039848462 -0.010246694 0.7368955
-0.039958142 -0.011416584 0.73732841
-0.040081542 -0.012597024 0.73781538
-0.040221557 -0.01379022 0.73836803
-0.040377107 -0.014997184 0.7389819
-0.040552981 -0.016221166 0.73967606
-0.040749203 -0.017463923 0.7404505
-0.040970061 -0.01872915 0.7413221
-0.041220408 -0.020021319 0.74231011
-0.041504756 -0.021345288 0.7434324
-0.041833032 -0.02270934 0.74472797
-0.042216305 -0.024123609 0.74624062
-0.042677417 -0.025606424 0.74806041
-0.043255761 -0.027189314 0.75034297
-0.044067387 -0.028958559 0.75354618
-0.042794004 0.030207574 0.75348806
-0.042018659 0.028424412 0.75033796
-0.041457552 0.026825517 0.74805838
-0.04101079 0.025330216 0.7462433
-0.040638126 0.0239048 0.74472928
-0.040319066 0.022531301 0.743433
-0.040042523 0.021199018 0.74230945
-0.039799646 0.019899845 0.74132276
-0.03958432 0.018627912 0.74044794
-0.039393861 0.017379701 0.73967409
-0.039223935 0.016151071 0.73898375
-0.039071914 0.014939308 0.73836613
-0.038936805 0.013742447 0.73781729
-0.038816631 0.012558371 0.73732901
-0.038709488 0.011385143 0.73689371
-0.038616352 0.010221988 0.73651528
-0.038534969 0.0090670884 0.73618466
-0.038464166 0.0079191327 0.735897
-0.038405586 0.0067774653 0.735659
-0.038357507 0.0056408644 0.73546374
-0.038318843 0.0045081079 0.73530662
-0.038289823 0.0033785403 0.73518878
-0.038271707 0.0022512972 0.73511517
-0.038262438 0.0011253953 0.73507744
-0.038262293 -0 0.7350769
-0.038271271 -0.0011256039 0.73511338
-0.0382904 -0.0022523403 0.73519105
-0.038319424 -0.0033811033 0.735309
-0.038357507 -0.0045126379 0.73546374
-0.038405146 -0.0056478381 0.73565733
-0.038464755 -0.0067878664 0.73589945
-0.038534824 -0.0079336166 0.73618412
-0.038615912 -0.0090860724 0.73651356
-0.038709931 -0.010246694 0.7368955
-0.038816329 -0.011416554 0.73732781
-0.038936358 -0.012597024 0.73781538
-0.039072368 -0.01379022 0.73836803
-0.039223626 -0.014997274 0.7389825
-0.039394323 -0.016221166 0.73967606
-0.039584942 -0.017463923 0.7404505
-0.039799489 -0.01872915 0.7413221
-0.04004268 -0.020021319 0.74231011
-0.040318906 -0.021345288 0.7434324
-0.040637799 -0.02270934 0.74472797
-0.041010126 -0.024123609 0.74624062
-0.041458059 -0.025606424 0.74806041
-0.042019706 -0.027189225 0.75034225
-0.042795997 -0.028950214 0.75349611
-0.043204028 0.032730341 0.76047277
-0.041535355 0.030207574 0.75348806
-0.040782817 0.028424412 0.75033796
-0.040238049 0.026825368 0.74805766
-0.039804589 0.025330216 0.7462433
-0.039442889 0.0239048 0.74472928
-0.03913321 0.022531301 0.743433
-0.038864955 0.021199048 0.74231017
-0.038629066 0.019899845 0.74132276
-0.038420077 0.018627912 0.74044794
-0.038235221 0.017379701 0.73967409
-0.038070291 0.016151071 0.73898375
-0.03792274 0.014939308 0.73836613
-0.037791602 0.013742447 0.73781729
-0.037674963 0.012558371 0.73732901
-0.037570976 0.011385143 0.73689371
-0.037480578 0.010221988 0.73651528
-0.03740159 0.0090670884 0.73618466
-0.03733287 0.0079191327 0.735897
-0.037276007 0.0067774653 0.735659
-0.037229344 0.0056408644 0.73546374
-0.037191816 0.0045081079 0.73530662
-0.037163652 0.0033785403 0.73518878
-0.037146207 0.002251327 0.73511577
-0.037137073 0.0011253953 0.73507744
-0.037136927 -0 0.7350769
-0.037145644 -0.0011256039 0.73511338
-0.037164215 -0.0022523403 0.73519105
-0.037192382 -0.0033811033 0.735309
-0.037229344 -0.0045126379 0.73546374
-0.037275583 -0.0056478381 0.73565733
-0.037333436 -0.0067878664 0.73589945
-0.037401449 -0.0079336166 0.73618412
-0.037480149 -0.0090860724 0.73651356
-0.037571404 -0.010246694 0.7368955
-0.037674677 -0.011416554 0.73732781
-0.03779117 -0.012597024 0.73781538
-0.03792318 -0.01379022 0.73836803
-0.038069993 -0.014997274 0.7389825
-0.038235668 -0.016221166 0.73967606
-0.038420681 -0.017463923 0.7404505
-0.038628913 -0.01872915 0.7413221
-0.038864955 -0.020021319 0.74231011
-0.03913321 -0.021345407 0.743433
-0.039442573 -0.02270934 0.74472797
-0.039803945 -0.024123609 0.74624062
-0.040238544 -0.025606364 0.74805975
-0.040783834 -0.027189225 0.75034225
-0.041537292 -0.028950214 0.75349611
-0.043203268 -0.031420529 0.76046962
-0.041894998 0.03273049 0.76047361
-0.040276714 0.030207574 0.75348806
-0.03954681 0.028424293 0.75033724
-0.039018713 0.026825368 0.74805766
-0.038598388 0.025330216 0.7462433
-0.038247649 0.0239048 0.74472928
-0.037947357 0.022531301 0.743433
-0.037687231 0.021199048 0.74231017
-0.03745864 0.019899905 0.74132335
-0.037255976 0.018628031 0.74044859
-0.037076578 0.017379701 0.73967409
-0.036916643 0.016151071 0.73898375
-0.036773566 0.014939308 0.73836613
-0.036646407 0.013742447 0.73781729
-0.0365333 0.012558371 0.73732901
-0.03643246 0.011385143 0.73689371
-0.036344804 0.010221988 0.73651528
-0.036268208 0.0090670884 0.73618466
-0.03620157 0.0079191327 0.735897
-0.036146432 0.0067774653 0.735659
-0.036101181 0.0056408644 0.73546374
-0.036064792 0.0045081079 0.73530662
-0.036037479 0.0033785403 0.73518878
-0.036020566 0.002251327 0.73511577
-0.036011703 0.0011253953 0.73507744
-0.036011703 5.9604645e-08 0.73507744
-0.036020018 -0.0011256039 0.73511338
-0.036038026 -0.0022523403 0.73519105
-0.03606534 -0.0033811033 0.735309
-0.036101181 -0.0045126379 0.73546374
-0.036146022 -0.0056478381 0.73565733
-0.036202122 -0.0067878664 0.73589945
-0.036268067 -0.0079336166 0.73618412
-0.036344387 -0.0090860724 0.73651356
-0.036432877 -0.010246694 0.7368955
-0.036533017 -0.011416554 0.73732781
-0.036645982 -0.012597024 0.73781538
-0.036773991 -0.01379022 0.73836803
-0.036916357 -0.014997274 0.7389825
-0.03707701 -0.016221166 0.73967606
-0.037256416 -0.017463923 0.7404505
-0.037458345 -0.01872915 0.7413221
-0.03768738 -0.020021379 0.74231076
-0.037947357 -0.021345407 0.743433
-0.038247339 -0.02270934 0.74472797
-0.038597763 -0.024123609 0.74624062
-0.03901919 -0.025606364 0.74805975
-0.039547957 -0.027189225 0.75034225
-0.040278926 -0.028950483 0.75349754
-0.041894078 -0.031420529 0.76046962
-0.040585961 0.032730639 0.76047438
-0.039018065 0.030207574 0.75348806
-0.038310971 0.028424293 0.75033724
-0.037799381 0.026825368 0.74805766
-0.037392192 0.025330216 0.7462433
-0.037052412 0.0239048 0.74472928
-0.036761649 0.02253136 0.74343365
-0.036509506 0.021199048 0.74231017
-0.036288057 0.019899905 0.74132335
-0.03609173 0.018628031 0.74044859
-0.035917934 0.017379701 0.73967409
-0.035762999 0.016151071 0.73898375
-0.035624392 0.014939308 0.73836613
-0.035501204 0.013742447 0.73781729
-0.035391498 0.012558311 0.73732841
-0.035293944 0.011385143 0.73689371
-0.03520903 0.010221988 0.73651528
-0.035134692 0.0090670288 0.73618412
-0.03507027 0.0079191327 0.735897
-0.035016857 0.0067774653 0.735659
-0.034973022 0.0056408644 0.73546374
-0.034937769 0.0045081079 0.73530662
-0.034911439 0.0033785403 0.73518932
-0.034894921 0.002251327 0.73511577
-0.034886342 0.0011253953 0.73507744
-0.034886342 5.9604645e-08 0.73507744
-0.034894392 -0.0011256039 0.73511338
-0.034911837 -0.0022523403 0.73519105
-0.034938298 -0.0033811033 0.735309
-0.034973022 -0.0045126379 0.73546374
-0.035016458 -0.0056478381 0.73565733
-0.035070803 -0.0067878664 0.73589945
-0.035134692 -0.0079336166 0.73618412
-0.03520849 -0.0090860426 0.73651302
-0.035294212 -0.010246694 0.73689497
-0.035391361 -0.011416554 0.73732781
-0.035500795 -0.012597024 0.73781538
-0.035624806 -0.01379022 0.73836803
-0.03576272 -0.014997274 0.7389825
-0.035918355 -0.016221166 0.73967606
-0.036092296 -0.017464012 0.74045104
-0.03628777 -0.01872915 0.7413221
-0.036509648 -0.020021379 0.74231076
-0.036761504 -0.021345407 0.743433
-0.037052114 -0.02270934 0.74472797
-0.037391432 -0.02412346 0.7462399
-0.03779969 -0.025606215 0.74805909
-0.038311929 -0.027189076 0.75034153
-0.039020211 -0.028950483 0.75349754
-0.040584888 -0.031420529 0.76046962
-0.039276909 0.032730788 0.76047516
-0.037759416 0.030207574 0.75348806
-0.037075136 0.028424293 0.75033724
-0.036579892 0.026825249 0.74805701
-0.036185991 0.025330216 0.7462433
-0.035857171 0.0239048 0.74472928
-0.035575788 0.02253136 0.74343365
-0.03533192 0.021199167 0.74231076
-0.035117473 0.019899905 0.74132335
-0.03492748 0.018628031 0.74044859
-0.034759291 0.017379701 0.73967409
-0.034609355 0.016151071 0.73898375
-0.034475219 0.014939308 0.73836613
-0.034356002 0.013742447 0.73781729
-0.034249835 0.012558311 0.73732841
-0.034155432 0.011385143 0.73689371
-0.034073252 0.010221988 0.73651528
-0.034001317 0.0090670288 0.73618412
-0.03393897 0.0079191327 0.735897
-0.033887282 0.0067774653 0.735659
-0.033844858 0.0056408644 0.73546374
-0.033810873 0.0045081675 0.73530716
-0.033785265 0.0033785403 0.73518932
-0.03376928 0.002251327 0.73511577
-0.033760972 0.0011253953 0.73507744
-0.033760972 5.9604645e-08 0.73507744
-0.033768769 -0.0011256039 0.73511338
-0.033785649 -0.0022523403 0.73519105
-0.033811126 -0.0033810735 0.73530841
-0.033844858 -0.0045126379 0.73546374
-0.033886895 -0.0056478381 0.73565733
-0.033939488 -0.0067878664 0.73589945
-0.034001317 -0.0079336166 0.73618412
-0.034072734 -0.0090860426 0.73651302
-0.034155693 -0.010246694 0.73689497
-0.034249704 -0.011416554 0.73732781
-0.034355607 -0.012597024 0.73781538
-0.034475617 -0.01379022 0.73836803
-0.034609083 -0.014997274 0.7389825
-0.034759697 -0.016221166 0.73967606
-0.034928028 -0.017464012 0.74045104
-0.035117198 -0.01872915 0.7413221
-0.03533192 -0.020021379 0.74231076
-0.035575647 -0.021345407 0.743433
-0.03585688 -0.02270934 0.74472797
-0.036185257 -0.02412346 0.7462399
-0.036580343 -0.025606215 0.74805909
-0.03707606 -0.027189076 0.75034153
-0.037761495 -0.028950483 0.75349754
-0.039275698 -0.031420529 0.76046962
-0.037967846 0.032730907 0.76047593
-0.036500771 0.030207574 0.75348806
-0.035839148 0.028424174 0.75033659
-0.035360564 0.026825249 0.74805701
-0.034979794 0.025330216 0.7462433
-0.034662072 0.02390486 0.74472994
-0.034389928 0.02253136 0.74343365
-0.034154188 0.021199167 0.74231076
-0.033946894 0.019899905 0.74132335
-0.03376323 0.018628031 0.74044859
-0.033600647 0.017379701 0.73967409
-0.033455711 0.016151071 0.73898375
-0.033326045 0.014939308 0.73836613
-0.033210807 0.013742447 0.73781729
-0.033108175 0.012558311 0.73732841
-0.03301679 0.011385143 0.73689306
-0.032937352 0.010221958 0.73651475
-0.032867935 0.0090670288 0.73618412
-0.032807674 0.0079191327 0.735897
-0.032757703 0.0067774653 0.735659
-0.032716695 0.0056408644 0.73546374
-0.032683842 0.0045081675 0.73530716
-0.032659087 0.0033785403 0.73518932
-0.032643635 0.002251327 0.73511577
-0.032635611 0.0011253953 0.73507744
-0.032635611 5.9604645e-08 0.73507744
-0.032643143 -0.0011256039 0.73511338
-0.03265946 -0.0022523403 0.73519105
-0.032684088 -0.0033810735 0.73530841
-0.032716695 -0.0045126379 0.73546374
-0.032757454 -0.0056478083 0.73565781
-0.03280817 -0.0067878664 0.73589945
-0.032867812 -0.0079335868 0.73618352
-0.032936975 -0.0090860426 0.73651302
-0.03301717 -0.010246694 0.73689497
-0.033108044 -0.011416554 0.73732781
-0.033210419 -0.012597024 0.73781538
-0.033326432 -0.01379022 0.73836803
-0.033455446 -0.014997274 0.7389825
-0.033601042 -0.016221166 0.73967606
-0.033763759 -0.017464012 0.74045104
-0.033946756 -0.01872924 0.74132276
-0.034154322 -0.020021498 0.74231142
-0.034389794 -0.021345407 0.743433
-0.034661654 -0.02270934 0.74472797
-0.034979083 -0.02412346 0.7462399
-0.035360999 -0.025606215 0.74805909
-0.035840042 -0.027189016 0.75034082
-0.036502779 -0.028950483 0.75349754
-0.037966508 -0.031420529 0.76046962
-0.036658611 0.032730907 0.76047593
-0.035242271 0.030207694 0.75348872
-0.034603316 0.028424174 0.75033659
-0.034141235 0.026825249 0.74805701
-0.03377359 0.025330216 0.7462433
-0.033466827 0.02390486 0.74472994
-0.033204071 0.02253136 0.74343365
-0.032976456 0.021199167 0.74231076
-0.032776307 0.019899905 0.74132335
-0.03259898 0.018628031 0.74044859
-0.032442003 0.017379701 0.73967409
-0.032302063 0.016151071 0.73898375
-0.032176871 0.014939308 0.73836613
-0.032065604 0.013742447 0.73781729
-0.031966515 0.012558311 0.73732841
-0.031878281 0.011385143 0.73689306
-0.031801581 0.010221958 0.73651475
-0.03173456 0.0090670288 0.73618412
-0.031676374 0.0079191327 0.735897
-0.031628128 0.0067774653 0.735659
-0.031588536 0.0056408644 0.73546374
-0.031556811 0.0045081675 0.73530716
-0.031532913 0.0033785403 0.73518932
-0.031517994 0.002251327 0.73511577
-0.031510241 0.0011253953 0.73507744
-0.031510241 5.9604645e-08 0.73507744
-0.031517517 -0.0011256039 0.73511338
-0.031533271 -0.0022523403 0.73519105
-0.031557053 -0.0033810735 0.73530841
-0.031588536 -0.0045126379 0.73546374
-0.03162789 -0.0056478083 0.73565781
-0.031676855 -0.0067878664 0.73589945
-0.03173444 -0.0079335868 0.73618352
-0.031801216 -0.0090860426 0.73651302
-0.031878643 -0.010246694 0.73689497
-0.031966265 -0.011416495 0.73732722
-0.032065231 -0.012597024 0.73781538
-0.032177243 -0.01379022 0.73836803
-0.032301813 -0.014997274 0.7389825
-0.03244251 -0.016221225 0.73967659
-0.03259949 -0.017464012 0.74045104
-0.032776181 -0.01872924 0.74132276
-0.03297659 -0.020021498 0.74231142
-0.033203937 -0.021345407 0.743433
-0.033466425 -0.02270934 0.74472797
-0.033772908 -0.02412346 0.7462399
-0.034141514 -0.025606126 0.74805838
-0.034604177 -0.027189016 0.75034082
-0.035244059 -0.028950483 0.75349754
-0.036656994 -0.031420261 0.76046807
-0.035349529 0.032731086 0.76047677
-0.033983618 0.030207694 0.75348872
-0.033367343 0.028424054 0.75033587
-0.032921903 0.026825249 0.74805701
-0.032567389 0.025330216 0.7462433
-0.032271583 0.02390486 0.74472994
-0.032018207 0.02253136 0.74343365
-0.031798851 0.021199286 0.74231142
-0.031605728 0.019899905 0.74132335
-0.031434853 0.018628091 0.74044919
-0.031283364 0.017379701 0.73967409
-0.031148417 0.016151071 0.73898375
-0.031027578 0.014939219 0.73836553
-0.030920403 0.013742447 0.73781729
-0.030824732 0.012558252 0.73732781
-0.030739769 0.011385143 0.73689306
-0.030665811 0.010221958 0.73651475
-0.030601183 0.0090670288 0.73618412
-0.030545074 0.0079191327 0.735897
-0.030498553 0.0067774653 0.735659
-0.030460374 0.0056408644 0.73546374
-0.030429784 0.0045081675 0.73530716
-0.030406853 0.0033785403 0.73518991
-0.030392468 0.0022512972 0.7351163
-0.030384876 0.0011253953 0.73507744
-0.030384876 5.9604645e-08 0.73507744
-0.030391891 -0.0011256039 0.73511338
-0.030407084 -0.0022523403 0.73519105
-0.030430015 -0.0033810735 0.73530841
-0.030460374 -0.0045126379 0.73546374
-0.030498322 -0.0056478083 0.73565781
-0.03054554 -0.0067878664 0.73589945
-0.030601067 -0.0079335868 0.73618352
-0.030665342 -0.0090860128 0.73651236
-0.030740123 -0.010246694 0.73689497
-0.030824615 -0.011416495 0.73732722
-0.030920045 -0.012597024 0.73781538
-0.031027935 -0.01379016 0.73836732
-0.031148177 -0.014997274 0.7389825
-0.031283848 -0.016221225 0.73967659
-0.031435344 -0.017464072 0.74045169
-0.031605601 -0.01872924 0.74132276
-0.031798851 -0.020021498 0.74231142
-0.03201808 -0.021345407 0.743433
-0.032271195 -0.02270934 0.74472797
-0.03256673 -0.02412346 0.7462399
-0.032922175 -0.025606126 0.74805838
-0.033368174 -0.027188838 0.7503401
-0.033985347 -0.028950483 0.75349754
-0.035347816 -0.031420261 0.76046807
-0.034040436 0.032731235 0.76047754
-0.032725103 0.030207813 0.75348949
-0.032131515 0.028424054 0.75033587
-0.031702444 0.02682519 0.74805629
-0.031361192 0.025330216 0.7462433
-0.031076338 0.02390486 0.74472994
-0.03083235 0.02253136 0.74343365
-0.030621117 0.021199286 0.74231142
-0.030435143 0.019899905 0.74132335
-0.030270601 0.018628091 0.74044919
-0.030124718 0.017379701 0.73967409
-0.02999489 0.0161511 0.73898441
-0.029878408 0.014939219 0.73836553
-0.029775089 0.013742387 0.73781669
-0.029683078 0.012558252 0.73732781
-0.029601261 0.011385143 0.73689306
-0.029530041 0.010221958 0.73651475
-0.029467806 0.0090670288 0.73618412
-0.029413776 0.0079191327 0.735897
-0.029368976 0.0067774653 0.735659
-0.029332211 0.0056408644 0.73546374
-0.029302754 0.0045081675 0.73530716
-0.029280672 0.0033785403 0.73518991
-0.029266819 0.0022512972 0.7351163
-0.02925951 0.0011253953 0.73507744
-0.02925951 5.9604645e-08 0.73507744
-0.029266266 -0.0011256039 0.73511338
-0.029280895 -0.0022523403 0.73519105
-0.029302977 -0.0033810735 0.73530841
-0.029332211 -0.0045126379 0.73546374
-0.029368754 -0.0056478083 0.73565781
-0.029414224 -0.0067878664 0.73589945
-0.029467694 -0.0079335868 0.73618352
-0.029529588 -0.0090860128 0.73651236
-0.029601486 -0.010246634 0.73689431
-0.029682962 -0.011416495 0.73732722
-0.029774861 -0.012597024 0.73781538
-0.029878754 -0.01379016 0.73836732
-0.02999454 -0.014997274 0.7389825
-0.030125188 -0.016221225 0.73967659
-0.030271076 -0.017464072 0.74045169
-0.030435024 -0.01872924 0.74132276
-0.030621236 -0.020021588 0.74231207
-0.030832227 -0.021345407 0.743433
-0.031075966 -0.02270934 0.74472797
-0.031360429 -0.0241234 0.74623924
-0.031702705 -0.025606006 0.74805766
-0.032132316 -0.027188838 0.7503401
-0.032726627 -0.028950483 0.75349754
-0.034038637 -0.031420261 0.76046807
-0.032731336 0.032731354 0.76047838
-0.031466447 0.030207813 0.75348949
-0.030895688 0.028424054 0.75033587
-0.030483119 0.02682519 0.74805629
-0.030154992 0.025330216 0.7462433
-0.029881096 0.02390486 0.74472994
-0.02964649 0.02253136 0.74343365
-0.029443381 0.021199286 0.74231142
-0.029264677 0.019900024 0.74132401
-0.029106347 0.018628091 0.74044919
-0.028966077 0.017379701 0.73967409
-0.02884124 0.0161511 0.73898441
-0.028729238 0.014939219 0.73836553
-0.028629893 0.013742387 0.73781669
-0.02854142 0.012558252 0.73732781
-0.028462751 0.011385143 0.73689306
-0.028394161 0.010221928 0.73651421
-0.02833432 0.009066999 0.73618352
-0.028282477 0.0079191327 0.735897
-0.028239401 0.0067774653 0.735659
-0.02820405 0.0056408644 0.73546374
-0.028175725 0.0045081675 0.73530716
-0.028154494 0.0033785403 0.73518991
-0.028141173 0.0022512972 0.7351163
-0.028134145 0.0011253953 0.73507744
-0.028134145 5.9604645e-08 0.73507744
-0.028140748 -0.0011256337 0.73511398
-0.028154707 -0.0022523403 0.73519105
-0.028175939 -0.0033810735 0.73530841
-0.02820405 -0.0045126379 0.73546374
-0.028239185 -0.0056478083 0.73565781
-0.028282907 -0.0067878664 0.73589945
-0.02833432 -0.0079335868 0.73618352
-0.028393835 -0.0090860128 0.73651236
-0.028462967 -0.010246634 0.73689431
-0.028541312 -0.011416495 0.73732722
-0.028629672 -0.012597024 0.73781538
-0.028729569 -0.01379016 0.73836732
-0.028840905 -0.014997274 0.7389825
-0.028966527 -0.016221225 0.73967659
-0.029106803 -0.017464072 0.74045169
-0.029264444 -0.01872924 0.74132276
-0.029443499 -0.020021588 0.74231207
-0.029646372 -0.021345407 0.743433
-0.029880734 -0.02270934 0.74472797
-0.030154258 -0.0241234 0.74623924
-0.030483369 -0.025606006 0.74805766
-0.030896461 -0.027188838 0.7503401
-0.031467911 -0.028950483 0.75349754
-0.032729458 -0.031420261 0.76046807
-0.031422079 0.032731354 0.76047838
-0.030207789 0.030207813 0.75348949
-0.029659737 0.028423935 0.75033516
-0.029263794 0.02682519 0.74805629
-0.028948793 0.025330216 0.7462433
-0.028685851 0.02390486 0.74472994
-0.028460631 0.02253136 0.74343365
-0.028265759 0.021199346 0.74231207
-0.028094089 0.019900024 0.74132401
-0.027942093 0.018628091 0.74044919
-0.027807433 0.017379701 0.73967409
-0.027687591 0.0161511 0.73898441
-0.027580069 0.014939219 0.73836553
-0.027484696 0.013742387 0.73781669
-0.027399763 0.012558252 0.73732781
-0.027324241 0.011385143 0.73689306
-0.027258394 0.010221928 0.73651421
-0.027200948 0.009066999 0.73618352
-0.027151179 0.0079191327 0.735897
-0.027109722 0.0067774653 0.73565847
-0.027075887 0.0056408644 0.73546374
-0.027048698 0.0045081675 0.73530716
-0.027028315 0.0033785403 0.73518991
-0.027015526 0.0022512972 0.7351163
-0.027008882 0.0011253953 0.7350781
-0.027008779 5.9604645e-08 0.73507744
-0.027015118 -0.0011256337 0.73511398
-0.02702852 -0.0022523403 0.73519105
-0.027048903 -0.0033810735 0.73530841
-0.027075887 -0.0045126379 0.73546374
-0.027109619 -0.0056478083 0.73565781
-0.02715159 -0.0067878664 0.73589945
-0.027200948 -0.0079335868 0.73618352
-0.027258081 -0.0090860128 0.73651236
-0.027324449 -0.010246634 0.73689431
-0.027399657 -0.011416495 0.73732722
-0.027484486 -0.012597024 0.73781538
-0.027580388 -0.01379016 0.73836732
-0.027687266 -0.014997274 0.7389825
-0.027807865 -0.016221225 0.73967659
-0.027942531 -0.017464072 0.74045169
-0.028093867 -0.01872924 0.74132276
-0.028265759 -0.020021588 0.74231207
-0.028460518 -0.021345407 0.743433
-0.028685506 -0.02270934 0.74472797
-0.028948089 -0.0241234 0.74623924
-0.029263914 -0.025605917 0.74805695
-0.029660478 -0.027188748 0.75033945
-0.030209195 -0.028950483 0.75349754
-0.031420279 -0.031420261 0.76046807
-0.030112959 0.032731473 0.76047915
-0.028949253 0.030207932 0.75349021
-0.028423917 0.028423935 0.75033516
-0.028044354 0.026825041 0.74805564
-0.027742593 0.025330216 0.7462433
-0.027490608 0.02390486 0.74472994
-0.027274881 0.02253145 0.74343431
-0.027088018 0.021199346 0.74231207
-0.026923502 0.019900024 0.74132401
-0.026777839 0.018628091 0.74044919
-0.026648788 0.017379701 0.73967409
-0.026533941 0.0161511 0.73898441
-0.026430897 0.014939219 0.73836553
-0.026339501 0.013742387 0.73781669
-0.026258005 0.012558192 0.73732716
-0.02618573 0.011385143 0.73689306
-0.026122628 0.010221928 0.73651421
-0.026067575 0.009066999 0.73618352
-0.026019879 0.0079191327 0.735897
-0.02598015 0.0067774653 0.73565847
-0.025947725 0.0056408644 0.73546374
-0.025921669 0.0045081675 0.73530716
-0.025902232 0.0033785403 0.73519051
-0.025889879 0.0022512972 0.7351163
-0.025883511 0.0011253953 0.7350781
-0.025883412 5.9604645e-08 0.73507744
-0.025889488 -0.0011256337 0.73511398
-0.025902331 -0.0022523403 0.73519105
-0.025921863 -0.0033810735 0.73530841
-0.025947725 -0.0045126379 0.73546374
-0.025980052 -0.0056478083 0.73565781
-0.026020274 -0.0067878664 0.73589945
-0.026067477 -0.0079335868 0.73618293
-0.026122328 -0.0090860128 0.73651236
-0.02618593 -0.010246634 0.73689431
-0.026257904 -0.011416465 0.73732656
-0.026339298 -0.012597024 0.73781538
-0.026431205 -0.01379016 0.73836732
-0.026533632 -0.014997274 0.7389825
-0.026649205 -0.016221225 0.73967659
-0.026778258 -0.017464072 0.74045169
-0.026923396 -0.018729329 0.74132335
-0.027088126 -0.020021647 0.74231273
-0.027274663 -0.021345407 0.743433
-0.027490277 -0.02270934 0.74472797
-0.027741918 -0.0241234 0.74623924
-0.028044583 -0.025605917 0.74805695
-0.028424624 -0.027188748 0.75033945
-0.028950723 -0.028950691 0.75349903
-0.030110838 -0.031419963 0.76046646
-0.028803827 0.032731622 0.76047999
-0.027690589 0.030207932 0.75349021
-0.027188094 0.028423935 0.75033516
-0.026825035 0.026825041 0.74805564
-0.026536392 0.025330216 0.7462433
-0.026295366 0.02390486 0.74472994
-0.026089016 0.02253145 0.74343431
-0.025910279 0.021199346 0.74231207
-0.025752915 0.019900024 0.74132401
-0.025613585 0.018628091 0.74044919
-0.025490146 0.017379701 0.73967409
-0.025380291 0.0161511 0.73898441
-0.025281729 0.014939219 0.73836553
-0.025194308 0.013742387 0.73781669
-0.025116354 0.012558192 0.73732716
-0.02504722 0.011385143 0.73689306
-0.024986861 0.010221928 0.73651421
-0.024934202 0.009066999 0.73618352
-0.024888486 0.0079191029 0.73589647
-0.024850577 0.0067774653 0.73565847
-0.024819564 0.0056408644 0.73546374
-0.024794638 0.0045081675 0.73530716
-0.024776047 0.0033785403 0.73519051
-0.024764325 0.002251327 0.7351169
-0.024758141 0.0011253953 0.7350781
-0.024758046 5.9604645e-08 0.73507744
-0.024763858 -0.0011256337 0.73511398
-0.024776142 -0.0022523403 0.73519105
-0.024794826 -0.0033810735 0.73530841
-0.024819564 -0.0045126379 0.73546374
-0.024850484 -0.0056478083 0.73565781
-0.024888959 -0.0067878664 0.73589945
-0.024934107 -0.0079335868 0.73618293
-0.024986481 -0.009085983 0.73651171
-0.02504741 -0.010246634 0.73689431
-0.025116257 -0.011416465 0.73732656
-0.025194112 -0.012597024 0.73781538
-0.025282022 -0.01379016 0.73836732
-0.025379995 -0.014997274 0.7389825
-0.025490543 -0.016221225 0.73967659
-0.025614087 -0.017464131 0.74045235
-0.025752813 -0.018729329 0.74132335
-0.025910381 -0.020021647 0.74231273
-0.026088808 -0.021345407 0.743433
-0.026295047 -0.02270934 0.74472797
-0.026535746 -0.0241234 0.74623924
-0.026825255 -0.025605917 0.74805695
-0.027188657 -0.027188629 0.75033867
-0.027691996 -0.028950691 0.75349903
-0.028801672 -0.031419963 0.76046646
-0.027494684 0.032731771 0.76048076
-0.026431926 0.030207932 0.75349021
-0.025952164 0.028423786 0.7503345
-0.025605714 0.026825041 0.74805564
-0.025330091 0.025330067 0.74624264
-0.025100121 0.02390486 0.74472994
-0.024903152 0.02253145 0.74343431
-0.024732636 0.021199435 0.74231267
-0.024582328 0.019900024 0.74132401
-0.024449427 0.01862815 0.74044985
-0.024331503 0.017379701 0.73967409
-0.024226641 0.0161511 0.73898441
-0.024132466 0.014939189 0.73836493
-0.024049111 0.013742387 0.73781669
-0.0239747 0.012558192 0.73732716
-0.02390871 0.011385143 0.73689306
-0.023851095 0.010221928 0.73651421
-0.023800831 0.009066999 0.73618352
-0.023757191 0.0079191029 0.73589647
-0.023721008 0.0067774653 0.73565847
-0.023691403 0.0056408644 0.73546374
-0.023667699 0.0045081377 0.73530781
-0.023649864 0.0033785403 0.73519051
-0.023638675 0.002251327 0.7351169
-0.02363277 0.0011253953 0.7350781
-0.023632681 5.9604645e-08 0.73507744
-0.023638228 -0.0011256337 0.73511398
-0.023649953 -0.0022523403 0.73519105
-0.023667788 -0.0033810735 0.73530841
-0.023691403 -0.0045126379 0.73546374
-0.023720916 -0.0056478083 0.73565781
-0.023757642 -0.0067878664 0.73589945
-0.02380074 -0.0079335868 0.73618293
-0.023850732 -0.009085983 0.73651171
-0.023908801 -0.010246605 0.73689377
-0.023974609 -0.011416465 0.73732656
-0.024048924 -0.012597024 0.73781538
-0.02413284 -0.01379016 0.73836732
-0.02422636 -0.014997274 0.7389825
-0.024331883 -0.016221225 0.73967659
-0.02444981 -0.017464131 0.74045235
-0.024582231 -0.018729329 0.74132335
-0.024732636 -0.020021647 0.74231273
-0.024903053 -0.021345437 0.74343365
-0.025099818 -0.02270934 0.74472797
-0.025329474 -0.024123311 0.74623859
-0.02560582 -0.025605828 0.74805629
-0.025952809 -0.027188629 0.75033867
-0.026433269 -0.028950691 0.75349903
-0.027492505 -0.031419963 0.76046646
-0.026185529 0.03273192 0.7604816
-0.025173372 0.030208081 0.75349092
-0.024716344 0.028423786 0.7503345
-0.024386294 0.026824951 0.74805492
-0.024123896 0.025330067 0.74624264
-0.023904877 0.02390486 0.74472994
-0.023717288 0.02253145 0.74343431
-0.023554893 0.021199435 0.74231267
-0.023411741 0.019900024 0.74132401
-0.023285169 0.01862815 0.74044985
-0.023172859 0.017379701 0.73967409
-0.023072992 0.0161511 0.73898441
-0.0229833 0.014939189 0.73836493
-0.022903915 0.013742387 0.73781669
-0.022833047 0.012558192 0.73732716
-0.022770112 0.011385083 0.73689246
-0.022715243 0.010221869 0.73651356
-0.022667456 0.009066999 0.73618352
-0.022625897 0.0079191029 0.73589647
-0.022591434 0.0067774653 0.73565847
-0.02256324 0.0056408644 0.73546374
-0.022540666 0.0045081377 0.73530781
-0.022523681 0.0033785403 0.73519051
-0.022513025 0.002251327 0.7351169
-0.022507401 0.0011253953 0.7350781
-0.022507316 5.9604645e-08 0.73507744
-0.022512598 -0.0011256337 0.73511398
-0.022523681 -0.0022523403 0.73519045
-0.022540752 -0.0033810735 0.73530841
-0.02256324 -0.0045126379 0.73546374
-0.022591349 -0.0056478083 0.73565781
-0.022626325 -0.0067878664 0.73589945
-0.022667371 -0.0079335868 0.73618293
-0.022714982 -0.009085983 0.73651171
-0.022770287 -0.010246605 0.73689377
-0.02283296 -0.011416465 0.73732656
-0.022903651 -0.012596995 0.73781478
-0.022983655 -0.01379016 0.73836732
-0.023072723 -0.014997274 0.7389825
-0.02317322 -0.016221225 0.73967659
-0.023285534 -0.017464131 0.74045235
-0.023411648 -0.018729329 0.74132335
-0.023554984 -0.020021766 0.74231339
-0.023717193 -0.021345437 0.74343365
-0.023904588 -0.02270934 0.74472797
-0.024123309 -0.024123311 0.74623859
-0.024386495 -0.025605828 0.74805629
-0.02471686 -0.02718851 0.75033802
-0.025174541 -0.028950691 0.75349903
-0.026183337 -0.031419963 0.76046646
-0.024876252 0.03273192 0.7604816
-0.0239147 0.030208081 0.75349092
-0.023480527 0.028423786 0.7503345
-0.023166981 0.026824951 0.74805492
-0.022917701 0.025330067 0.74624264
-0.022709632 0.02390486 0.74472994
-0.022531422 0.02253145 0.74343431
-0.022377146 0.021199435 0.74231267
-0.02224124 0.019900084 0.74132466
-0.02212091 0.01862815 0.74044985
-0.022014217 0.017379701 0.73967409
-0.021919342 0.0161511 0.73898441
-0.021834137 0.014939189 0.73836493
-0.02175872 0.013742387 0.73781669
-0.021691313 0.012558132 0.7373265
-0.021631608 0.011385083 0.73689246
-0.02157948 0.010221869 0.73651356
-0.021534001 0.0090669692 0.73618293
-0.021494601 0.0079191029 0.73589647
-0.021461863 0.0067774653 0.73565847
-0.021435078 0.0056408644 0.73546374
-0.021413634 0.0045081377 0.73530781
-0.021397578 0.0033785701 0.73519111
-0.021387372 0.002251327 0.7351169
-0.02138203 0.0011253953 0.7350781
-0.02138195 5.9604645e-08 0.73507744
-0.021386968 -0.0011256337 0.73511398
-0.021397496 -0.0022523403 0.73519045
-0.021413714 -0.0033810735 0.73530841
-0.021435078 -0.0045126379 0.73546374
-0.021461783 -0.0056478083 0.73565781
-0.021494929 -0.0067878366 0.73589885
-0.021534001 -0.0079335868 0.73618293
-0.021579232 -0.009085983 0.73651171
-0.021631772 -0.010246605 0.73689377
-0.021691313 -0.011416465 0.73732656
-0.021758467 -0.012596995 0.73781478
-0.021834474 -0.01379016 0.73836732
-0.021919087 -0.014997274 0.7389825
-0.02201456 -0.016221225 0.73967659
-0.022121256 -0.017464131 0.74045235
-0.022241065 -0.018729329 0.74132335
-0.022377236 -0.020021766 0.74231339
-0.022531332 -0.021345437 0.74343365
-0.022709358 -0.02270934 0.74472797
-0.022917144 -0.024123311 0.74623859
-0.023167076 -0.025605708 0.74805564
-0.023481017 -0.02718851 0.75033802
-0.023915816 -0.028950691 0.75349903
-0.024874171 -0.031419963 0.76046646
-0.023567079 0.032732099 0.76048231
-0.022656033 0.030208081 0.75349092
-0.022244619 0.028423667 0.75033373
-0.021947665 0.026824951 0.74805492
-0.021711506 0.025330067 0.74624264
-0.021514388 0.02390486 0.74472994
-0.02134556 0.02253145 0.74343431
-0.021199487 0.021199495 0.74231339
-0.02107065 0.019900084 0.74132466
-0.020956652 0.01862815 0.74044985
-0.020855574 0.017379701 0.73967409
-0.020765692 0.0161511 0.73898441
-0.020684971 0.014939189 0.73836493
-0.020613523 0.013742387 0.73781669
-0.020549664 0.012558132 0.7373265
-0.020493101 0.011385083 0.73689246
-0.020443717 0.010221869 0.73651356
-0.020400632 0.0090669692 0.73618293
-0.020363305 0.0079191029 0.73589647
-0.020332292 0.0067774653 0.73565847
-0.020306915 0.0056408644 0.73546374
-0.020286601 0.0045081377 0.73530781
-0.020271389 0.0033785701 0.73519111
-0.020261722 0.002251327 0.7351169
-0.020256661 0.0011253953 0.7350781
-0.020256585 5.9604645e-08 0.73507744
-0.020261338 -0.0011256337 0.73511398
-0.020271312 -0.0022523403 0.73519045
-0.020286677 -0.0033810735 0.73530841
-0.020306915 -0.0045126379 0.73546374
-0.020332213 -0.0056478083 0.73565781
-0.020363616 -0.0067878366 0.73589885
-0.020400556 -0.0079335272 0.73618233
-0.020443406 -0.0090859234 0.73651117
-0.02049326 -0.010246605 0.73689377
-0.020549664 -0.011416465 0.73732656
-0.020613285 -0.012596995 0.73781478
-0.020685291 -0.01379016 0.73836732
-0.020765532 -0.014997303 0.73898321
-0.020855898 -0.016221225 0.73967659
-0.020957062 -0.017464191 0.740453
-0.021070484 -0.018729329 0.74132335
-0.021199571 -0.020021796 0.74231404
-0.021345474 -0.021345437 0.74343365
-0.021514129 -0.02270934 0.74472797
-0.021710979 -0.024123311 0.74623859
-0.021947755 -0.025605708 0.74805564
-0.022245174 -0.02718851 0.75033802
-0.022657089 -0.028950691 0.75349903
-0.023564797 -0.031419665 0.76046479
-0.022257894 0.032732219 0.76048315
-0.021397455 0.0302082 0.7534917
-0.021008806 0.028423667 0.75033373
-0.020728352 0.026824951 0.74805492
-0.020505313 0.025330067 0.74624264
-0.020319145 0.02390486 0.74472994
-0.020159693 0.02253145 0.74343431
-0.020021738 0.021199495 0.74231339
-0.019900057 0.019900084 0.74132466
-0.019792395 0.01862815 0.74044985
-0.01969693 0.017379701 0.73967409
-0.019612042 0.0161511 0.73898441
-0.019535806 0.014939189 0.73836493
-0.019468328 0.013742387 0.73781669
-0.019408016 0.012558132 0.7373265
-0.019354597 0.011385083 0.73689246
-0.019307956 0.010221869 0.73651356
-0.019267265 0.0090669692 0.73618293
-0.01923201 0.0079191029 0.73589647
-0.01920272 0.0067774653 0.73565847
-0.019178754 0.0056408644 0.73546374
-0.019159565 0.0045081377 0.73530781
-0.0191452 0.0033785701 0.73519111
-0.019136069 0.002251327 0.7351169
-0.01913129 0.0011253953 0.7350781
-0.019131219 5.9604645e-08 0.73507744
-0.019135706 -0.0011256337 0.73511398
-0.019145127 -0.0022523403 0.73519045
-0.019159639 -0.0033810735 0.73530841
-0.019178754 -0.0045126379 0.73546374
-0.019202646 -0.0056478083 0.73565781
-0.019232305 -0.0067878366 0.73589885
-0.01926719 -0.0079335272 0.73618233
-0.01930766 -0.0090859234 0.73651117
-0.019354744 -0.010246605 0.73689377
-0.019407943 -0.011416435 0.73732603
-0.019468103 -0.012596995 0.73781478
-0.019536108 -0.01379016 0.73836732
-0.019611891 -0.014997303 0.73898321
-0.019697238 -0.016221225 0.73967659
-0.01979278 -0.017464191 0.740453
-0.019899979 -0.018729359 0.74132401
-0.020021817 -0.020021796 0.74231404
-0.020159613 -0.021345437 0.74343365
-0.020318899 -0.02270934 0.74472797
-0.020504812 -0.024123311 0.74623859
-0.020728435 -0.025605708 0.74805564
-0.021009242 -0.02718842 0.75033724
-0.021398362 -0.028950691 0.75349903
-0.022255642 -0.031419665 0.76046479
-0.020948699 0.032732368 0.76048392
-0.020138782 0.0302082 0.7534917
-0.019772911 0.028423607 0.75033301
-0.019509036 0.026824951 0.74805492
-0.019299116 0.025330067 0.74624264
-0.019123903 0.02390486 0.74472994
-0.018973829 0.02253145 0.74343431
-0.018843988 0.021199495 0.74231339
-0.018729465 0.019900084 0.74132466
-0.018628133 0.01862815 0.74044985
-0.018538289 0.017379701 0.73967409
-0.018458394 0.0161511 0.73898441
-0.01838664 0.014939189 0.73836493
-0.018323133 0.013742387 0.73781669
-0.0182663 0.012558103 0.73732603
-0.01821609 0.011385083 0.73689246
-0.018172193 0.010221869 0.73651356
-0.018133897 0.0090669692 0.73618293
-0.018100716 0.0079191029 0.73589647
-0.018073147 0.0067774653 0.73565847
-0.018050591 0.0056408644 0.73546374
-0.018032601 0.0045081675 0.73530841
-0.018019013 0.0033785701 0.73519111
-0.018010488 0.002251327 0.7351175
-0.018005921 0.0011253953 0.7350781
-0.018005852 5.9604645e-08 0.73507744
-0.018010147 -0.0011256337 0.73511457
-0.018018942 -0.0022523403 0.73519045
-0.018032601 -0.0033810735 0.73530841
-0.018050591 -0.0045126379 0.73546374
-0.018073147 -0.0056478381 0.73565847
-0.018100992 -0.0067878366 0.73589885
-0.018133828 -0.0079335272 0.73618233
-0.018171916 -0.0090859234 0.73651117
-0.018216159 -0.010246605 0.73689312
-0.0182663 -0.011416435 0.73732603
-0.01832292 -0.012596995 0.73781478
-0.018386925 -0.01379016 0.73836732
-0.018458251 -0.014997303 0.73898321
-0.018538577 -0.016221225 0.73967659
-0.018628499 -0.017464191 0.740453
-0.018729392 -0.018729359 0.74132401
-0.018844062 -0.020021796 0.74231404
-0.018973755 -0.021345437 0.74343365
-0.01912367 -0.02270934 0.74472797
-0.01929857 -0.024123222 0.74623787
-0.019509036 -0.025605589 0.74805486
-0.019773405 -0.02718842 0.75033724
-0.020139633 -0.028950691 0.75349903
-0.020946486 -0.031419665 0.76046479
-0.019639492 0.032732457 0.76048481
-0.018880107 0.0302082 0.7534917
-0.018537104 0.028423607 0.75033301
-0.018289721 0.026824951 0.74805492
-0.018092923 0.025330067 0.74624264
-0.017928658 0.02390486 0.74472994
-0.017788036 0.022531539 0.74343497
-0.01766631 0.021199614 0.74231398
-0.017558876 0.019900084 0.74132466
-0.017463945 0.01862821 0.74045044
-0.017379645 0.017379701 0.73967409
-0.017304745 0.0161511 0.73898441
-0.017237408 0.0149391 0.73836434
-0.01717787 0.013742298 0.73781604
-0.017124655 0.012558103 0.73732603
-0.017077584 0.011385083 0.73689246
-0.017036367 0.010221839 0.7365129
-0.017000528 0.0090669692 0.73618293
-0.016969422 0.0079191029 0.73589647
-0.016943578 0.0067774653 0.73565847
-0.016922429 0.0056408644 0.73546374
-0.016905563 0.0045081675 0.73530841
-0.016892888 0.0033785999 0.7351917
-0.016884832 0.002251327 0.7351175
-0.016880549 0.0011253953 0.7350781
-0.016880486 5.9604645e-08 0.73507744
-0.016884513 -0.0011256337 0.73511457
-0.016892761 -0.0022523403 0.73519045
-0.016905563 -0.0033810735 0.73530841
-0.016922429 -0.0045126379 0.73546374
-0.016943578 -0.0056478381 0.73565847
-0.016969679 -0.0067878366 0.73589885
-0.017000463 -0.0079335272 0.73618233
-0.017036172 -0.0090859234 0.73651117
-0.017077649 -0.010246605 0.73689312
-0.017124655 -0.011416435 0.73732603
-0.017177736 -0.012596995 0.73781478
-0.017237743 -0.01379016 0.73836732
-0.017304609 -0.014997303 0.73898321
-0.017379984 -0.016221285 0.73967731
-0.017464219 -0.017464191 0.740453
-0.017558806 -0.018729359 0.74132401
-0.017666379 -0.020021886 0.74231464
-0.017787894 -0.021345437 0.74343365
-0.01792844 -0.02270934 0.74472797
-0.018092409 -0.024123222 0.74623787
-0.018289721 -0.025605589 0.74805486
-0.01853749 -0.027188301 0.75033659
-0.018880906 -0.028950691 0.75349903
-0.019637331 -0.031419665 0.76046479
-0.018330192 0.032732457 0.76048481
-0.017621508 0.030208319 0.75349236
-0.017301299 0.028423607 0.75033301
-0.017070407 0.026824951 0.74805492
-0.016886728 0.025330067 0.74624264
-0.016733414 0.02390486 0.74472994
-0.016602166 0.022531539 0.74343497
-0.016488556 0.021199614 0.74231398
-0.016388284 0.019900084 0.74132466
-0.016299682 0.01862821 0.74045044
-0.016221002 0.017379701 0.73967409
-0.016151095 0.0161511 0.73898441
-0.016088249 0.0149391 0.73836434
-0.016032679 0.013742298 0.73781604
-0.015983012 0.012558103 0.73732603
-0.015939079 0.011385083 0.73689246
-0.015900608 0.010221839 0.7365129
-0.015867099 0.0090669096 0.73618233
-0.015838128 0.0079191029 0.73589647
-0.015814004 0.0067774653 0.73565847
-0.015794327 0.0056408048 0.73546433
-0.015778527 0.0045081675 0.73530841
-0.015766697 0.0033785999 0.7351917
-0.015759176 0.002251327 0.7351175
-0.01575518 0.0011253953 0.7350781
-0.015755121 5.9604645e-08 0.73507744
-0.015758878 -0.0011256337 0.73511457
-0.015766576 -0.0022523403 0.73519045
-0.015778527 -0.0033810735 0.73530841
-0.015794208 -0.0045126379 0.73546314
-0.015814004 -0.0056478381 0.73565847
-0.015838368 -0.0067878366 0.73589885
-0.015867099 -0.0079335272 0.73618233
-0.015900426 -0.0090859234 0.73651117
-0.015939141 -0.010246605 0.73689312
-0.015983012 -0.011416435 0.73732603
-0.016032556 -0.012596995 0.73781478
-0.016088558 -0.01379016 0.73836732
-0.016150968 -0.014997303 0.73898321
-0.016221318 -0.016221285 0.73967731
-0.016299937 -0.017464191 0.740453
-0.016388219 -0.018729359 0.74132401
-0.016488621 -0.020021886 0.74231464
-0.016602036 -0.021345437 0.74343365
-0.016733212 -0.02270934 0.74472797
-0.016886247 -0.024123222 0.74623787
-0.017070336 -0.0256055 0.74805421
-0.017301658 -0.027188301 0.75033659
-0.017622329 -0.02895093 0.75350046
-0.018328177 -0.031419665 0.76046479
-0.017020969 0.032732636 0.76048553
-0.016362829 0.030208319 0.75349236
-0.016065424 0.028423458 0.75033236
-0.015851093 0.026824951 0.74805492
-0.015680531 0.025330067 0.74624264
-0.015538169 0.02390486 0.74472994
-0.015416297 0.022531539 0.74343497
-0.015310801 0.021199614 0.74231398
-0.015217692 0.019900084 0.74132466
-0.015135419 0.01862821 0.74045044
-0.015062359 0.017379701 0.73967409
-0.014997445 0.0161511 0.73898441
-0.014939087 0.0149391 0.73836434
-0.014887487 0.013742298 0.73781604
-0.014841367 0.012558103 0.73732603
-0.014800574 0.011385083 0.73689246
-0.014764851 0.010221839 0.7365129
-0.014733735 0.0090669096 0.73618233
-0.014706831 0.0079191029 0.73589647
-0.014684433 0.0067774653 0.73565847
-0.014666161 0.0056408048 0.73546433
-0.014651489 0.0045081675 0.73530841
-0.014640504 0.0033785999 0.7351917
-0.014633521 0.002251327 0.7351175
-0.014629811 0.0011253953 0.7350781
-0.014629755 5.9604645e-08 0.73507744
-0.014633243 -0.0011256337 0.73511457
-0.014640392 -0.0022523403 0.73519045
-0.014651489 -0.0033810735 0.73530841
-0.01466605 -0.0045126379 0.73546314
-0.014684433 -0.0056478381 0.73565847
-0.014707056 -0.0067878366 0.73589885
-0.014733679 -0.0079334974 0.73618174
-0.014764626 -0.0090859234 0.73651063
-0.014800631 -0.010246605 0.73689312
-0.014841367 -0.011416435 0.73732603
-0.014887373 -0.012596995 0.73781478
-0.014939319 -0.013790101 0.73836678
-0.014997328 -0.014997303 0.73898321
-0.015062653 -0.016221285 0.73967731
-0.015135716 -0.01746428 0.74045366
-0.015217632 -0.018729359 0.74132401
-0.015310861 -0.020021886 0.74231464
-0.015416175 -0.021345437 0.74343365
-0.015537983 -0.02270934 0.74472797
-0.015680086 -0.024123222 0.74623787
-0.015851026 -0.0256055 0.74805421
-0.016065758 -0.027188212 0.75033587
-0.016363591 -0.02895093 0.75350046
-0.01701902 -0.031419665 0.76046479
-0.01571173 0.032732755 0.76048636
-0.01510415 0.030208319 0.75349236
-0.014829623 0.028423458 0.75033236
-0.014631778 0.026824951 0.74805492
-0.014474338 0.025330067 0.74624264
-0.014342926 0.02390486 0.74472994
-0.014230429 0.022531539 0.74343497
-0.014133103 0.021199673 0.74231464
-0.014047155 0.019900143 0.74132526
-0.013971156 0.01862821 0.74045044
-0.013903717 0.017379701 0.73967409
-0.013843795 0.0161511 0.73898441
-0.013789928 0.0149391 0.73836434
-0.013742295 0.013742298 0.73781604
-0.013699671 0.012558043 0.73732537
-0.013662015 0.011385024 0.73689193
-0.013629093 0.010221839 0.7365129
-0.013600371 0.0090669096 0.73618233
-0.013575537 0.0079191029 0.73589647
-0.013554861 0.0067774653 0.73565847
-0.013537996 0.0056408048 0.73546433
-0.013524451 0.0045081675 0.73530841
-0.01351431 0.0033785999 0.7351917
-0.013507865 0.002251327 0.7351175
-0.013504441 0.0011253953 0.7350781
-0.01350439 5.9604645e-08 0.73507744
-0.01350761 -0.0011256337 0.73511457
-0.013514209 -0.0022523403 0.73519045
-0.013524451 -0.0033810735 0.73530841
-0.013537892 -0.0045126379 0.73546314
-0.013554861 -0.0056478381 0.73565847
-0.013575745 -0.0067878366 0.73589885
-0.013600319 -0.0079334974 0.73618174
-0.013628885 -0.0090859234 0.73651063
-0.01366212 -0.010246605 0.73689312
-0.013699671 -0.011416376 0.73732537
-0.01374219 -0.012596995 0.73781478
-0.01379014 -0.013790101 0.73836678
-0.013843687 -0.014997303 0.73898321
-0.013903987 -0.016221285 0.73967731
-0.013971429 -0.01746428 0.74045366
-0.0140471 -0.018729478 0.7413246
-0.014133159 -0.020021945 0.74231529
-0.014230316 -0.021345437 0.74343365
-0.014342753 -0.02270934 0.74472797
-0.014473926 -0.024123222 0.74623787
-0.014631657 -0.025605351 0.74805355
-0.014829931 -0.027188212 0.75033587
-0.015104854 -0.02895093 0.75350046
-0.015709726 -0.031419396 0.76046324
-0.014402485 0.032732934 0.76048714
-0.013845529 0.030208439 0.75349319
-0.013593821 0.028423458 0.75033236
-0.013412463 0.026824951 0.74805492
-0.013268142 0.025330067 0.74624264
-0.013147683 0.02390486 0.74472994
-0.01304456 0.022531539 0.74343497
-0.012955344 0.021199673 0.74231464
-0.012876559 0.019900143 0.74132526
-0.012806892 0.01862821 0.74045044
-0.012745073 0.017379701 0.73967409
-0.012690146 0.0161511 0.73898441
-0.012640767 0.0149391 0.73836434
-0.012597105 0.013742298 0.73781604
-0.012558032 0.012558043 0.73732537
-0.012523514 0.011385024 0.73689193
-0.012493335 0.010221839 0.7365129
-0.012467006 0.0090669096 0.73618233
-0.012444243 0.0079191029 0.73589647
-0.012425289 0.0067774653 0.73565847
-0.012409829 0.0056408048 0.73546433
-0.012397413 0.0045081675 0.73530841
-0.012388165 0.0033785999 0.7351923
-0.012382209 0.002251327 0.7351175
-0.012379071 0.0011253953 0.7350781
-0.012379023 5.9604645e-08 0.73507744
-0.012381976 -0.0011256337 0.73511457
-0.012388024 -0.0022523403 0.73519045
-0.012397413 -0.0033810735 0.73530841
-0.012409735 -0.0045126379 0.73546314
-0.012425289 -0.0056478381 0.73565847
-0.012444432 -0.0067878366 0.73589885
-0.012466959 -0.0079334974 0.73618174
-0.012493145 -0.0090859234 0.73651063
-0.012523563 -0.010246515 0.73689258
-0.012558032 -0.011416376 0.73732537
-0.012597008 -0.012596995 0.73781478
-0.012640961 -0.013790101 0.73836678
-0.012690047 -0.014997303 0.73898321
-0.012745322 -0.016221285 0.73967731
-0.012807144 -0.01746428 0.74045366
-0.012876559 -0.018729508 0.74132532
-0.012955396 -0.020021945 0.74231529
-0.013044456 -0.021345437 0.74343365
-0.013147524 -0.02270934 0.74472797
-0.013267713 -0.024123073 0.74623722
-0.013412352 -0.025605351 0.74805355
-0.013594103 -0.027188212 0.75033587
-0.013846115 -0.02895093 0.75350046
-0.014400583 -0.031419396 0.76046324
-0.013093225 0.032733083 0.76048797
-0.012586845 0.030208439 0.75349319
-0.012358019 0.028423458 0.75033236
-0.012193147 0.026824951 0.74805492
-0.012061948 0.025330067 0.74624264
-0.011952438 0.02390486 0.74472994
-0.011858691 0.022531539 0.74343497
-0.011777585 0.021199673 0.74231464
-0.011705963 0.019900143 0.74132526
-0.011642676 0.018628299 0.7404511
-0.01158643 0.017379701 0.73967409
-0.011536496 0.0161511 0.73898441
-0.011491606 0.0149391 0.73836434
-0.011451913 0.013742298 0.73781604
-0.011416392 0.012558043 0.73732537
-0.011385013 0.011385024 0.73689193
-0.011357535 0.010221809 0.7365123
-0.011333643 0.0090669096 0.73618233
-0.011312949 0.0079191029 0.73589647
-0.011295717 0.0067774653 0.73565847
-0.011281663 0.0056408048 0.73546433
-0.011270419 0.0045081973 0.735309
-0.011261968 0.0033785999 0.7351923
-0.011256597 0.0022513568 0.73511803
-0.011253743 0.0011253953 0.73507863
-0.011253658 5.9604645e-08 0.73507744
-0.011256342 -0.0011256337 0.73511457
-0.01126184 -0.0022523403 0.73519045
-0.011270376 -0.0033810735 0.73530841
-0.011281577 -0.0045126379 0.73546314
-0.011295717 -0.0056478381 0.73565847
-0.01131312 -0.0067878366 0.73589885
-0.011333599 -0.0079334974 0.73618174
-0.011357404 -0.0090859234 0.73651063
-0.011385056 -0.010246515 0.73689258
-0.011416392 -0.011416376 0.73732537
-0.011451825 -0.012596995 0.73781478
-0.011491783 -0.013790101 0.73836678
-0.011536406 -0.014997303 0.73898321
-0.011586656 -0.016221285 0.73967731
-0.011642858 -0.01746428 0.74045366
-0.011705963 -0.018729508 0.74132532
-0.011777679 -0.020022035 0.74231595
-0.011858596 -0.021345437 0.74343365
-0.011952294 -0.02270934 0.74472797
-0.012061557 -0.024123073 0.74623722
-0.012193047 -0.025605351 0.74805355
-0.012358224 -0.027188063 0.75033516
-0.012587378 -0.02895093 0.75350046
-0.013091438 -0.031419396 0.76046324
-0.011783903 0.032733083 0.76048797
-0.01132816 0.030208439 0.75349319
-0.011122171 0.028423339 0.75033158
-0.010973833 0.026824951 0.74805492
-0.010855753 0.025330067 0.74624264
-0.010757194 0.02390486 0.74472994
-0.010672823 0.022531539 0.74343497
-0.010599869 0.021199793 0.74231529
-0.010535366 0.019900143 0.74132526
-0.010478408 0.018628299 0.7404511
-0.010427787 0.017379701 0.73967409
-0.010382846 0.0161511 0.73898441
-0.010342445 0.0149391 0.73836434
-0.010306722 0.013742298 0.73781604
-0.010274753 0.012558043 0.73732537
-0.010246512 0.011385024 0.73689193
-0.01022178 0.010221809 0.7365123
-0.010200278 0.0090669096 0.73618233
-0.010181652 0.0079191029 0.73589647
-0.010166146 0.0067774653 0.73565847
-0.010153497 0.0056408048 0.73546433
-0.010143377 0.0045081973 0.735309
-0.010135771 0.0033785999 0.7351923
-0.010130937 0.0022513568 0.73511803
-0.010128369 0.0011253953 0.73507863
-0.010128292 5.9604645e-08 0.73507744
-0.010130707 -0.0011256337 0.73511457
-0.010135656 -0.0022523403 0.73519045
-0.010143339 -0.0033810735 0.73530841
-0.010153419 -0.0045126379 0.73546314
-0.010166146 -0.0056478381 0.73565847
-0.010181808 -0.0067878366 0.73589885
-0.010200239 -0.0079334974 0.73618174
