# .PCD v0.7 - Point Cloud Data file format
VERSION 0.7
FIELDS x y z
SIZE 4 4 4
TYPE F F F
COUNT 1 1 1
WIDTH 1345
HEIGHT 1
VIEWPOINT 0 0 0 1 0 0 0
POINTS 1345
DATA ascii
0 -0.010345489 0.7095418
0 -0.01128599 0.70954174
0 -0.012226492 0.70954174
0 -0.013167024 0.7095418
0 -0.014107525 0.70954174
0 -0.015048057 0.70954174
0 -0.015988559 0.70954216
0 -0.01692909 0.70954216
0 -0.017869532 0.7095418
0 -0.018810064 0.7095418
0 -0.019750506 0.7095418
0 -0.020691037 0.7095418
0 -0.021631539 0.70954174
0 -0.022572041 0.7095418
0 -0.023512512 0.70954174
0 -0.024351329 0.7090013
0 -0.025087029 0.70797342
0 -0.025819242 0.70700204
0 -0.028852642 0.71705842
0 -0.030515373 0.72013354
0.0010177932 0.0315516 0.72021812
0.00099546823 0.029864073 0.71713436
0.00092213607 0.026741922 0.70700479
0.000928319 0.02599293 0.70785886
0.00093642151 0.025283426 0.70897806
0.00094050233 0.024453074 0.70954174
0.0009405053 0.023512632 0.70954221
0.0009405053 0.02257216 0.70954216
0.0009405053 0.021631628 0.70954221
0.00094050233 0.020691067 0.7095418
0.00094050233 0.019750595 0.70954174
0.00094050233 0.018810064 0.7095418
0.00094050233 0.017869532 0.7095418
0.00094050233 0.01692909 0.7095418
0.00094050233 0.015988559 0.7095418
0.00094050233 0.015048057 0.70954174
0.00094050233 0.014107525 0.7095418
0.00094050233 0.013167053 0.70954174
0.00094050233 0.012226522 0.70954174
0.00094050233 0.01128602 0.70954174
0.00094050233 0.010345519 0.7095418
0.00094050233 0.0094050765 0.7095418
0.00094050233 0.008464545 0.7095418
0.00094050233 0.0075240433 0.7095418
0.00094050233 0.0065835118 0.7095418
0.00094050233 0.0056430399 0.70954174
0.00094050233 0.0047025084 0.7095418
0.00094050233 0.0037620366 0.70954174
0.00094050233 0.0028215051 0.7095418
0.00094050233 0.0018810332 0.70954174
0.00094050233 0.00094050169 0.7095418
0.00094050233 2.9802322e-08 0.70954174
0.00094050233 -0.00094047189 0.70954174
0.00094050233 -0.0018809736 0.70954168
0.00094050233 -0.0028214753 0.70954174
0.00094050233 -0.003761977 0.7095418
0.00094050233 -0.0047024786 0.7095418
0.00094050233 -0.0056430101 0.7095418
0.00094050233 -0.0065835118 0.7095418
0.00094050233 -0.0075240135 0.70954174
0.00094050233 -0.0084645152 0.7095418
0.00094050233 -0.0094050169 0.7095418
0.00094050233 -0.010345489 0.7095418
0.00094050233 -0.01128599 0.70954174
0.00094050233 -0.012226492 0.70954174
0.00094050233 -0.013167024 0.7095418
0.00094050233 -0.014107525 0.70954174
0.00094050233 -0.015048057 0.70954174
0.0009405053 -0.015988559 0.70954216
0.0009405053 -0.01692909 0.70954216
0.00094050233 -0.017869532 0.7095418
0.00094050233 -0.018810064 0.7095418
0.00094050233 -0.019750506 0.7095418
0.00094050233 -0.020691037 0.7095418
0.00094050233 -0.021631539 0.70954174
0.00094050233 -0.022572041 0.7095418
0.00094050233 -0.023512512 0.70954174
0.00093606493 -0.024337649 0.70892882
0.00092828705 -0.025063753 0.70785445
0.00092213321 -0.025819719 0.70700437
0.00099547161 -0.028868675 0.71713483
0.0010177932 -0.030533761 0.72021818
0.0020392293 0.031608105 0.72046971
0.0019939265 0.029908925 0.71734083
0.0018443638 0.026743293 0.7070111
0.001853271 0.025945812 0.70762634
0.0018723361 0.025276572 0.70894301
0.0018810047 0.024453074 0.70954174
0.0018810106 0.023512632 0.70954221
0.0018810106 0.02257216 0.70954216
0.0018810106 0.021631628 0.70954221
0.0018810047 0.020691067 0.7095418
0.0018810047 0.019750595 0.70954174
0.0018810047 0.018810064 0.7095418
0.0018810047 0.017869532 0.7095418
0.0018810047 0.01692909 0.7095418
0.0018810047 0.015988559 0.7095418
0.0018810047 0.015048057 0.70954174
0.0018810047 0.014107525 0.7095418
0.0018810047 0.013167053 0.70954174
0.0018810047 0.012226522 0.70954174
0.0018810047 0.01128602 0.70954174
0.0018810047 0.010345519 0.7095418
0.0018810047 0.0094050765 0.7095418
0.0018810047 0.008464545 0.7095418
0.0018810047 0.0075240433 0.7095418
0.0018810047 0.0065835118 0.7095418
0.0018810047 0.0056430399 0.70954174
0.0018810047 0.0047025084 0.7095418
0.0018810047 0.0037620366 0.70954174
0.0018810047 0.0028215051 0.7095418
0.0018810047 0.0018810332 0.70954174
0.0018810047 0.00094050169 0.7095418
0.0018810047 2.9802322e-08 0.70954174
0.0018810047 -0.00094047189 0.70954174
0.0018810047 -0.0018809736 0.70954168
0.0018810047 -0.0028214753 0.70954174
0.0018810047 -0.003761977 0.7095418
0.0018810047 -0.0047024786 0.7095418
0.0018810047 -0.0056430101 0.7095418
0.0018810047 -0.0065835118 0.7095418
0.0018810047 -0.0075240135 0.70954174
0.0018810047 -0.0084645152 0.7095418
0.0018810047 -0.0094050169 0.7095418
0.0018810047 -0.010345489 0.7095418
0.0018810047 -0.01128599 0.70954174
0.0018810047 -0.012226492 0.70954174
0.0018810047 -0.013167024 0.7095418
0.0018810047 -0.014107525 0.70954174
0.0018810047 -0.015048057 0.70954174
0.0018810106 -0.015988559 0.70954216
0.0018810106 -0.01692909 0.70954216
0.0018810047 -0.017869532 0.7095418
0.0018810047 -0.018810064 0.7095418
0.0018810047 -0.019750506 0.7095418
0.0018810047 -0.020691037 0.7095418
0.0018810047 -0.021631539 0.70954174
0.0018810047 -0.022572041 0.7095418
0.0018810106 -0.023512602 0.70954216
0.0018712346 -0.024326026 0.70886695
0.0018532076 -0.025018275 0.70762193
0.001844358 -0.025821 0.70701075
0.0019939465 -0.028912187 0.71734226
0.0020392502 -0.030588746 0.72047126
0.0030661076 0.031683147 0.72080415
0.0029971795 0.029971808 0.71763045
0.0027671205 0.026748836 0.70703757
0.0027749955 0.025899976 0.70740014
0.002806437 0.025257975 0.70884788
0.0028215069 0.024453074 0.70954174
0.0028215158 0.023512632 0.70954221
0.0028215158 0.02257216 0.70954216
0.0028215158 0.021631628 0.70954221
0.0028215069 0.020691067 0.7095418
0.0028215069 0.019750595 0.70954174
0.0028215069 0.018810064 0.7095418
0.0028215069 0.017869532 0.7095418
0.0028215069 0.01692909 0.7095418
0.0028215069 0.015988559 0.7095418
0.0028215069 0.015048057 0.70954174
0.0028215069 0.014107525 0.7095418
0.0028215069 0.013167053 0.70954174
0.0028215069 0.012226522 0.70954174
0.0028215069 0.01128602 0.70954174
0.0028215069 0.010345519 0.7095418
0.0028215069 0.0094050765 0.7095418
0.0028215069 0.008464545 0.7095418
0.0028215069 0.0075240433 0.7095418
0.0028215069 0.0065835118 0.7095418
0.0028215069 0.0056430399 0.70954174
0.0028215069 0.0047025084 0.7095418
0.0028215069 0.0037620366 0.70954174
0.0028215069 0.0028215051 0.7095418
0.0028215069 0.0018810332 0.70954174
0.0028215069 0.00094050169 0.7095418
0.0028215069 2.9802322e-08 0.70954174
0.0028215069 -0.00094047189 0.70954174
0.0028215069 -0.0018809736 0.70954168
0.0028215069 -0.0028214753 0.70954174
0.0028215069 -0.003761977 0.7095418
0.0028215069 -0.0047024786 0.7095418
0.0028215069 -0.0056430101 0.7095418
0.0028215069 -0.0065835118 0.7095418
0.0028215069 -0.0075240135 0.70954174
0.0028215069 -0.0084645152 0.7095418
0.0028215069 -0.0094050169 0.7095418
0.0028215069 -0.010345489 0.7095418
0.0028215069 -0.01128599 0.70954174
0.0028215069 -0.012226492 0.70954174
0.0028215069 -0.013167024 0.7095418
0.0028215069 -0.014107525 0.70954174
0.0028215069 -0.015048057 0.70954174
0.0028215158 -0.015988559 0.70954216
0.0028215158 -0.01692909 0.70954216
0.0028215069 -0.017869532 0.7095418
0.0028215069 -0.018810064 0.7095418
0.0028215069 -0.019750506 0.7095418
0.0028215069 -0.020691037 0.7095418
0.0028215069 -0.021631539 0.70954174
0.0028215069 -0.022572041 0.7095418
0.0028215158 -0.023512602 0.70954216
0.0028055015 -0.024314344 0.70880485
0.002774935 -0.024974406 0.7073974
0.0027671377 -0.025826603 0.7070384
0.0029972198 -0.028973103 0.71763229
0.0030661814 -0.030661792 0.72080761
0.0041014352 0.031786144 0.72126317
0.0040067513 0.030050665 0.7179935
0.0036913715 0.026762486 0.70710242
0.0036951785 0.02586627 0.70723385
0.0037389405 0.025237828 0.70874512
0.0037596314 0.024437606 0.7094596
0.0037620212 0.023512632 0.70954221
0.0037620212 0.02257216 0.70954216
0.0037620212 0.021631628 0.70954221
0.0037620093 0.020691067 0.7095418
0.0037620093 0.019750595 0.70954174
0.0037620093 0.018810064 0.7095418
0.0037620093 0.017869532 0.7095418
0.0037620093 0.01692909 0.7095418
0.0037620093 0.015988559 0.7095418
0.0037620093 0.015048057 0.70954174
0.0037620093 0.014107525 0.7095418
0.0037620093 0.013167053 0.70954174
0.0037620093 0.012226522 0.70954174
0.0037620093 0.01128602 0.70954174
0.0037620093 0.010345519 0.7095418
0.0037620093 0.0094050765 0.7095418
0.0037620093 0.008464545 0.7095418
0.0037620093 0.0075240433 0.7095418
0.0037620093 0.0065835118 0.7095418
0.0037620093 0.0056430399 0.70954174
0.0037620093 0.0047025084 0.7095418
0.0037620093 0.0037620366 0.70954174
0.0037620093 0.0028215051 0.7095418
0.0037620093 0.0018810332 0.70954174
0.0037620093 0.00094050169 0.7095418
0.0037620093 2.9802322e-08 0.70954174
0.0037620093 -0.00094047189 0.70954174
0.0037620093 -0.0018809736 0.70954168
0.0037620093 -0.0028214753 0.70954174
0.0037620093 -0.003761977 0.7095418
0.0037620093 -0.0047024786 0.7095418
0.0037620093 -0.0056430101 0.7095418
0.0037620093 -0.0065835118 0.7095418
0.0037620093 -0.0075240135 0.70954174
0.0037620093 -0.0084645152 0.7095418
0.0037620093 -0.0094050169 0.7095418
0.0037620093 -0.010345489 0.7095418
0.0037620093 -0.01128599 0.70954174
0.0037620093 -0.012226492 0.70954174
0.0037620093 -0.013167024 0.7095418
0.0037620093 -0.014107525 0.70954174
0.0037620093 -0.015048057 0.70954174
0.0037620212 -0.015988559 0.70954216
0.0037620212 -0.01692909 0.70954216
0.0037620093 -0.017869532 0.7095418
0.0037620093 -0.018810064 0.7095418
0.0037620093 -0.019750506 0.7095418
0.0037620093 -0.020691037 0.7095418
0.0037620093 -0.021631539 0.70954174
0.0037620093 -0.022572041 0.7095418
0.0037596195 -0.023497641 0.7094593
0.0037387407 -0.024301797 0.70873821
0.0036951555 -0.024942249 0.70723307
0.0036913943 -0.025839716 0.70710325
0.0040068734 -0.029049814 0.71799767
0.0041015339 -0.03076148 0.72126663
0.0051517854 0.031941116 0.72195363
0.0050260797 0.030156523 0.71848083
0.0046218876 0.026806951 0.70731437
0.0046145581 0.025841564 0.7071119
0.0046690381 0.025212795 0.70861697
0.0046945247 0.024411529 0.70932108
0.0047025266 0.023512632 0.70954221
0.0047025266 0.02257216 0.70954216
0.0047025266 0.021631628 0.70954221
0.0047025117 0.020691067 0.7095418
0.0047025117 0.019750595 0.70954174
0.0047025117 0.018810064 0.7095418
0.0047025117 0.017869532 0.7095418
0.0047025117 0.01692909 0.7095418
0.0047025117 0.015988559 0.7095418
0.0047025117 0.015048057 0.70954174
0.0047025117 0.014107525 0.7095418
0.0047025117 0.013167053 0.70954174
0.0047025117 0.012226522 0.70954174
0.0047025117 0.01128602 0.70954174
0.0047025117 0.010345519 0.7095418
0.0047025117 0.0094050765 0.7095418
0.0047025117 0.008464545 0.7095418
0.0047025117 0.0075240433 0.7095418
0.0047025117 0.0065835118 0.7095418
0.0047025117 0.0056430399 0.70954174
0.0047025117 0.0047025084 0.7095418
0.0047025117 0.0037620366 0.70954174
0.0047025117 0.0028215051 0.7095418
0.0047025117 0.0018810332 0.70954174
0.0047025117 0.00094050169 0.7095418
0.0047025117 2.9802322e-08 0.70954174
0.0047025117 -0.00094047189 0.70954174
0.0047025117 -0.0018809736 0.70954168
0.0047025117 -0.0028214753 0.70954174
0.0047025117 -0.003761977 0.7095418
0.0047025117 -0.0047024786 0.7095418
0.0047025117 -0.0056430101 0.7095418
0.0047025117 -0.0065835118 0.7095418
0.0047025117 -0.0075240135 0.70954174
0.0047025117 -0.0084645152 0.7095418
0.0047025117 -0.0094050169 0.7095418
0.0047025117 -0.010345489 0.7095418
0.0047025117 -0.01128599 0.70954174
0.0047025117 -0.012226492 0.70954174
0.0047025117 -0.013167024 0.7095418
0.0047025117 -0.014107525 0.70954174
0.0047025266 -0.015048057 0.70954216
0.0047025266 -0.015988559 0.70954216
0.0047025266 -0.01692909 0.70954216
0.0047025117 -0.017869532 0.7095418
0.0047025117 -0.018810064 0.7095418
0.0047025117 -0.019750506 0.7095418
0.0047025117 -0.020691037 0.7095418
0.0047025117 -0.021631539 0.70954174
0.0047025117 -0.022572041 0.7095418
0.0046945247 -0.023472607 0.70932114
0.0046690088 -0.02427882 0.7086162
0.0046145152 -0.024918377 0.7071107
0.0046220026 -0.025883228 0.70731759
0.0050262325 -0.029152125 0.71848506
0.0051518567 -0.030911148 0.7219556
0.0062162783 0.032117456 0.72273952
0.0060597654 0.030298859 0.7191363
0.0059366236 0.028693706 0.71630126
0.0055337944 0.025824398 0.70702732
0.0055955015 0.025179803 0.70844787
0.0056257034 0.024378061 0.70914322
0.0056430316 0.023512632 0.70954221
0.0056430316 0.02257216 0.70954216
0.0056430316 0.021631628 0.70954221
0.0056430139 0.020691067 0.7095418
0.0056430139 0.019750595 0.70954174
0.0056430139 0.018810064 0.7095418
0.0056430139 0.017869532 0.7095418
0.0056430139 0.01692909 0.7095418
0.0056430139 0.015988559 0.7095418
0.0056430139 0.015048057 0.70954174
0.0056430139 0.014107525 0.7095418
0.0056430139 0.013167053 0.70954174
0.0056430139 0.012226522 0.70954174
0.0056430139 0.01128602 0.70954174
0.0056430139 0.010345519 0.7095418
0.0056430139 0.0094050765 0.7095418
0.0056430139 0.008464545 0.7095418
0.0056430139 0.0075240433 0.7095418
0.0056430139 0.0065835118 0.7095418
0.0056430139 0.0056430399 0.70954174
0.0056430139 0.0047025084 0.7095418
0.0056430139 0.0037620366 0.70954174
0.0056430139 0.0028215051 0.7095418
0.0056430139 0.0018810332 0.70954174
0.0056430139 0.00094050169 0.7095418
0.0056430139 2.9802322e-08 0.70954174
0.0056430139 -0.00094047189 0.70954174
0.0056430139 -0.0018809736 0.70954168
0.0056430139 -0.0028214753 0.70954174
0.0056430139 -0.003761977 0.7095418
0.0056430139 -0.0047024786 0.7095418
0.0056430139 -0.0056430101 0.7095418
0.0056430139 -0.0065835118 0.7095418
0.0056430139 -0.0075240135 0.70954174
0.0056430139 -0.0084645152 0.7095418
0.0056430139 -0.0094050169 0.7095418
0.0056430139 -0.010345489 0.7095418
0.0056430139 -0.01128599 0.70954174
0.0056430139 -0.012226492 0.70954174
0.0056430139 -0.013167024 0.7095418
0.0056430139 -0.014107525 0.70954174
0.0056430316 -0.015048057 0.70954216
0.0056430316 -0.015988559 0.70954216
0.0056430139 -0.01692903 0.7095418
0.0056430139 -0.017869532 0.7095418
0.0056430139 -0.018810064 0.7095418
0.0056430139 -0.019750506 0.7095418
0.0056430139 -0.020691037 0.7095418
0.0056430139 -0.021631539 0.70954174
0.0056430139 -0.022572041 0.7095418
0.0056256857 -0.023440331 0.70914286
0.0055955369 -0.024247289 0.70844877
0.0055337776 -0.024902016 0.70702696
0.0059367814 -0.027704984 0.71630496
0.0060599507 -0.029289722 0.71914053
0.0062167328 -0.031083643 0.72275001
0.0073092091 0.032369375 0.72386211
0.0071080588 0.030463129 0.71989268
0.0069594025 0.02883181 0.71695924
0.0064548128 0.025819242 0.70700204
0.0064983955 0.025065243 0.70786202
0.0065542907 0.024344504 0.70896506
0.006583537 0.023512632 0.70954221
0.006583537 0.02257216 0.70954216
0.006583537 0.021631628 0.70954221
0.006583516 0.020691067 0.7095418
0.006583516 0.019750595 0.70954174
0.006583516 0.018810064 0.7095418
0.006583516 0.017869532 0.7095418
0.006583516 0.01692909 0.7095418
0.006583516 0.015988559 0.7095418
0.006583516 0.015048057 0.70954174
0.006583516 0.014107525 0.7095418
0.006583516 0.013167053 0.70954174
0.006583516 0.012226522 0.70954174
0.006583516 0.01128602 0.70954174
0.006583516 0.010345519 0.7095418
0.006583516 0.0094050765 0.7095418
0.006583516 0.008464545 0.7095418
0.006583516 0.0075240433 0.7095418
0.006583516 0.0065835118 0.7095418
0.006583516 0.0056430399 0.70954174
0.006583516 0.0047025084 0.7095418
0.006583516 0.0037620366 0.70954174
0.006583516 0.0028215051 0.7095418
0.006583516 0.0018810332 0.70954174
0.006583516 0.00094050169 0.7095418
0.006583516 2.9802322e-08 0.70954174
0.006583516 -0.00094047189 0.70954174
0.006583516 -0.0018809736 0.70954168
0.006583516 -0.0028214753 0.70954174
0.006583516 -0.003761977 0.7095418
0.006583516 -0.0047024786 0.7095418
0.006583516 -0.0056430101 0.7095418
0.006583516 -0.0065835118 0.7095418
0.006583516 -0.0075240135 0.70954174
0.006583516 -0.0084645152 0.7095418
0.006583516 -0.0094050169 0.7095418
0.006583516 -0.010345489 0.7095418
0.006583516 -0.01128599 0.70954174
0.006583516 -0.012226492 0.70954174
0.006583516 -0.013167024 0.7095418
0.006583516 -0.014107525 0.70954174
0.006583537 -0.015048057 0.70954216
0.006583537 -0.015988559 0.70954216
0.006583516 -0.01692903 0.7095418
0.006583516 -0.017869532 0.7095418
0.006583516 -0.018810064 0.7095418
0.006583516 -0.019750506 0.7095418
0.006583516 -0.020691037 0.7095418
0.006583516 -0.021631539 0.70954174
0.006583516 -0.022572041 0.7095418
0.0065542702 -0.023408085 0.70896459
0.0064982125 -0.024136215 0.70785844
0.0064548128 -0.024897128 0.70700204
0.006959565 -0.02783826 0.71696246
0.0071082287 -0.02944836 0.71989608
0.007310621 -0.031331211 0.72388995
0.0081761749 0.030660689 0.72080231
0.0079970462 0.028989315 0.7177093
0.0073805447 0.025831908 0.70706445
0.0073921937 0.024948686 0.70726562
0.0074777864 0.02430281 0.70874351
0.007517267 0.023491472 0.70942521
0.0075240424 0.02257216 0.70954216
0.0075240424 0.021631628 0.70954221
0.0075240186 0.020691067 0.7095418
0.0075240186 0.019750595 0.70954174
0.0075240186 0.018810064 0.7095418
0.0075240186 0.017869532 0.7095418
0.0075240186 0.01692909 0.7095418
0.0075240186 0.015988559 0.7095418
0.0075240186 0.015048057 0.70954174
0.0075240186 0.014107525 0.7095418
0.0075240186 0.013167053 0.70954174
0.0075240186 0.012226522 0.70954174
0.0075240186 0.01128602 0.70954174
0.0075240186 0.010345519 0.7095418
0.0075240186 0.0094050765 0.7095418
0.0075240186 0.008464545 0.7095418
0.0075240186 0.0075240433 0.7095418
0.0075240186 0.0065835118 0.7095418
0.0075240186 0.0056430399 0.70954174
0.0075240186 0.0047025084 0.7095418
0.0075240186 0.0037620366 0.70954174
0.0075240186 0.0028215051 0.7095418
0.0075240186 0.0018810332 0.70954174
0.0075240186 0.00094050169 0.7095418
0.0075240186 2.9802322e-08 0.70954174
0.0075240186 -0.00094047189 0.70954174
0.0075240186 -0.0018809736 0.70954168
0.0075240186 -0.0028214753 0.70954174
0.0075240186 -0.003761977 0.7095418
0.0075240186 -0.0047024786 0.7095418
0.0075240186 -0.0056430101 0.7095418
0.0075240186 -0.0065835118 0.7095418
0.0075240186 -0.0075240135 0.70954174
0.0075240186 -0.0084645152 0.7095418
0.0075240186 -0.0094050169 0.7095418
0.0075240186 -0.010345489 0.7095418
0.0075240186 -0.01128599 0.70954174
0.0075240186 -0.012226492 0.70954174
0.0075240186 -0.013167024 0.7095418
0.0075240424 -0.014107555 0.70954216
0.0075240424 -0.015048057 0.70954216
0.0075240186 -0.015988499 0.7095418
0.0075240186 -0.01692903 0.7095418
0.0075240186 -0.017869532 0.7095418
0.0075240186 -0.018810064 0.7095418
0.0075240186 -0.019750506 0.7095418
0.0075240186 -0.020691037 0.7095418
0.0075240186 -0.021631539 0.70954174
0.0075172195 -0.022551626 0.70942438
0.0074772933 -0.023366511 0.70873499
0.0073920786 -0.024024248 0.70726365
0.0073805675 -0.024909407 0.70706487
0.0079971533 -0.027990013 0.71771115
0.0081762867 -0.029639006 0.72080421
0.0092730848 0.030910313 0.72195172
0.0090535525 0.029172599 0.71858227
0.0088818874 0.027632564 0.71594751
0.0083030099 0.024909049 0.7070629
0.0083971238 0.024258375 0.7085073
0.0084407907 0.023446649 0.70917755
0.0084645478 0.02257216 0.70954216
0.0084645478 0.021631628 0.70954221
0.0084645208 0.020691067 0.7095418
0.0084645208 0.019750595 0.70954174
0.0084645208 0.018810064 0.7095418
0.0084645208 0.017869532 0.7095418
0.0084645208 0.01692909 0.7095418
0.0084645208 0.015988559 0.7095418
0.0084645208 0.015048057 0.70954174
0.0084645208 0.014107525 0.7095418
0.0084645208 0.013167053 0.70954174
0.0084645208 0.012226522 0.70954174
0.0084645208 0.01128602 0.70954174
0.0084645208 0.010345519 0.7095418
0.0084645208 0.0094050765 0.7095418
0.0084645208 0.008464545 0.7095418
0.0084645208 0.0075240433 0.7095418
0.0084645208 0.0065835118 0.7095418
0.0084645208 0.0056430399 0.70954174
0.0084645208 0.0047025084 0.7095418
0.0084645208 0.0037620366 0.70954174
0.0084645208 0.0028215051 0.7095418
0.0084645208 0.0018810332 0.70954174
0.0084645208 0.00094050169 0.7095418
0.0084645208 2.9802322e-08 0.70954174
0.0084645208 -0.00094047189 0.70954174
0.0084645208 -0.0018809736 0.70954168
0.0084645208 -0.0028214753 0.70954174
0.0084645208 -0.003761977 0.7095418
0.0084645208 -0.0047024786 0.7095418
0.0084645208 -0.0056430101 0.7095418
0.0084645208 -0.0065835118 0.7095418
0.0084645208 -0.0075240135 0.70954174
0.0084645208 -0.0084645152 0.7095418
0.0084645208 -0.0094050169 0.7095418
0.0084645208 -0.010345489 0.7095418
0.0084645208 -0.01128599 0.70954174
0.0084645208 -0.012226492 0.70954174
0.0084645208 -0.013167024 0.7095418
0.0084645208 -0.014107525 0.70954174
0.0084645208 -0.015048057 0.70954174
0.0084645208 -0.015988499 0.7095418
0.0084645208 -0.01692903 0.7095418
0.0084645208 -0.017869532 0.7095418
0.0084645208 -0.018810064 0.7095418
0.0084645208 -0.019750506 0.7095418
0.0084645208 -0.020691037 0.7095418
0.0084645208 -0.021631539 0.70954174
0.0084407907 -0.02250877 0.70917761
0.0083968071 -0.02332443 0.70850247
0.0083029838 -0.02398634 0.70706242
0.0088818874 -0.02664566 0.71594757
0.009053614 -0.028166801 0.71858323
0.0092732459 -0.029880434 0.72195411
0.010399301 0.031197935 0.72327602
0.01013893 0.029402912 0.71967942
0.0099354936 0.027819395 0.71686929
0.0092211328 0.024897069 0.70700157
0.0092740711 0.024112612 0.70773292
0.0093592936 0.023398221 0.70891011
0.0094050234 0.02257207 0.7095418
0.0094050532 0.021631628 0.70954221
0.0094050234 0.020691067 0.7095418
0.0094050234 0.019750595 0.70954174
0.0094050234 0.018810064 0.7095418
0.0094050234 0.017869532 0.7095418
0.0094050234 0.01692909 0.7095418
0.0094050234 0.015988559 0.7095418
0.0094050234 0.015048057 0.70954174
0.0094050234 0.014107525 0.7095418
0.0094050234 0.013167053 0.70954174
0.0094050234 0.012226522 0.70954174
0.0094050234 0.01128602 0.70954174
0.0094050234 0.010345519 0.7095418
0.0094050234 0.0094050765 0.7095418
0.0094050234 0.008464545 0.7095418
0.0094050234 0.0075240433 0.7095418
0.0094050234 0.0065835118 0.7095418
0.0094050234 0.0056430399 0.70954174
0.0094050234 0.0047025084 0.7095418
0.0094050234 0.0037620366 0.70954174
0.0094050234 0.0028215051 0.7095418
0.0094050234 0.0018810332 0.70954174
0.0094050234 0.00094050169 0.7095418
0.0094050234 2.9802322e-08 0.70954174
0.0094050234 -0.00094047189 0.70954174
0.0094050234 -0.0018809736 0.70954168
0.0094050234 -0.0028214753 0.70954174
0.0094050234 -0.003761977 0.7095418
0.0094050234 -0.0047024786 0.7095418
0.0094050234 -0.0056430101 0.7095418
0.0094050234 -0.0065835118 0.7095418
0.0094050234 -0.0075240135 0.70954174
0.0094050234 -0.0084645152 0.7095418
0.0094050234 -0.0094050169 0.7095418
0.0094050234 -0.010345489 0.7095418
0.0094050234 -0.01128599 0.70954174
0.0094050234 -0.012226492 0.70954174
0.0094050234 -0.013167024 0.7095418
0.0094050234 -0.014107525 0.70954174
0.0094050234 -0.015048057 0.70954174
0.0094050234 -0.015988499 0.7095418
0.0094050234 -0.01692903 0.7095418
0.0094050234 -0.017869532 0.7095418
0.0094050234 -0.018810064 0.7095418
0.0094050234 -0.019750506 0.7095418
0.0094050234 -0.020691037 0.7095418
0.0094050234 -0.021631539 0.70954174
0.0093592936 -0.022462279 0.70891011
0.0092738103 -0.023184508 0.70772922
0.0092211608 -0.023975015 0.70700198
0.0099355271 -0.026825905 0.71686971
0.010139 -0.028389186 0.71968043
0.0103997 -0.030159146 0.7232815
0.011250475 0.029660374 0.72090566
0.011010742 0.028027356 0.71789527
0.010153824 0.024923027 0.70713449
0.010155053 0.02400285 0.70714992
0.010271464 0.023344278 0.70861173
0.010322837 0.022522599 0.70925689
0.010345559 0.021631628 0.70954221
0.010345526 0.020691067 0.7095418
0.010345526 0.019750595 0.70954174
0.010345526 0.018810064 0.7095418
0.010345526 0.017869532 0.7095418
0.010345526 0.01692909 0.7095418
0.010345526 0.015988559 0.7095418
0.010345526 0.015048057 0.70954174
0.010345526 0.014107525 0.7095418
0.010345526 0.013167053 0.70954174
0.010345526 0.012226522 0.70954174
0.010345526 0.01128602 0.70954174
0.010345526 0.010345519 0.7095418
0.010345526 0.0094050765 0.7095418
0.010345526 0.008464545 0.7095418
0.010345526 0.0075240433 0.7095418
0.010345526 0.0065835118 0.7095418
0.010345526 0.0056430399 0.70954174
0.010345526 0.0047025084 0.7095418
0.010345526 0.0037620366 0.70954174
0.010345526 0.0028215051 0.7095418
0.010345526 0.0018810332 0.70954174
0.010345526 0.00094050169 0.7095418
0.010345526 2.9802322e-08 0.70954174
0.010345526 -0.00094047189 0.70954174
0.010345526 -0.0018809736 0.70954168
0.010345526 -0.0028214753 0.70954174
0.010345526 -0.003761977 0.7095418
0.010345526 -0.0047024786 0.7095418
0.010345526 -0.0056430101 0.7095418
0.010345526 -0.0065835118 0.7095418
0.010345526 -0.0075240135 0.70954174
0.010345526 -0.0084645152 0.7095418
0.010345526 -0.0094050169 0.7095418
0.010345526 -0.010345489 0.7095418
0.010345526 -0.01128599 0.70954174
0.010345526 -0.012226492 0.70954174
0.010345526 -0.013167024 0.7095418
0.010345526 -0.014107525 0.70954174
0.010345526 -0.015048057 0.70954174
0.010345526 -0.015988499 0.7095418
0.010345526 -0.01692903 0.7095418
0.010345526 -0.017869532 0.7095418
0.010345526 -0.018810064 0.7095418
0.010345526 -0.019750506 0.7095418
0.010345526 -0.020691037 0.7095418
0.010322805 -0.021584034 0.70925641
0.0102714 -0.022410333 0.70861095
0.010155085 -0.023079723 0.70715028
0.010153919 -0.024000138 0.70713562
0.011010816 -0.027026534 0.71789616
0.011250475 -0.028637588 0.72090572
0.012409946 0.029990733 0.72247922
0.012118996 0.028277665 0.7191301
0.011887604 0.026747108 0.71646655
0.011065702 0.0239757 0.70700556
0.011148806 0.023226708 0.70796221
0.011234193 0.022468388 0.7089451
0.011286028 0.021631539 0.7095418
0.011286028 0.020691067 0.7095418
0.011286028 0.019750595 0.70954174
0.011286028 0.018810064 0.7095418
0.011286028 0.017869532 0.7095418
0.011286028 0.01692909 0.7095418
0.011286028 0.015988559 0.7095418
0.011286028 0.015048057 0.70954174
0.011286028 0.014107525 0.7095418
0.011286028 0.013167053 0.70954174
0.011286028 0.012226522 0.70954174
0.011286028 0.01128602 0.70954174
0.011286028 0.010345519 0.7095418
0.011286028 0.0094050765 0.7095418
0.011286028 0.008464545 0.7095418
0.011286028 0.0075240433 0.7095418
0.011286028 0.0065835118 0.7095418
0.011286028 0.0056430399 0.70954174
0.011286028 0.0047025084 0.7095418
0.011286028 0.0037620366 0.70954174
0.011286028 0.0028215051 0.7095418
0.011286028 0.0018810332 0.70954174
0.011286028 0.00094050169 0.7095418
0.011286028 2.9802322e-08 0.70954174
0.011286028 -0.00094047189 0.70954174
0.011286028 -0.0018809736 0.70954168
0.011286028 -0.0028214753 0.70954174
0.011286028 -0.003761977 0.7095418
0.011286028 -0.0047024786 0.7095418
0.011286028 -0.0056430101 0.7095418
0.011286028 -0.0065835118 0.7095418
0.011286028 -0.0075240135 0.70954174
0.011286028 -0.0084645152 0.7095418
0.011286028 -0.0094050169 0.7095418
0.011286028 -0.010345489 0.7095418
0.011286028 -0.01128599 0.70954174
0.011286028 -0.012226492 0.70954174
0.011286028 -0.013167024 0.7095418
0.011286028 -0.014107525 0.70954174
0.011286028 -0.015048057 0.70954174
0.011286028 -0.015988499 0.7095418
0.011286028 -0.01692903 0.7095418
0.011286028 -0.017869532 0.7095418
0.011286028 -0.018810064 0.7095418
0.011286028 -0.019750506 0.7095418
0.011286063 -0.020691097 0.70954216
0.011234123 -0.021532059 0.70894426
0.011148563 -0.022297114 0.70795941
0.011065702 -0.023053527 0.70700556
0.011887842 -0.025756985 0.71646929
0.012119202 -0.027268201 0.71913254
0.0124096 -0.028955698 0.72247529
0.013264995 0.028570771 0.72057605
0.01299651 0.026992768 0.71772331
0.011996808 0.023993611 0.70710087
0.012001576 0.023079962 0.70715147
0.012136184 0.022405267 0.70858181
0.012194329 0.021574616 0.70919961
0.012226608 0.020691186 0.70954263
0.01222653 0.019750595 0.70954174
0.01222653 0.018810064 0.7095418
0.01222653 0.017869532 0.7095418
0.01222653 0.01692909 0.7095418
0.01222653 0.015988559 0.7095418
0.01222653 0.015048057 0.70954174
0.01222653 0.014107525 0.7095418
0.01222653 0.013167053 0.70954174
0.01222653 0.012226522 0.70954174
0.01222653 0.01128602 0.70954174
0.01222653 0.010345519 0.7095418
0.01222653 0.0094050765 0.7095418
0.01222653 0.008464545 0.7095418
0.01222653 0.0075240433 0.7095418
0.01222653 0.0065835118 0.7095418
0.01222653 0.0056430399 0.70954174
0.01222653 0.0047025084 0.7095418
0.01222653 0.0037620366 0.70954174
0.01222653 0.0028215051 0.7095418
0.01222653 0.0018810332 0.70954174
0.01222653 0.00094050169 0.7095418
0.01222653 2.9802322e-08 0.70954174
0.01222653 -0.00094047189 0.70954174
0.01222653 -0.0018809736 0.70954168
0.01222653 -0.0028214753 0.70954174
0.01222653 -0.003761977 0.7095418
0.01222653 -0.0047024786 0.7095418
0.01222653 -0.0056430101 0.7095418
0.01222653 -0.0065835118 0.7095418
0.01222653 -0.0075240135 0.70954174
0.01222653 -0.0084645152 0.7095418
0.01222653 -0.0094050169 0.7095418
0.01222653 -0.010345489 0.7095418
0.01222653 -0.01128599 0.70954174
0.01222653 -0.012226492 0.70954174
0.01222653 -0.013167024 0.7095418
0.01222653 -0.014107525 0.70954174
0.01222653 -0.015048057 0.70954174
0.01222653 -0.015988499 0.7095418
0.01222653 -0.01692903 0.7095418
0.01222653 -0.017869532 0.7095418
0.01222653 -0.018810064 0.7095418
0.01222653 -0.019750506 0.7095418
0.012194253 -0.02063641 0.70919877
0.012136375 -0.021472037 0.70858383
0.0120015 -0.022156596 0.7071507
0.011996883 -0.023070872 0.70710158
0.012996772 -0.025993526 0.71772599
0.013265269 -0.027550906 0.72057897
0.014463483 0.028926969 0.72233337
0.014138252 0.027266622 0.71912444
0.013880894 0.02577883 0.71658516
0.012909586 0.023052841 0.70700163
0.012971362 0.022236615 0.7076112
0.013094399 0.02151227 0.70882511
0.01315713 0.02067548 0.70944405
0.013167074 0.019750625 0.70954216
0.013167032 0.018810064 0.7095418
0.013167032 0.017869532 0.7095418
0.013167032 0.01692909 0.7095418
0.013167032 0.015988559 0.7095418
0.013167032 0.015048057 0.70954174
0.013167032 0.014107525 0.7095418
0.013167032 0.013167053 0.70954174
0.013167032 0.012226522 0.70954174
0.013167032 0.01128602 0.70954174
0.013167032 0.010345519 0.7095418
0.013167032 0.0094050765 0.7095418
0.013167032 0.008464545 0.7095418
0.013167032 0.0075240433 0.7095418
0.013167032 0.0065835118 0.7095418
0.013167032 0.0056430399 0.70954174
0.013167032 0.0047025084 0.7095418
0.013167032 0.0037620366 0.70954174
0.013167032 0.0028215051 0.7095418
0.013167032 0.0018810332 0.70954174
0.013167032 0.00094050169 0.7095418
0.013167032 2.9802322e-08 0.70954174
0.013167032 -0.00094047189 0.70954174
0.013167032 -0.0018809736 0.70954168
0.013167032 -0.0028214753 0.70954174
0.013167032 -0.003761977 0.7095418
0.013167032 -0.0047024786 0.7095418
0.013167032 -0.0056430101 0.7095418
0.013167032 -0.0065835118 0.7095418
0.013167032 -0.0075240135 0.70954174
0.013167032 -0.0084645152 0.7095418
0.013167032 -0.0094050169 0.7095418
0.013167032 -0.010345489 0.7095418
0.013167032 -0.01128599 0.70954174
0.013167074 -0.012226552 0.70954216
0.013167032 -0.013167024 0.7095418
0.013167032 -0.014107525 0.70954174
0.013167032 -0.015048057 0.70954174
0.013167032 -0.015988499 0.7095418
0.013167032 -0.01692903 0.7095418
0.013167032 -0.017869532 0.7095418
0.013167032 -0.018810064 0.7095418
0.013157004 -0.019735515 0.70944285
0.013094564 -0.020577192 0.70882678
0.012971079 -0.021309584 0.70760834
0.012909586 -0.022130698 0.70700163
0.013881263 -0.024787962 0.71658885
0.014138637 -0.026257485 0.71912825
0.014463785 -0.027894437 0.72233629
0.015329801 0.027593642 0.72079742
0.015025724 0.026044577 0.71799725
0.013859415 0.023099065 0.70725691
0.013838221 0.022141188 0.70706171
0.013986254 0.021445632 0.70842487
0.014049464 0.020605922 0.70900697
0.014107579 0.019750625 0.70954216
0.014107579 0.018810123 0.70954216
0.014107535 0.017869532 0.7095418
0.014107535 0.01692909 0.7095418
0.014107535 0.015988559 0.7095418
0.014107535 0.015048057 0.70954174
0.014107535 0.014107525 0.7095418
0.014107535 0.013167053 0.70954174
0.014107535 0.012226522 0.70954174
0.014107535 0.01128602 0.70954174
0.014107535 0.010345519 0.7095418
0.014107535 0.0094050765 0.7095418
0.014107535 0.008464545 0.7095418
0.014107535 0.0075240433 0.7095418
0.014107535 0.0065835118 0.7095418
0.014107535 0.0056430399 0.70954174
0.014107535 0.0047025084 0.7095418
0.014107535 0.0037620366 0.70954174
0.014107535 0.0028215051 0.7095418
0.014107535 0.0018810332 0.70954174
0.014107535 0.00094050169 0.7095418
0.014107535 2.9802322e-08 0.70954174
0.014107535 -0.00094047189 0.70954174
0.014107535 -0.0018809736 0.70954168
0.014107535 -0.0028214753 0.70954174
0.014107535 -0.003761977 0.7095418
0.014107535 -0.0047024786 0.7095418
0.014107535 -0.0056430101 0.7095418
0.014107535 -0.0065835118 0.7095418
0.014107535 -0.0075240135 0.70954174
0.014107535 -0.0084645152 0.7095418
0.014107535 -0.0094050169 0.7095418
0.014107535 -0.010345489 0.7095418
0.014107535 -0.01128599 0.70954174
0.014107579 -0.012226552 0.70954216
0.014107535 -0.013167024 0.7095418
0.014107535 -0.014107525 0.70954174
0.014107535 -0.015048057 0.70954174
0.014107535 -0.015988499 0.7095418
0.014107535 -0.01692903 0.7095418
0.014107535 -0.017869532 0.7095418
0.014107535 -0.018810064 0.7095418
0.01404942 -0.019669175 0.70900661
0.013985948 -0.02051267 0.70842206
0.013838135 -0.021218479 0.70706093
0.013859589 -0.022175312 0.7072584
0.015026027 -0.025043368 0.71799999
0.015330222 -0.026572376 0.72080129
0.016592925 0.028000593 0.72287929
0.016223283 0.026362866 0.71968806
0.015927918 0.024887383 0.71713805
0.014758022 0.022137076 0.70703799
0.014777638 0.021242857 0.70720732
0.014937405 0.020538926 0.70858663
0.015003673 0.019692332 0.70915872
0.015048085 0.018810123 0.70954216
0.015048037 0.017869532 0.7095418
0.015048037 0.01692909 0.7095418
0.015048037 0.015988559 0.7095418
0.015048037 0.015048057 0.70954174
0.015048037 0.014107525 0.7095418
0.015048037 0.013167053 0.70954174
0.015048037 0.012226522 0.70954174
0.015048037 0.01128602 0.70954174
0.015048037 0.010345519 0.7095418
0.015048037 0.0094050765 0.7095418
0.015048037 0.008464545 0.7095418
0.015048037 0.0075240433 0.7095418
0.015048037 0.0065835118 0.7095418
0.015048037 0.0056430399 0.70954174
0.015048037 0.0047025084 0.7095418
0.015048037 0.0037620366 0.70954174
0.015048037 0.0028215051 0.7095418
0.015048037 0.0018810332 0.70954174
0.015048037 0.00094050169 0.7095418
0.015048037 2.9802322e-08 0.70954174
0.015048037 -0.00094047189 0.70954174
0.015048037 -0.0018809736 0.70954168
0.015048037 -0.0028214753 0.70954174
0.015048037 -0.003761977 0.7095418
0.015048037 -0.0047024786 0.7095418
0.015048037 -0.0056430101 0.7095418
0.015048037 -0.0065835118 0.7095418
0.015048037 -0.0075240135 0.70954174
0.015048037 -0.0084645152 0.7095418
0.015048037 -0.0094050169 0.7095418
0.015048037 -0.010345489 0.7095418
0.015048037 -0.01128599 0.70954174
0.015048037 -0.012226492 0.70954174
0.015048037 -0.013167024 0.7095418
0.015048037 -0.014107525 0.70954174
0.015048037 -0.015048057 0.70954174
0.015048037 -0.015988499 0.7095418
0.015048037 -0.01692903 0.7095418
0.015048037 -0.017869532 0.7095418
0.015003578 -0.018754452 0.70915794
0.014936795 -0.019604534 0.70858133
0.014777546 -0.020319104 0.70720655
0.014758068 -0.021214664 0.70703834
0.015928239 -0.023892343 0.71714079
0.016223671 -0.025349468 0.71969134
0.016593276 -0.026964068 0.72288227
0.017482756 0.026738346 0.72168303
0.017128155 0.025188476 0.71880162
0.016841222 0.023775846 0.71647024
0.015676022 0.021208763 0.7070024
0.015726099 0.02035144 0.70740932
0.015884556 0.019622117 0.70869684
0.015949853 0.018764526 0.70922738
0.01598854 0.017869532 0.7095418
0.01598854 0.01692909 0.7095418
0.01598854 0.015988559 0.7095418
0.01598854 0.015048057 0.70954174
0.01598854 0.014107525 0.7095418
0.01598854 0.013167053 0.70954174
0.01598854 0.012226522 0.70954174
0.01598854 0.01128602 0.70954174
0.01598854 0.010345519 0.7095418
0.01598854 0.0094050765 0.7095418
0.01598854 0.008464545 0.7095418
0.01598854 0.0075240433 0.7095418
0.01598854 0.0065835118 0.7095418
0.01598854 0.0056430399 0.70954174
0.01598854 0.0047025084 0.7095418
0.01598854 0.0037620366 0.70954174
0.01598854 0.0028215051 0.7095418
0.01598854 0.0018810332 0.70954174
0.01598854 0.00094050169 0.7095418
0.01598854 2.9802322e-08 0.70954174
0.01598854 -0.00094047189 0.70954174
0.01598854 -0.0018809736 0.70954168
0.01598854 -0.0028214753 0.70954174
0.01598854 -0.003761977 0.7095418
0.01598854 -0.0047024786 0.7095418
0.01598854 -0.0056430101 0.7095418
0.01598854 -0.0065835118 0.7095418
0.01598854 -0.0075240135 0.70954174
0.01598854 -0.0084645152 0.7095418
0.01598854 -0.0094050169 0.7095418
0.01598854 -0.010345489 0.7095418
0.01598859 -0.01128608 0.70954216
0.01598854 -0.012226492 0.70954174
0.01598854 -0.013167024 0.7095418
0.01598854 -0.014107525 0.70954174
0.01598854 -0.015048057 0.70954174
0.01598854 -0.015988499 0.7095418
0.01598859 -0.01692909 0.70954216
0.015949801 -0.017826229 0.70922703
0.015884455 -0.018687576 0.70869607
0.015725855 -0.019426048 0.70740736
0.015676022 -0.02028659 0.7070024
0.016841615 -0.022785693 0.71647334
0.017128559 -0.024181485 0.7188049
0.017482998 -0.025710285 0.72168493
0.018395383 0.025549144 0.72079456
0.018057264 0.024076372 0.71819979
0.017773032 0.022709996 0.71601856
0.016598864 0.020287514 0.70700794
0.016683703 0.019464344 0.70765901
0.016825337 0.018694818 0.70874596
0.016894687 0.017833322 0.70927811
0.016929042 0.01692909 0.7095418
0.016929042 0.015988559 0.7095418
0.016929042 0.015048057 0.70954174
0.016929042 0.014107525 0.7095418
0.016929042 0.013167053 0.70954174
0.016929042 0.012226522 0.70954174
0.016929042 0.01128602 0.70954174
0.016929042 0.010345519 0.7095418
0.016929042 0.0094050765 0.7095418
0.016929042 0.008464545 0.7095418
0.016929042 0.0075240433 0.7095418
0.016929042 0.0065835118 0.7095418
0.016929042 0.0056430399 0.70954174
0.016929042 0.0047025084 0.7095418
0.016929042 0.0037620366 0.70954174
0.016929042 0.0028215051 0.7095418
0.016929042 0.0018810332 0.70954174
0.016929042 0.00094050169 0.7095418
0.016929042 2.9802322e-08 0.70954174
0.016929042 -0.00094047189 0.70954174
0.016929042 -0.0018809736 0.70954168
0.016929042 -0.0028214753 0.70954174
0.016929042 -0.003761977 0.7095418
0.016929042 -0.0047024786 0.7095418
0.016929042 -0.0056430101 0.7095418
0.016929042 -0.0065835118 0.7095418
0.016929042 -0.0075240135 0.70954174
0.016929042 -0.0084645152 0.7095418
0.016929042 -0.0094050169 0.7095418
0.016929042 -0.010345489 0.7095418
0.016929042 -0.01128599 0.70954174
0.016929042 -0.012226492 0.70954174
0.016929042 -0.013167024 0.7095418
0.016929042 -0.014107525 0.70954174
0.016929042 -0.015048057 0.70954174
0.016929096 -0.015988559 0.70954216
0.016894687 -0.016894698 0.70927811
0.016825285 -0.017760009 0.70874554
0.016683286 -0.018536985 0.70765579
0.016598914 -0.0193654 0.7070083
0.017773269 -0.021722853 0.71602041
0.018057629 -0.023073614 0.71820259
0.018395761 -0.024527669 0.72079742
0.019760327 0.02600044 0.72328806
0.019339593 0.024428993 0.72022921
0.019007934 0.023009598 0.71781808
0.017561752 0.020334661 0.70730406
0.017522434 0.01936689 0.70701826
0.017621944 0.018549412 0.70774168
0.017759353 0.017759383 0.70874059
0.01782625 0.016888022 0.70922703
0.017869545 0.015988559 0.7095418
0.017869545 0.015048057 0.70954174
0.017869545 0.014107525 0.7095418
0.017869545 0.013167053 0.70954174
0.017869545 0.012226522 0.70954174
0.017869545 0.01128602 0.70954174
0.017869545 0.010345519 0.7095418
0.017869545 0.0094050765 0.7095418
0.017869545 0.008464545 0.7095418
0.017869545 0.0075240433 0.7095418
0.017869545 0.0065835118 0.7095418
0.017869545 0.0056430399 0.70954174
0.017869545 0.0047025084 0.7095418
0.017869545 0.0037620366 0.70954174
0.017869545 0.0028215051 0.7095418
0.017869545 0.0018810332 0.70954174
0.017869545 0.00094050169 0.7095418
0.017869545 2.9802322e-08 0.70954174
0.017869545 -0.00094047189 0.70954174
0.017869545 -0.0018809736 0.70954168
0.017869545 -0.0028214753 0.70954174
0.017869545 -0.003761977 0.7095418
0.017869545 -0.0047024786 0.7095418
0.017869545 -0.0056430101 0.7095418
0.017869545 -0.0065835118 0.7095418
0.017869545 -0.0075240135 0.70954174
0.017869545 -0.0084645152 0.7095418
0.017869545 -0.0094050169 0.7095418
0.017869545 -0.010345489 0.7095418
0.017869545 -0.01128599 0.70954174
0.017869545 -0.012226492 0.70954174
0.017869545 -0.013167024 0.7095418
0.017869545 -0.014107525 0.70954174
0.017869545 -0.015048057 0.70954174
0.017826192 -0.015949726 0.70922661
0.017759519 -0.016824812 0.7087419
0.017621614 -0.017621577 0.70773929
0.017522434 -0.018444657 0.70701826
0.017562136 -0.019410789 0.70730686
0.019008383 -0.022009701 0.7178213
0.019339923 -0.023411453 0.72023165
0.019760327 -0.024960399 0.72328806
0.02072165 0.024865985 0.72274452
0.02030777 0.023353934 0.71988595
0.019980727 0.021978825 0.71762723
0.01847727 0.019401163 0.70724338
0.018444724 0.018444747 0.70701861
0.01853046 0.017603934 0.70761079
0.018686654 0.016817987 0.70868951
0.018754533 0.015941352 0.70915836
0.018809987 0.015047967 0.70954138
0.018810047 0.014107525 0.7095418
0.018810047 0.013167053 0.70954174
0.018810047 0.012226522 0.70954174
0.018810047 0.01128602 0.70954174
0.018810047 0.010345519 0.7095418
0.018810047 0.0094050765 0.7095418
0.018810047 0.008464545 0.7095418
0.018810047 0.0075240433 0.7095418
0.018810047 0.0065835118 0.7095418
0.018810047 0.0056430399 0.70954174
0.018810047 0.0047025084 0.7095418
0.018810047 0.0037620366 0.70954174
0.018810047 0.0028215051 0.7095418
0.018810047 0.0018810332 0.70954174
0.018810047 0.00094050169 0.7095418
0.018810047 2.9802322e-08 0.70954174
0.018810047 -0.00094047189 0.70954174
0.018810047 -0.0018809736 0.70954168
0.018810047 -0.0028214753 0.70954174
0.018810047 -0.003761977 0.7095418
0.018810047 -0.0047024786 0.7095418
0.018810047 -0.0056430101 0.7095418
0.018810047 -0.0065835118 0.7095418
0.018810047 -0.0075240135 0.70954174
0.018810047 -0.0084645152 0.7095418
0.018810047 -0.0094050169 0.7095418
0.018810047 -0.010345489 0.7095418
0.018810047 -0.01128599 0.70954174
0.018810047 -0.012226492 0.70954174
0.018810047 -0.013167024 0.7095418
0.018810047 -0.014107525 0.70954174
0.018754473 -0.015003592 0.70915794
0.018686716 -0.015883714 0.70868993
0.01853017 -0.016677141 0.7076087
0.018444724 -0.017522484 0.70701861
0.018477498 -0.018477499 0.70724499
0.019981064 -0.02098012 0.71762955
0.020308254 -0.022339076 0.7198894
0.020722082 -0.023830354 0.7227475
0.021717556 0.023785919 0.7224803
0.02130519 0.022319734 0.71976781
0.020979693 0.020979673 0.71762681
0.019410359 0.018486083 0.70730406
0.019365339 0.017521024 0.70700794
0.019426297 0.016651124 0.70740896
0.019604728 0.015870512 0.70858258
0.019669252 0.014986128 0.70900697
0.019735632 0.014096886 0.70944363
0.01975055 0.013167053 0.70954174
0.01975055 0.012226522 0.70954174
0.01975055 0.01128602 0.70954174
0.01975055 0.010345519 0.7095418
0.01975055 0.0094050765 0.7095418
0.01975055 0.008464545 0.7095418
0.01975055 0.0075240433 0.7095418
0.01975055 0.0065835118 0.7095418
0.01975055 0.0056430399 0.70954174
0.01975055 0.0047025084 0.7095418
0.01975055 0.0037620366 0.70954174
0.01975055 0.0028215051 0.7095418
0.01975055 0.0018810332 0.70954174
0.01975055 0.00094050169 0.7095418
0.01975055 2.9802322e-08 0.70954174
0.01975055 -0.00094047189 0.70954174
0.01975055 -0.0018809736 0.70954168
0.01975055 -0.0028214753 0.70954174
0.01975055 -0.003761977 0.7095418
0.01975055 -0.0047024786 0.7095418
0.01975055 -0.0056430101 0.7095418
0.01975055 -0.0065835118 0.7095418
0.01975055 -0.0075240135 0.70954174
0.01975055 -0.0084645152 0.7095418
0.01975055 -0.0094050169 0.7095418
0.01975055 -0.010345489 0.7095418
0.01975055 -0.01128599 0.70954174
0.019750612 -0.012226552 0.70954216
0.019735571 -0.01315701 0.70944321
0.019669188 -0.014049441 0.70900661
0.019602882 -0.014935523 0.70857048
0.019426117 -0.015725911 0.70740771
0.019365339 -0.01659885 0.70700794
0.019410782 -0.017562121 0.70730686
0.020980116 -0.019981027 0.71762955
0.021305626 -0.021305591 0.71977067
0.02171831 -0.022752494 0.72248524
0.022751885 0.022751927 0.72248125
0.022338547 0.021323174 0.719886
0.022009188 0.020008355 0.71781802
0.02172274 0.018760592 0.71601951
0.020286491 0.016598046 0.70700163
0.02031919 0.015701205 0.7072069
0.020513304 0.014918774 0.70842576
0.020577624 0.014030188 0.70882958
0.020636557 0.013132364 0.70919961
0.020691052 0.012226522 0.70954174
0.020691052 0.01128602 0.70954174
0.020691052 0.010345519 0.7095418
0.020691052 0.0094050765 0.7095418
0.020691052 0.008464545 0.7095418
0.020691052 0.0075240433 0.7095418
0.020691052 0.0065835118 0.7095418
0.020691052 0.0056430399 0.70954174
0.020691052 0.0047025084 0.7095418
0.020691052 0.0037620366 0.70954174
0.020691052 0.0028215051 0.7095418
0.020691052 0.0018810332 0.70954174
0.020691052 0.00094050169 0.7095418
0.020691052 2.9802322e-08 0.70954174
0.020691052 -0.00094047189 0.70954174
0.020691052 -0.0018809736 0.70954168
0.020691052 -0.0028214753 0.70954174
0.020691052 -0.003761977 0.7095418
0.020691052 -0.0047024786 0.7095418
0.020691052 -0.0056430101 0.7095418
0.020691052 -0.0065835118 0.7095418
0.020691052 -0.0075240135 0.70954174
0.020691052 -0.0084645152 0.7095418
0.020691052 -0.0094050169 0.7095418
0.020691052 -0.010345489 0.7095418
0.020691117 -0.01128608 0.70954216
0.020636363 -0.012194157 0.70919836
0.020577496 -0.013094783 0.70882881
0.020513237 -0.01398626 0.70842528
0.020319127 -0.014777541 0.70720655
0.020286554 -0.015675962 0.70700204
0.021722453 -0.017772883 0.71601766
0.022009632 -0.019008279 0.71782076
0.022339005 -0.020308167 0.71988887
0.022751724 -0.021717548 0.72248024
0.023829315 0.021757215 0.72274101
0.023410924 0.020357311 0.72022825
0.02307325 0.019060552 0.71820027
0.022785332 0.017832011 0.71647108
0.021214657 0.015680403 0.70703804
0.021218671 0.014760822 0.70706213
0.021317333 0.013902634 0.70765465
0.021472316 0.013070107 0.70858544
0.021532137 0.012170345 0.70894468
0.021584181 0.011261314 0.70925725
0.021631554 0.010345519 0.7095418
0.021631554 0.0094050765 0.7095418
0.021631554 0.008464545 0.7095418
0.021631554 0.0075240433 0.7095418
0.021631554 0.0065835118 0.7095418
0.021631554 0.0056430399 0.70954174
0.021631554 0.0047025084 0.7095418
0.021631554 0.0037620366 0.70954174
0.021631554 0.0028215051 0.7095418
0.021631554 0.0018810332 0.70954174
0.021631554 0.00094050169 0.7095418
0.021631554 2.9802322e-08 0.70954174
0.021631554 -0.00094047189 0.70954174
0.021631554 -0.0018809736 0.70954168
0.021631554 -0.0028214753 0.70954174
0.021631554 -0.003761977 0.7095418
0.021631554 -0.0047024786 0.7095418
0.021631554 -0.0056430101 0.7095418
0.021631554 -0.0065835118 0.7095418
0.021631554 -0.0075240135 0.70954174
0.021631554 -0.0084645152 0.7095418
0.021631554 -0.0094050169 0.7095418
0.021584114 -0.010322839 0.70925683
0.021532001 -0.011234105 0.7089439
0.021472182 -0.01213643 0.70858467
0.021316934 -0.012975484 0.70765221
0.021218538 -0.013838172 0.70706129
0.021214657 -0.014757991 0.70703799
0.022785561 -0.016841501 0.71647251
0.023073483 -0.018057466 0.71820164
0.023411406 -0.01933983 0.72023118
0.023828734 -0.020720631 0.72273755
0.024957186 0.0207977 0.72326946
0.024527092 0.019417286 0.72079408
0.024181087 0.018135846 0.71880257
0.023891879 0.016923428 0.71713805
0.022175135 0.014783442 0.70725727
0.022130718 0.013831705 0.70700163
0.022156686 0.012924731 0.70715111
0.022306254 0.012082577 0.70801193
0.02240878 0.011204392 0.70860207
0.022462163 0.010295182 0.70890921
0.022508917 0.0093787313 0.70917833
0.022551874 0.0084569454 0.70942557
0.022572055 0.0075240433 0.7095418
0.022572055 0.0065835118 0.7095418
0.022572055 0.0056430399 0.70954174
0.022572055 0.0047025084 0.7095418
0.022572055 0.0037620366 0.70954174
0.022572055 0.0028215051 0.7095418
0.022572055 0.0018810332 0.70954174
0.022572055 0.00094050169 0.7095418
0.022572055 2.9802322e-08 0.70954174
0.022572055 -0.00094047189 0.70954174
0.022572055 -0.0018809736 0.70954168
0.022572055 -0.0028214753 0.70954174
0.022572055 -0.003761977 0.7095418
0.022572055 -0.0047024786 0.7095418
0.022572055 -0.0056430101 0.7095418
0.022572055 -0.0065835118 0.7095418
0.02255173 -0.0075172186 0.70942473
0.022508776 -0.0084407628 0.70917755
0.022462023 -0.0093591809 0.70890844
0.022409203 -0.010270894 0.70860445
0.022305975 -0.011152953 0.70801032
0.022156686 -0.012001514 0.70715106
0.022130718 -0.012909561 0.70700163
0.022175271 -0.01385951 0.70725811
0.023892278 -0.015928149 0.71714032
0.024181414 -0.017128468 0.71880448
0.024527512 -0.018395633 0.72079647
0.024958408 -0.019758731 0.72327644
0.025708959 0.018510461 0.72167754
0.025348967 0.017237335 0.71968853
0.025042959 0.01602751 0.71799767
