# .PCD v0.7 - Point Cloud Data file format
VERSION 0.7
FIELDS x y z
SIZE 4 4 4
TYPE F F F
COUNT 1 1 1
WIDTH 1313
HEIGHT 1
VIEWPOINT 0 0 0 1 0 0 0
POINTS 1313
DATA ascii
-0.040656216 -0.0093821883 0.72362638
-0.040656216 -0.010424674 0.72362649
-0.040656216 -0.011467099 0.72362643
-0.040656216 -0.012509555 0.72362649
-0.040656362 -0.013552129 0.72362697
-0.040656362 -0.014594585 0.72362691
-0.040656362 -0.01563707 0.72362697
-0.040656362 -0.016679496 0.72362697
-0.040656362 -0.017721981 0.72362691
-0.040656362 -0.018764466 0.72362697
-0.040656362 -0.019806921 0.72362697
-0.040656362 -0.020849407 0.72362691
-0.040486343 -0.021800309 0.72302473
-0.040273782 -0.022718519 0.72227192
-0.039856661 -0.023505181 0.72079456
-0.039637499 -0.024392307 0.72001827
-0.038482673 0.02531758 0.71951491
-0.038957186 0.024604529 0.72123981
-0.039179493 0.023713946 0.72204792
-0.039400235 0.022810668 0.72285026
-0.039400645 0.021774054 0.72285187
-0.039400645 0.020737171 0.72285181
-0.039400645 0.019700348 0.72285175
-0.039400645 0.018663466 0.72285181
-0.039400645 0.017626613 0.72285175
-0.039400645 0.016589761 0.72285181
-0.039400782 0.015552938 0.72285235
-0.039400782 0.014516115 0.72285229
-0.039400782 0.013479233 0.72285235
-0.039400782 0.01244238 0.72285229
-0.039400782 0.011405528 0.72285223
-0.039400782 0.010368645 0.72285229
-0.039400782 0.0093317926 0.72285223
-0.039400782 0.0082949102 0.72285235
-0.039400782 0.0072580576 0.72285229
-0.039400782 0.006221205 0.72285235
-0.039400782 0.0051843226 0.72285229
-0.03940092 0.00414747 0.72285283
-0.03940092 0.0031106174 0.72285277
-0.03940092 0.0020737946 0.72285277
-0.03940092 0.0010368824 0.72285277
-0.03940092 2.9802322e-08 0.72285283
-0.03940092 -0.0010368228 0.72285283
-0.03940092 -0.0020737052 0.72285277
-0.03940092 -0.0031105876 0.72285283
-0.03940092 -0.0041474402 0.72285277
-0.03940092 -0.0051843226 0.72285283
-0.03940092 -0.006221205 0.72285277
-0.03940092 -0.0072580576 0.72285277
-0.03940092 -0.0082949102 0.72285283
-0.039400645 -0.009331733 0.72285181
-0.039400645 -0.010368556 0.72285175
-0.039400645 -0.011405438 0.72285181
-0.039400645 -0.012442291 0.72285175
-0.039400782 -0.013479203 0.72285223
-0.039400782 -0.014516026 0.72285229
-0.039400782 -0.015552908 0.72285235
-0.039400782 -0.016589761 0.72285229
-0.039400782 -0.017626643 0.72285229
-0.039400782 -0.018663496 0.72285229
-0.039400782 -0.019700378 0.72285229
-0.03940092 -0.02073732 0.72285277
-0.039399959 -0.021773636 0.72284925
-0.039179359 -0.022682756 0.72204739
-0.038957186 -0.023579329 0.72123975
-0.038482279 -0.024304569 0.71951348
-0.03720355 0.026143074 0.71852022
-0.037475202 0.025321096 0.71953446
-0.037862953 0.024559766 0.72098202
-0.038081519 0.023672312 0.72179794
-0.03815864 0.022688925 0.72208589
-0.03815864 0.021657616 0.72208595
-0.03815864 0.020626307 0.72208595
-0.03815864 0.019594997 0.72208595
-0.03815864 0.018563688 0.72208595
-0.03815864 0.017532378 0.72208595
-0.038158774 0.016501099 0.72208643
-0.038158774 0.01546979 0.72208643
-0.038158774 0.01443848 0.72208643
-0.038158774 0.013407171 0.72208643
-0.038158774 0.012375832 0.72208643
-0.038158774 0.011344552 0.72208643
-0.038158774 0.010313183 0.72208643
-0.03815864 0.0092818737 0.72208589
-0.03815864 0.0082505345 0.72208595
-0.03815864 0.0072192252 0.72208589
-0.03815864 0.006187886 0.72208589
-0.03815864 0.0051566064 0.72208589
-0.03815864 0.0041252673 0.72208589
-0.038158908 0.0030939877 0.72208691
-0.038158908 0.0020626485 0.72208691
-0.038158908 0.0010313094 0.72208697
-0.038158908 2.9802322e-08 0.72208691
-0.038158908 -0.0010313094 0.72208691
-0.038158908 -0.0020625889 0.72208691
-0.038158908 -0.0030939579 0.72208691
-0.038158908 -0.0041252673 0.72208691
-0.038158908 -0.0051565766 0.72208691
-0.038158908 -0.0061879158 0.72208697
-0.038158908 -0.0072192252 0.72208691
-0.038158908 -0.0082505643 0.72208691
-0.03815864 -0.0092818439 0.72208595
-0.03815864 -0.010313123 0.72208595
-0.03815864 -0.011344433 0.72208589
-0.03815864 -0.012375742 0.72208589
-0.038158774 -0.013407111 0.72208643
-0.038158774 -0.01443845 0.72208643
-0.038158774 -0.01546976 0.72208643
-0.038158774 -0.016501099 0.72208643
-0.038158774 -0.017532378 0.72208643
-0.038158774 -0.018563718 0.72208643
-0.038158774 -0.019595027 0.72208637
-0.038158908 -0.020626396 0.72208691
-0.038158774 -0.021657705 0.72208643
-0.038081259 -0.022642881 0.72179699
-0.037862562 -0.023536146 0.72098058
-0.037474435 -0.024307728 0.7195316
-0.03720355 -0.025137514 0.71852022
-0.036047045 0.026033998 0.71794087
-0.036529541 0.025367767 0.71979219
-0.036752749 0.02450186 0.72064865
-0.03692985 0.023594111 0.7213282
-0.03692985 0.022568285 0.72132814
-0.03692985 0.02154246 0.7213282
-0.03692985 0.020516604 0.72132826
-0.03692985 0.019490778 0.7213282
-0.03692985 0.018464923 0.7213282
-0.03692985 0.017439127 0.7213282
-0.03692998 0.016413331 0.72132868
-0.03692998 0.015387505 0.72132874
-0.03692998 0.01436168 0.72132874
-0.03692998 0.013335824 0.72132862
-0.03692998 0.012309998 0.72132868
-0.03692998 0.011284202 0.72132868
-0.03692998 0.010258317 0.72132868
-0.03692985 0.0092325211 0.7213282
-0.03692985 0.0082066655 0.7213282
-0.03692985 0.0071808696 0.72132826
-0.03692985 0.006155014 0.72132814
-0.03692985 0.0051291883 0.7213282
-0.03692985 0.0041033626 0.7213282
-0.036930107 0.003077507 0.72132921
-0.036930107 0.0020516813 0.72132921
-0.036930107 0.0010258555 0.72132915
-0.036930107 -0 0.72132915
-0.036930107 -0.0010257959 0.72132921
-0.036930107 -0.0020516813 0.72132921
-0.036930107 -0.003077507 0.72132921
-0.036930107 -0.0041033328 0.72132921
-0.036930107 -0.0051291883 0.72132915
-0.036930107 -0.006155014 0.72132915
-0.036930107 -0.00718081 0.72132921
-0.036930107 -0.0082066953 0.72132921
-0.03692985 -0.0092324317 0.7213282
-0.03692985 -0.010258257 0.7213282
-0.03692985 -0.011284083 0.7213282
-0.03692985 -0.012309939 0.7213282
-0.03692998 -0.013335824 0.72132874
-0.03692998 -0.01436162 0.72132862
-0.03692998 -0.015387475 0.72132868
-0.03692998 -0.016413271 0.72132868
-0.03692998 -0.017439157 0.72132868
-0.03692998 -0.018464983 0.72132868
-0.036930107 -0.019490898 0.72132921
-0.036930107 -0.020516694 0.72132915
-0.03692998 -0.02154249 0.72132874
-0.03692985 -0.022568226 0.7213282
-0.036752496 -0.023480743 0.72064769
-0.036529288 -0.024352849 0.71979123
-0.036047045 -0.025032669 0.71794081
-0.034833927 0.02687189 0.71710491
-0.034955118 0.025966674 0.71758318
-0.035418276 0.025298774 0.71941113
-0.035647891 0.024444312 0.72031736
-0.035714064 0.023469269 0.72057849
-0.035714064 0.022448838 0.72057849
-0.035714064 0.021428466 0.72057849
-0.035714064 0.020408064 0.72057855
-0.035714064 0.019387633 0.72057855
-0.035714064 0.018367261 0.72057849
-0.035714187 0.017346919 0.72057903
-0.035714187 0.016326517 0.72057897
-0.035714187 0.015306085 0.72057897
-0.035714187 0.014285684 0.72057903
-0.035714187 0.013265282 0.72057897
-0.035714187 0.01224488 0.72057897
-0.035714187 0.011224449 0.72057903
-0.035714187 0.010204077 0.72057903
-0.035714064 0.0091836452 0.72057849
-0.035714064 0.0081632137 0.72057855
-0.035714064 0.0071428418 0.72057849
-0.035714064 0.0061224699 0.72057849
-0.035714064 0.0051020384 0.72057849
-0.035714064 0.0040816069 0.72057855
-0.035714064 0.0030612051 0.72057855
-0.035714306 0.0020408034 0.72057945
-0.035714306 0.0010204315 0.72057945
-0.035714306 -0 0.7205795
-0.035714306 -0.0010204017 0.7205795
-0.035714306 -0.0020407736 0.7205795
-0.035714306 -0.0030612051 0.7205795
-0.035714306 -0.0040816069 0.7205795
-0.035714306 -0.0051020086 0.72057945
-0.035714306 -0.0061224401 0.7205795
-0.035714306 -0.0071428418 0.7205795
-0.035714306 -0.0081632435 0.7205795
-0.035714064 -0.0091836154 0.72057849
-0.035714064 -0.010204017 0.72057843
-0.035714064 -0.011224389 0.72057843
-0.035714064 -0.012244791 0.72057855
-0.035714187 -0.013265222 0.72057903
-0.035714187 -0.014285654 0.72057897
-0.035714187 -0.015306056 0.72057897
-0.035714187 -0.016326457 0.72057897
-0.035714187 -0.017346919 0.72057903
-0.035714187 -0.01836729 0.72057903
-0.035714306 -0.019387752 0.7205795
-0.035714306 -0.020408183 0.72057945
-0.035714187 -0.021428466 0.72057891
-0.035714064 -0.022448838 0.72057855
-0.035647772 -0.023425639 0.72031683
-0.035418276 -0.024286807 0.71941108
-0.034954768 -0.0249677 0.71758181
-0.034833927 -0.025876611 0.71710491
-0.033646576 0.026719332 0.71632451
-0.033960048 0.025969476 0.71759802
-0.034299649 0.025220364 0.71897769
-0.034511186 0.024360865 0.71983719
-0.034511071 0.023345739 0.71983665
-0.034511071 0.022330731 0.71983671
-0.034511071 0.021315694 0.71983671
-0.034511071 0.020300657 0.71983665
-0.034511071 0.019285619 0.71983665
-0.034511186 0.018270642 0.71983713
-0.034511186 0.017255634 0.71983719
-0.034511186 0.016240567 0.71983719
-0.034511186 0.01522553 0.71983719
-0.034511186 0.014210492 0.71983719
-0.034511186 0.013195455 0.71983719
-0.034511186 0.012180418 0.71983719
-0.034511186 0.01116538 0.71983719
-0.034511186 0.010150403 0.71983713
-0.034511071 0.0091352761 0.71983671
-0.034511071 0.0081202388 0.71983671
-0.034511071 0.0071052313 0.71983671
-0.034511071 0.006090194 0.71983671
-0.034511071 0.0050751865 0.71983671
-0.034511071 0.0040601492 0.71983671
-0.034511071 0.0030451119 0.71983671
-0.034511309 0.0020300746 0.71983767
-0.034511309 0.0010150373 0.71983767
-0.034511309 5.9604645e-08 0.71983761
-0.034511309 -0.0010150075 0.71983767
-0.034511309 -0.0020300448 0.71983761
-0.034511309 -0.0030450821 0.71983761
-0.034511309 -0.0040601194 0.71983767
-0.034511309 -0.0050751567 0.71983767
-0.034511309 -0.006090194 0.71983767
-0.034511309 -0.0071052313 0.71983761
-0.034511309 -0.0081202686 0.71983761
-0.034511071 -0.0091352463 0.71983671
-0.034511071 -0.010150284 0.71983671
-0.034511071 -0.011165351 0.71983671
-0.034511071 -0.012180358 0.71983671
-0.034511186 -0.013195425 0.71983719
-0.034511186 -0.014210433 0.71983719
-0.034511186 -0.0152255 0.71983719
-0.034511186 -0.016240537 0.71983719
-0.034511186 -0.017255545 0.71983713
-0.034511309 -0.018270701 0.71983767
-0.034511309 -0.019285709 0.71983767
-0.034511309 -0.020300746 0.71983767
-0.034511071 -0.021315664 0.71983671
-0.034511071 -0.022330672 0.71983671
-0.034511071 -0.023345709 0.71983671
-0.034299649 -0.024211496 0.71897769
-0.033959251 -0.024970025 0.71759486
-0.033646464 -0.025729656 0.71632403
-0.032491986 0.026584357 0.71563387
-0.032947503 0.025958687 0.71754062
-0.033180758 0.025136948 0.71851695
-0.033320792 0.024233311 0.7191031
-0.033320677 0.023223519 0.71910262
-0.033320677 0.022213817 0.71910262
-0.033320677 0.021204054 0.71910268
-0.033320677 0.020194352 0.71910268
-0.033320792 0.019184709 0.7191031
-0.033320792 0.018174976 0.7191031
-0.033320792 0.017165273 0.71910316
-0.033320792 0.016155541 0.71910316
-0.033320792 0.015145838 0.7191031
-0.033320792 0.014136106 0.7191031
-0.033320792 0.013126403 0.7191031
-0.033320792 0.012116671 0.7191031
-0.033320792 0.011106938 0.7191031
-0.033320792 0.010097235 0.7191031
-0.033320677 0.0090874434 0.71910268
-0.033320677 0.0080777705 0.71910268
-0.033320677 0.007068038 0.71910268
-0.033320677 0.0060583055 0.71910262
-0.033320677 0.0050486028 0.71910262
-0.033320677 0.0040389001 0.71910262
-0.033320677 0.0030291677 0.71910262
-0.033320792 0.0020194352 0.7191031
-0.033320904 0.0010097325 0.71910357
-0.033320904 5.9604645e-08 0.71910357
-0.033320904 -0.0010096729 0.71910357
-0.033320904 -0.002019465 0.71910363
-0.033320904 -0.0030291677 0.71910357
-0.033320904 -0.0040388703 0.71910357
-0.033320904 -0.0050486326 0.71910357
-0.033320904 -0.0060583353 0.71910357
-0.033320904 -0.007068038 0.71910357
-0.033320904 -0.0080778003 0.71910357
-0.033320677 -0.0090874135 0.71910262
-0.033320677 -0.010097176 0.71910262
-0.033320677 -0.011106879 0.71910268
-0.033320677 -0.012116581 0.71910268
-0.033320792 -0.013126343 0.7191031
-0.033320792 -0.014136076 0.7191031
-0.033320792 -0.015145779 0.7191031
-0.033320792 -0.016155511 0.7191031
-0.033320792 -0.017165244 0.7191031
-0.033320792 -0.018174946 0.7191031
-0.033320792 -0.019184679 0.7191031
-0.033320792 -0.020194381 0.7191031
-0.033320677 -0.021204025 0.71910262
-0.033320677 -0.022213757 0.71910268
-0.033320677 -0.02322349 0.71910262
-0.033180423 -0.024131209 0.71851557
-0.032947391 -0.02496016 0.71754014
-0.032491874 -0.025599599 0.71563339
-0.031351887 0.026453197 0.71496266
-0.031824734 0.025857598 0.71700376
-0.032052718 0.025041193 0.7179879
-0.032142788 0.024107099 0.7183767
-0.03214268 0.023102582 0.71837616
-0.03214268 0.022098124 0.71837622
-0.03214268 0.021093667 0.71837628
-0.03214268 0.020089179 0.71837628
-0.032142788 0.019084811 0.71837676
-0.032142788 0.018080324 0.7183767
-0.032142788 0.017075896 0.71837664
-0.032142788 0.016071439 0.7183767
-0.032142788 0.015066952 0.71837676
-0.032142788 0.014062494 0.71837676
-0.032142788 0.013058037 0.71837664
-0.032142788 0.012053579 0.7183767
-0.032142788 0.011049122 0.7183767
-0.032142788 0.010044634 0.7183767
-0.03214268 0.0090401173 0.71837628
-0.03214268 0.0080357194 0.71837628
-0.03214268 0.0070312321 0.71837622
-0.03214268 0.0060267746 0.71837622
-0.03214268 0.0050223172 0.71837628
-0.03214268 0.0040178299 0.71837628
-0.03214268 0.0030134022 0.71837628
-0.032142788 0.0020089746 0.71837676
-0.032142788 0.0010044873 0.7183767
-0.032142788 2.9802322e-08 0.71837676
-0.032142788 -0.0010044277 0.7183767
-0.032142788 -0.0020089149 0.71837676
-0.032142788 -0.0030134022 0.71837676
-0.032142788 -0.0040178299 0.71837664
-0.032142788 -0.0050222874 0.7183767
-0.032142788 -0.0060267746 0.71837676
-0.032142788 -0.0070312023 0.7183767
-0.032142788 -0.0080356896 0.71837676
-0.03214268 -0.0090401173 0.71837622
-0.03214268 -0.010044545 0.71837622
-0.03214268 -0.011049002 0.71837622
-0.03214268 -0.01205349 0.71837628
-0.032142788 -0.013057977 0.7183767
-0.032142788 -0.014062464 0.71837676
-0.032142788 -0.015066922 0.7183767
-0.032142788 -0.016071379 0.7183767
-0.032142788 -0.017075837 0.7183767
-0.032142788 -0.018080294 0.71837676
-0.032142788 -0.019084752 0.7183767
-0.03214268 -0.020089179 0.71837622
-0.03214268 -0.021093607 0.71837622
-0.03214268 -0.022098094 0.71837628
-0.03214268 -0.023102552 0.71837628
-0.032052502 -0.024039358 0.717987
-0.031824518 -0.024862885 0.71700287
-0.031351682 -0.025473237 0.71496177
-0.030218434 0.026319325 0.71427774
-0.030690528 0.025740445 0.71638137
-0.030922553 0.02493757 0.71741521
-0.030976994 0.023982227 0.7176578
-0.030976892 0.022982866 0.71765739
-0.030976892 0.021983594 0.71765733
-0.030976892 0.020984381 0.71765733
-0.030976892 0.019985139 0.71765739
-0.030976892 0.018985838 0.71765733
-0.030976892 0.017986566 0.71765739
-0.030976892 0.016987383 0.71765739
-0.030976892 0.015988082 0.71765733
-0.030976892 0.01498884 0.71765739
-0.030976892 0.013989598 0.71765733
-0.030976994 0.012990385 0.7176578
-0.030976994 0.011991143 0.7176578
-0.030976994 0.010991871 0.71765786
-0.030976994 0.0099925697 0.71765786
-0.030976892 0.0089932978 0.71765733
-0.030976892 0.0079940557 0.71765739
-0.030976892 0.0069947839 0.71765745
-0.030976892 0.0059955716 0.71765733
-0.030976892 0.0049962997 0.71765739
-0.030976892 0.0039970279 0.71765745
-0.030976892 0.0029977858 0.71765739
-0.030976994 0.0019985139 0.71765786
-0.030976994 0.00099924207 0.71765786
-0.030976994 5.9604645e-08 0.7176578
-0.030976994 -0.00099924207 0.7176578
-0.030976994 -0.0019985139 0.71765786
-0.030976994 -0.002997756 0.71765786
-0.030976994 -0.0039970279 0.7176578
-0.030976994 -0.0049962699 0.71765786
-0.030976994 -0.0059955418 0.7176578
-0.030976994 -0.0069947839 0.71765786
-0.030976994 -0.0079940557 0.7176578
-0.030976892 -0.008993268 0.71765733
-0.030976892 -0.0099925399 0.71765739
-0.030976892 -0.010991782 0.71765739
-0.030976892 -0.011991054 0.71765739
-0.030976994 -0.012990326 0.7176578
-0.030976994 -0.013989568 0.71765786
-0.030976994 -0.014988869 0.7176578
-0.030976994 -0.015988141 0.71765786
-0.030977098 -0.016987413 0.71765828
-0.030976994 -0.017986625 0.7176578
-0.030976994 -0.018985897 0.71765786
-0.030976892 -0.01998505 0.71765739
-0.030976892 -0.020984322 0.71765739
-0.030976892 -0.021983624 0.71765739
-0.030976892 -0.022982836 0.71765733
-0.030922242 -0.023939818 0.71741384
-0.030689608 -0.024749696 0.71637732
-0.030218137 -0.025344253 0.71427643
-0.029087478 0.026178747 0.71355873
-0.029555975 0.025615185 0.71571589
-0.029784391 0.024820358 0.71676755
-0.029823219 0.023858607 0.71694642
-0.029823119 0.022864401 0.71694589
-0.029823119 0.021870345 0.71694589
-0.029823119 0.020876199 0.71694595
-0.029823119 0.019882083 0.71694595
-0.029823119 0.018887997 0.71694589
-0.029823119 0.017893881 0.71694589
-0.029823119 0.016899794 0.71694595
-0.029823119 0.015905678 0.71694589
-0.029823119 0.014911562 0.71694595
-0.029823119 0.013917476 0.71694589
-0.029823219 0.012923419 0.71694636
-0.029823219 0.011929303 0.71694636
-0.029823219 0.010935217 0.71694636
-0.029823219 0.0099411011 0.71694636
-0.029823119 0.0089469552 0.71694589
-0.029823119 0.0079528093 0.71694595
-0.029823119 0.0069587529 0.71694595
-0.029823119 0.0059646368 0.71694589
-0.029823119 0.0049705207 0.71694589
-0.029823119 0.0039764345 0.71694595
-0.029823119 0.0029823184 0.71694589
-0.029823219 0.0019882321 0.71694636
-0.029823219 0.00099414587 0.71694636
-0.029823219 -0 0.71694642
-0.029823219 -0.00099408627 0.71694636
-0.029823219 -0.0019881725 0.71694636
-0.029823219 -0.0029822886 0.7169463
-0.029823219 -0.0039764345 0.71694636
-0.029823219 -0.0049705207 0.71694636
-0.029823219 -0.0059646368 0.71694636
-0.029823219 -0.0069587231 0.71694636
-0.029823219 -0.0079528689 0.7169463
-0.029823119 -0.0089469552 0.71694595
-0.029823119 -0.0099410117 0.71694589
-0.029823119 -0.010935098 0.71694589
-0.029823119 -0.011929244 0.71694589
-0.029823219 -0.01292339 0.71694636
-0.029823219 -0.013917476 0.71694636
-0.029823219 -0.014911592 0.71694642
-0.029823219 -0.015905738 0.71694636
-0.029823318 -0.016899854 0.71694684
-0.029823219 -0.01789391 0.71694642
-0.029823119 -0.018887967 0.71694595
-0.029823119 -0.019882053 0.71694589
-0.029823119 -0.020876139 0.71694595
-0.029823119 -0.021870285 0.71694595
-0.029823119 -0.022864372 0.71694589
-0.029784093 -0.023827255 0.71676618
-0.029546188 -0.024621785 0.71567076
-0.029087383 -0.025209039 0.71355826
-0.031064892 0.029993683 0.72759587
-0.027965453 0.026036799 0.71283257
-0.028414333 0.025474936 0.71497071
-0.028640702 0.0246903 0.7160489
-0.028681276 0.023736268 0.71624219
-0.028681181 0.022747159 0.71624178
-0.028681181 0.021758169 0.71624178
-0.028681181 0.020769149 0.71624178
-0.028681181 0.019780129 0.71624172
-0.028681181 0.018791139 0.71624172
-0.028681181 0.017802119 0.71624178
-0.028681181 0.016813099 0.71624178
-0.028681181 0.015824139 0.71624172
-0.028681181 0.014835149 0.71624172
-0.028681181 0.013846099 0.71624172
-0.028681276 0.012857139 0.71624219
-0.028681276 0.011868119 0.71624225
-0.028681276 0.010879159 0.71624219
-0.028681276 0.0098901391 0.71624219
-0.028681181 0.0089010894 0.71624172
-0.028681181 0.0079120398 0.71624172
-0.028681181 0.0069230497 0.71624172
-0.028681181 0.0059340298 0.71624184
-0.028681181 0.0049450099 0.71624178
-0.028681181 0.0039560199 0.71624172
-0.028681181 0.0029670298 0.71624178
-0.028681276 0.0019780397 0.71624219
-0.028681276 0.00098899007 0.71624219
-0.028681276 -0 0.71624219
-0.028681276 -0.00098899007 0.71624219
-0.028681276 -0.0019780099 0.71624219
-0.028681276 -0.002967 0.71624219
-0.028681276 -0.0039560497 0.71624219
-0.028681276 -0.0049450397 0.71624225
-0.028681276 -0.0059340298 0.71624219
-0.028681276 -0.0069230497 0.71624225
-0.028681276 -0.0079120696 0.71624219
-0.028681181 -0.0089010596 0.71624178
-0.028681181 -0.0098900199 0.71624172
-0.028681181 -0.01087901 0.71624178
-0.028681181 -0.01186806 0.71624178
-0.028681276 -0.012857109 0.71624219
-0.028681276 -0.013846099 0.71624219
-0.028681276 -0.014835089 0.71624219
-0.028681371 -0.015824199 0.71624267
-0.028681371 -0.016813219 0.71624267
-0.028681276 -0.017802119 0.71624219
-0.028681181 -0.018791109 0.71624172
-0.028681181 -0.019780099 0.71624172
-0.028681181 -0.020769149 0.71624172
-0.028681181 -0.021758139 0.71624178
-0.028681181 -0.022747099 0.71624172
-0.028640321 -0.023702323 0.71604711
-0.02841218 -0.024493247 0.71496046
-0.027965544 -0.025072515 0.71283299
-0.031067468 -0.028924912 0.72760814
-0.029394846 0.029394865 0.72464156
-0.026860813 0.025901496 0.71214044
-0.027269669 0.025321871 0.71415734
-0.027495492 0.024549574 0.71527147
-0.027550895 0.023615062 0.71554476
-0.027550895 0.022631109 0.7155447
-0.027550895 0.021647155 0.71554476
-0.027550895 0.020663202 0.71554476
-0.027550895 0.019679189 0.71554476
-0.027550895 0.018695265 0.71554482
-0.027550895 0.017711282 0.71554476
-0.027550895 0.016727358 0.7155447
-0.027550895 0.015743405 0.71554476
-0.027550895 0.014759421 0.71554476
-0.027550895 0.013775438 0.71554482
-0.027550895 0.012791514 0.71554476
-0.027550895 0.011807531 0.71554476
-0.027550895 0.010823607 0.7155447
-0.027550895 0.009839654 0.71554476
-0.027550895 0.0088556409 0.71554476
-0.027550895 0.0078717172 0.71554482
-0.027550895 0.0068877339 0.71554476
-0.027550895 0.0059037507 0.71554476
-0.027550895 0.004919827 0.7155447
-0.027550895 0.0039358735 0.71554476
-0.027550895 0.00295192 0.71554482
-0.027550986 0.0019679666 0.71554524
-0.027550986 0.00098398328 0.71554518
-0.027550986 -0 0.71554518
-0.027550986 -0.00098395348 0.71554524
-0.027550986 -0.001967907 0.71554524
-0.027550986 -0.00295192 0.71554524
-0.027550986 -0.0039358139 0.71554524
-0.027550986 -0.0049197972 0.71554518
-0.027550986 -0.0059037507 0.71554518
-0.027550986 -0.0068877339 0.71554524
-0.027550986 -0.0078716874 0.71554524
-0.027550895 -0.0088556409 0.71554482
-0.027550895 -0.0098395944 0.71554476
-0.027550895 -0.010823578 0.71554476
-0.027550895 -0.011807501 0.7155447
-0.027550986 -0.012791514 0.71554524
-0.027550986 -0.013775498 0.71554524
-0.027550986 -0.014759451 0.71554524
-0.027550986 -0.015743434 0.71554518
-0.027550986 -0.016727358 0.71554524
-0.027550895 -0.017711282 0.71554482
-0.027550895 -0.018695205 0.71554476
-0.027550895 -0.019679189 0.71554476
-0.027550895 -0.020663172 0.71554482
-0.027550895 -0.021647125 0.71554476
-0.027550895 -0.022631079 0.71554476
-0.027495131 -0.023567259 0.71526968
-0.027269401 -0.024347663 0.71415609
-0.026860813 -0.02494216 0.71214038
-0.029395156 -0.028345317 0.72464305
-0.029303197 0.031473815 0.72954357
-0.02803155 0.029069752 0.72303784
-0.025781907 0.025781929 0.71152854
-0.025971536 0.025009632 0.71249866
-0.026337411 0.024386495 0.71437055
-0.026432084 0.023495197 0.71485484
-0.026432084 0.022516221 0.71485484
-0.026432084 0.021537244 0.71485484
-0.026432084 0.020558327 0.71485484
-0.026432084 0.019579351 0.7148549
-0.026432084 0.018600345 0.71485484
-0.026432084 0.017621428 0.71485484
-0.026432084 0.016642481 0.71485484
-0.026432084 0.015663475 0.71485484
-0.026432084 0.014684498 0.7148549
-0.026432084 0.013705522 0.7148549
-0.026432084 0.012726575 0.71485484
-0.026432084 0.011747628 0.71485484
-0.026432084 0.010768622 0.71485484
-0.026432084 0.0097896755 0.7148549
-0.026432084 0.008810699 0.7148549
-0.026432084 0.0078317523 0.71485484
-0.026432084 0.0068528056 0.71485484
-0.026432084 0.0058738291 0.71485484
-0.026432084 0.0048948228 0.7148549
-0.026432084 0.0039158762 0.71485484
-0.026432084 0.0029369295 0.7148549
-0.02643217 0.0019579828 0.71485531
-0.02643217 0.00097897649 0.71485531
-0.02643217 -0 0.71485531
-0.02643217 -0.00097894669 0.71485531
-0.02643217 -0.0019578934 0.71485531
-0.02643217 -0.0029368699 0.71485531
-0.02643217 -0.0039158463 0.71485531
-0.02643217 -0.0048948526 0.71485531
-0.02643217 -0.0058737993 0.71485531
-0.02643217 -0.006852746 0.71485531
-0.02643217 -0.0078317225 0.71485531
-0.026432084 -0.008810699 0.71485484
-0.026432084 -0.0097896159 0.71485484
-0.026432084 -0.010768622 0.71485484
-0.026432084 -0.011747569 0.7148549
-0.02643217 -0.012726575 0.71485531
-0.02643217 -0.013705552 0.71485531
-0.02643217 -0.014684498 0.71485531
-0.02643217 -0.015663505 0.71485531
-0.02643217 -0.016642451 0.71485531
-0.026432084 -0.017621368 0.71485484
-0.026432084 -0.018600345 0.71485484
-0.026432084 -0.019579291 0.7148549
-0.026432084 -0.020558268 0.71485484
-0.026432084 -0.021537274 0.7148549
-0.026432084 -0.022516191 0.71485484
-0.026337063 -0.023410708 0.7143687
-0.025968259 -0.024044663 0.71248186
-0.025781907 -0.024827003 0.7115286
-0.02803155 -0.028031498 0.72303778
-0.029305551 -0.030390888 0.72955561
-0.027622545 0.03080979 0.72638059
-0.026790677 0.028851509 0.72196102
-0.024753267 0.025705338 0.7111367
-0.024711655 0.024711698 0.71091563
-0.025183285 0.024214745 0.71342123
-0.02532457 0.023376554 0.71417189
-0.02532457 0.022402525 0.71417189
-0.02532457 0.021428496 0.71417189
-0.02532457 0.020454466 0.71417189
-0.02532457 0.019480467 0.71417189
-0.02532457 0.018506438 0.71417195
-0.02532457 0.017532408 0.71417195
-0.02532457 0.016558379 0.71417195
-0.02532457 0.015584379 0.71417195
-0.02532457 0.01461035 0.71417189
-0.02532457 0.013636321 0.71417195
-0.02532457 0.012662292 0.71417189
-0.02532457 0.011688262 0.71417189
-0.02532457 0.010714263 0.71417189
-0.02532457 0.0097402334 0.71417189
-0.02532457 0.0087662339 0.71417189
-0.02532457 0.0077921748 0.71417195
-0.02532457 0.0068181753 0.71417195
-0.02532457 0.0058441758 0.71417195
-0.02532457 0.0048701465 0.71417195
-0.02532457 0.0038961172 0.71417195
-0.02532457 0.0029220879 0.71417195
-0.025324654 0.0019480586 0.71417236
-0.025324654 0.0009740293 0.71417236
-0.025324654 2.9802322e-08 0.71417236
-0.025324654 -0.0009740293 0.71417236
-0.025324654 -0.0019480586 0.71417236
-0.025324654 -0.0029220581 0.71417236
-0.025324654 -0.0038960874 0.71417236
-0.025324654 -0.0048701167 0.71417236
-0.025324654 -0.0058441162 0.71417236
-0.025324654 -0.0068181455 0.71417242
-0.025324654 -0.0077921748 0.71417236
-0.025324654 -0.0087661743 0.71417236
-0.02532457 -0.0097402036 0.71417189
-0.02532457 -0.010714233 0.71417189
-0.02532457 -0.011688262 0.71417189
-0.025324654 -0.012662321 0.71417236
-0.025324654 -0.013636321 0.71417236
-0.025324654 -0.01461035 0.71417236
-0.025324654 -0.01558435 0.71417236
-0.02532457 -0.016558349 0.71417195
-0.02532457 -0.017532378 0.71417195
-0.02532457 -0.018506408 0.71417195
-0.02532457 -0.019480377 0.71417195
-0.02532457 -0.020454437 0.71417189
-0.02532457 -0.021428466 0.71417189
-0.02532457 -0.022402495 0.71417189
-0.025182957 -0.023245811 0.71341956
-0.024711497 -0.023761004 0.71091473
-0.024753584 -0.024753571 0.71113837
-0.026787892 -0.027818173 0.72194624
-0.027622448 -0.029747218 0.72638011
-0.026281301 0.030486345 0.72483993
-0.025614453 0.028688222 0.72115541
-0.025078095 0.027084351 0.71819186
-0.023621248 0.024566114 0.71014231
-0.024020527 0.024020523 0.71234846
-0.024228189 0.023259073 0.71349585
-0.024228189 0.022289962 0.71349585
-0.024228189 0.02132085 0.71349585
-0.024228189 0.020351708 0.71349585
-0.024228189 0.019382566 0.71349585
-0.024228189 0.018413454 0.71349585
-0.024228189 0.017444342 0.71349585
-0.024228189 0.016475201 0.71349585
-0.024228189 0.015506089 0.71349585
-0.024228189 0.014536947 0.71349585
-0.024228189 0.013567835 0.71349585
-0.024228189 0.012598693 0.71349585
-0.024228189 0.011629552 0.71349585
-0.024228189 0.01066044 0.71349585
-0.024228189 0.009691298 0.71349585
-0.024228189 0.0087221861 0.71349585
-0.024228189 0.0077530742 0.71349585
-0.024228189 0.0067839324 0.71349585
-0.024228189 0.0058147907 0.71349585
-0.024228189 0.004845649 0.71349585
-0.024228189 0.0038765371 0.71349585
-0.024228189 0.0029073954 0.71349579
-0.024228269 0.0019382536 0.71349633
-0.024228269 0.00096911192 0.71349633
-0.024228269 -0 0.71349627
-0.024228269 -0.00096914172 0.71349633
-0.024228269 -0.0019382834 0.71349633
-0.024228269 -0.0029073954 0.71349627
-0.024228269 -0.0038765073 0.71349633
-0.024228269 -0.004845649 0.71349627
-0.024228269 -0.0058147907 0.71349633
-0.024228269 -0.0067839026 0.71349633
-0.024228269 -0.0077530444 0.71349627
-0.024228269 -0.0087221861 0.71349633
-0.024228189 -0.0096912384 0.71349585
-0.024228189 -0.01066035 0.71349585
-0.024228189 -0.011629492 0.71349585
-0.024228269 -0.012598693 0.71349627
-0.024228269 -0.013567805 0.71349627
-0.024228269 -0.014536947 0.71349633
-0.024228269 -0.015506089 0.71349627
-0.024228189 -0.016475141 0.71349585
-0.024228189 -0.017444283 0.71349585
-0.024228189 -0.018413454 0.71349585
-0.024228189 -0.019382507 0.71349585
-0.024228189 -0.020351648 0.71349585
-0.024228189 -0.02132079 0.71349585
-0.024228189 -0.022289932 0.71349591
-0.024019208 -0.023058414 0.71234119
-0.023621323 -0.023621291 0.71014273
-0.025066176 -0.026068807 0.71812606
-0.025611719 -0.027660608 0.72114027
-0.026281301 -0.029435039 0.72483993
-0.026010077 0.032512605 0.72932941
-0.025045548 0.030263394 0.72377807
-0.024483847 0.028564513 0.72054511
-0.024054041 0.027060807 0.7180714
-0.022593848 0.024476677 0.70966721
-0.022596639 0.023538172 0.7096833
-0.023065666 0.023065686 0.71238279
-0.023142848 0.02217856 0.71282697
-0.023142774 0.021214187 0.71282655
-0.023142774 0.020249963 0.71282655
-0.023142774 0.019285679 0.71282655
-0.023142774 0.018321365 0.71282655
-0.023142774 0.017357111 0.71282655
-0.023142774 0.016392797 0.71282655
-0.023142774 0.015428543 0.71282655
-0.023142774 0.014464289 0.71282655
-0.023142774 0.013499945 0.71282655
-0.023142774 0.012535691 0.71282655
-0.023142774 0.011571407 0.71282655
-0.023142774 0.010607123 0.71282655
-0.023142774 0.0096428394 0.71282655
-0.023142774 0.0086785555 0.71282655
-0.023142774 0.0077142715 0.71282649
-0.023142774 0.0067500174 0.71282655
-0.023142774 0.0057856739 0.71282655
-0.023142774 0.0048214495 0.71282655
-0.023142774 0.0038571656 0.71282655
-0.023142774 0.0028928518 0.71282649
-0.023142848 0.0019285679 0.71282697
-0.023142848 0.00096428394 0.71282697
-0.023142848 2.9802322e-08 0.71282697
-0.023142848 -0.00096425414 0.71282703
-0.023142848 -0.0019285679 0.71282703
-0.023142848 -0.002892822 0.71282697
-0.023142848 -0.0038571358 0.71282697
-0.023142848 -0.0048214197 0.71282697
-0.023142848 -0.0057856739 0.71282697
-0.023142848 -0.0067499578 0.71282697
-0.023142848 -0.0077142715 0.71282697
-0.023142848 -0.0086785555 0.71282697
-0.023142774 -0.0096428096 0.71282655
-0.023142774 -0.010607094 0.71282649
-0.023142774 -0.011571348 0.71282649
-0.023142848 -0.012535691 0.71282697
-0.023142923 -0.013500005 0.71282738
-0.023142848 -0.014464259 0.71282697
-0.023142774 -0.015428483 0.71282649
-0.023142774 -0.016392797 0.71282661
-0.023142774 -0.017357081 0.71282649
-0.023142774 -0.018321335 0.71282649
-0.023142774 -0.019285589 0.71282655
-0.023142774 -0.020249933 0.71282661
-0.023142774 -0.021214187 0.71282649
-0.023065368 -0.022104293 0.71238101
-0.022596495 -0.022596508 0.70968246
-0.022594135 -0.02353555 0.70966887
-0.024040835 -0.02604422 0.71799535
-0.024480907 -0.027541012 0.72052819
-0.0250459 -0.029220194 0.72378004
-0.026009226 -0.031427801 0.72932446
-0.024597451 0.032083631 0.72735429
-0.023873311 0.03010115 0.72300524
-0.023385793 0.028469652 0.72007734
-0.023009064 0.027010649 0.71781474
-0.021792684 0.024635226 0.71050948
-0.021516288 0.023387283 0.70884949
-0.021893546 0.022845477 0.71111524
-0.022068154 0.022068202 0.71216387
-0.022068154 0.021108687 0.71216387
-0.022068154 0.020149201 0.71216387
-0.022068154 0.019189715 0.71216387
-0.022068154 0.018230259 0.71216387
-0.022068154 0.017270744 0.71216387
-0.022068154 0.016311288 0.71216387
-0.022068154 0.015351772 0.71216387
-0.022068154 0.014392287 0.71216387
-0.022068154 0.013432801 0.71216387
-0.022068154 0.012473315 0.71216387
-0.022068154 0.011513829 0.71216393
-0.022068154 0.010554343 0.71216393
-0.022068083 0.0095948279 0.71216351
-0.022068083 0.0086353719 0.71216351
-0.022068083 0.0076758564 0.71216351
-0.022068083 0.0067164004 0.71216351
-0.022068083 0.0057568848 0.71216351
-0.022068083 0.0047974586 0.71216345
-0.022068083 0.0038379431 0.71216345
-0.022068083 0.0028784871 0.71216345
-0.022068154 0.0019190013 0.71216387
-0.022068154 0.00095951557 0.71216387
-0.022068154 2.9802322e-08 0.71216387
-0.022068154 -0.00095945597 0.71216387
-0.022068154 -0.0019189417 0.71216393
-0.022068154 -0.0028784275 0.71216393
-0.022068154 -0.0038379133 0.71216393
-0.022068227 -0.004797399 0.71216434
-0.022068227 -0.0057569146 0.71216434
-0.022068227 -0.0067164004 0.71216428
-0.022068227 -0.0076758862 0.71216434
-0.022068227 -0.0086353421 0.71216428
-0.022068154 -0.0095948577 0.71216393
-0.022068154 -0.010554343 0.71216393
-0.022068154 -0.011513829 0.71216393
-0.022068227 -0.012473315 0.71216428
-0.022068297 -0.013432831 0.7121647
-0.022068154 -0.014392227 0.71216387
-0.022068154 -0.015351743 0.71216381
-0.022068154 -0.016311228 0.71216393
-0.022068154 -0.017270714 0.71216393
-0.022068154 -0.0182302 0.71216393
-0.022068154 -0.019189686 0.71216393
-0.022068154 -0.020149142 0.71216393
-0.022068154 -0.021108657 0.71216393
-0.021893406 -0.021893412 0.71111441
-0.021516355 -0.022451848 0.70884991
-0.021793865 -0.023688942 0.71051657
-0.023004496 -0.02600503 0.71778738
-0.023384353 -0.027451187 0.72006869
-0.023873979 -0.02906397 0.72300929
-0.024597274 -0.031013966 0.72735322
-0.023342155 0.031830221 0.72618747
-0.022743739 0.029980391 0.72243011
-0.022314852 0.028400749 0.71973723
-0.02197629 0.026970923 0.71761143
-0.021453919 0.025354624 0.71433169
-0.020531455 0.023331225 0.70853966
-0.020482989 0.022345096 0.70823538
-0.02091394 0.021864563 0.71094126
-0.021004176 0.0210042 0.71150786
-0.021004176 0.020049483 0.7115078
-0.021004176 0.019094706 0.7115078
-0.021004176 0.018139988 0.7115078
-0.021004176 0.017185241 0.7115078
-0.021004176 0.016230524 0.7115078
-0.021004176 0.015275776 0.7115078
-0.021004176 0.014321059 0.7115078
-0.021004176 0.013366312 0.7115078
-0.021004176 0.012411565 0.7115078
-0.021004176 0.011456847 0.7115078
-0.021004176 0.0105021 0.7115078
-0.021004109 0.0095473528 0.71150732
-0.021004109 0.0085926056 0.71150738
-0.021004109 0.0076378882 0.71150732
-0.021004109 0.006683141 0.71150732
-0.021004109 0.0057284236 0.71150738
-0.021004109 0.0047736764 0.71150738
-0.021004109 0.003818959 0.71150732
-0.021004109 0.0028642118 0.71150744
-0.021004176 0.0019094646 0.7115078
-0.021004176 0.0009547472 0.7115078
-0.021004176 2.9802322e-08 0.7115078
-0.021004176 -0.0009547472 0.7115078
-0.021004176 -0.0019094646 0.7115078
-0.021004176 -0.0028642118 0.7115078
-0.021004176 -0.0038189292 0.7115078
-0.021004243 -0.0047736764 0.71150827
-0.021004243 -0.0057284236 0.71150821
-0.021004243 -0.0066831112 0.71150821
-0.021004243 -0.0076378882 0.71150821
-0.021004243 -0.0085926056 0.71150821
-0.021004176 -0.009547323 0.7115078
-0.021004176 -0.01050204 0.71150774
-0.021004176 -0.011456788 0.7115078
-0.021004243 -0.012411594 0.71150821
-0.021004243 -0.013366312 0.71150821
-0.021004176 -0.014320999 0.7115078
-0.021004176 -0.015275776 0.7115078
-0.021004176 -0.016230524 0.7115078
-0.021004176 -0.017185241 0.71150786
-0.021004176 -0.018139958 0.7115078
-0.021004176 -0.019094706 0.7115078
-0.021004176 -0.020049423 0.7115078
-0.020913739 -0.02091369 0.71093988
-0.020482926 -0.021413952 0.70823497
-0.020531649 -0.022398144 0.70854086
-0.021459267 -0.024385512 0.71436518
-0.021974223 -0.025969535 0.71759856
-0.022314394 -0.027385801 0.71973437
-0.022744291 -0.028947264 0.72243357
-0.02334257 -0.030769706 0.72619003
-0.022159794 0.031656891 0.72538912
-0.021643572 0.029888749 0.72199357
-0.021261817 0.028349102 0.71948248
-0.020957094 0.026944846 0.71747816
-0.020665564 0.02558592 0.71556056
-0.019857999 0.023640484 0.71024859
-0.019471116 0.022252709 0.70770371
-0.019474091 0.021328747 0.70772332
-0.019928906 0.020877928 0.71071494
-0.019950615 0.019950628 0.71085775
-0.019950679 0.019000649 0.71085817
-0.019950679 0.018050611 0.71085823
-0.019950679 0.017100602 0.71085817
-0.019950679 0.016150564 0.71085823
-0.019950679 0.015200526 0.71085811
-0.019950679 0.014250517 0.71085823
-0.019950679 0.013300449 0.71085817
-0.019950679 0.01235047 0.71085823
-0.019950679 0.011400372 0.71085817
-0.019950679 0.010450363 0.71085817
-0.019950615 0.0095002949 0.71085775
-0.019950615 0.0085502565 0.71085781
-0.019950615 0.0076002479 0.71085775
-0.019950615 0.0066502094 0.71085775
-0.019950615 0.0057002008 0.71085775
-0.019950615 0.0047501624 0.71085775
-0.019950615 0.0038001537 0.71085775
-0.019950615 0.0028501153 0.71085775
-0.019950679 0.0019000769 0.71085811
-0.019950679 0.00095003843 0.71085817
-0.019950679 -0 0.71085817
-0.019950679 -0.00095000863 0.71085817
-0.019950679 -0.0019000769 0.71085817
-0.019950679 -0.0028500557 0.71085817
-0.019950679 -0.0038000941 0.71085817
-0.019950679 -0.0047501624 0.71085823
-0.019950744 -0.0057002008 0.71085858
-0.019950744 -0.0066502392 0.71085858
-0.019950744 -0.0076002479 0.71085858
-0.019950744 -0.0085503161 0.71085858
-0.019950679 -0.0095002949 0.71085817
-0.019950679 -0.010450333 0.71085817
-0.019950679 -0.011400342 0.71085817
-0.019950744 -0.01235044 0.71085858
-0.019950679 -0.013300478 0.71085823
-0.019950679 -0.014250487 0.71085817
-0.019950679 -0.015200526 0.71085823
-0.019950679 -0.016150504 0.71085817
-0.019950679 -0.017100543 0.71085823
-0.019950744 -0.018050641 0.71085858
-0.019950679 -0.01900062 0.71085817
-0.019928653 -0.019928634 0.71071327
-0.019473908 -0.02040121 0.70772207
-0.019471237 -0.021325618 0.70770454
-0.019849984 -0.022685677 0.71019584
-0.020664539 -0.024600595 0.71555376
-0.020956604 -0.02594623 0.71747488
-0.021262106 -0.027336955 0.71948445
-0.021644173 -0.0288589 0.72199756
-0.022160346 -0.030602366 0.72539282
-0.021020804 0.031531245 0.72481072
-0.020568874 0.029824883 0.72168934
-0.020226693 0.028317392 0.71932602
-0.019946888 0.026928335 0.71739352
-0.019702679 0.025613487 0.71570688
-0.01929578 0.024119735 0.71289659
-0.018653953 0.022384763 0.70846367
-0.018444039 0.02121067 0.70701385
-0.018474743 0.020322233 0.70722598
-0.01890745 0.019852847 0.7102145
-0.01890745 0.018907487 0.7102145
-0.01890751 0.017962128 0.71021491
-0.01890751 0.017016768 0.71021491
-0.01890751 0.016071379 0.71021491
-0.01890751 0.01512602 0.71021491
-0.01890751 0.01418063 0.71021497
-0.01890751 0.013235271 0.71021485
-0.01890751 0.012289882 0.71021491
-0.01890751 0.011344522 0.71021491
-0.01890751 0.010399133 0.71021491
-0.01890745 0.0094537437 0.7102145
-0.01890745 0.0085083544 0.7102145
-0.01890745 0.0075629652 0.7102145
-0.01890745 0.0066176355 0.7102145
-0.01890745 0.005672276 0.7102145
-0.01890745 0.0047268867 0.7102145
-0.01890745 0.0037815273 0.7102145
-0.01890745 0.002836138 0.7102145
-0.01890751 0.0018907785 0.71021485
-0.01890751 0.00094538927 0.71021497
-0.01890751 2.9802322e-08 0.71021491
-0.01890751 -0.00094535947 0.71021491
-0.01890751 -0.0018907189 0.71021491
-0.01890751 -0.0028361082 0.71021491
-0.01890751 -0.0037814677 0.71021491
-0.01890751 -0.0047268569 0.71021497
-0.018907571 -0.0056722462 0.71021533
-0.018907571 -0.0066176355 0.71021533
-0.018907571 -0.007562995 0.71021533
-0.018907571 -0.0085083842 0.71021533
-0.01890751 -0.0094537437 0.71021491
-0.01890751 -0.010399133 0.71021497
-0.01890751 -0.011344492 0.71021485
-0.018907571 -0.012289912 0.71021533
-0.01890751 -0.013235211 0.71021491
-0.01890751 -0.01418063 0.71021491
-0.01890751 -0.01512599 0.71021491
-0.01890751 -0.016071379 0.71021497
-0.01890751 -0.017016739 0.71021485
-0.01890751 -0.017962128 0.71021497
-0.01890751 -0.018907487 0.71021491
-0.0184744 -0.019398123 0.70722359
-0.018443979 -0.020288378 0.70701343
-0.018659573 -0.021458477 0.70850247
-0.019302292 -0.023162752 0.71294153
-0.019704899 -0.024631083 0.71572214
-0.019947423 -0.025931656 0.71739721
-0.020226901 -0.027306288 0.71932751
-0.0205693 -0.02879703 0.72169232
-0.021021474 -0.03048113 0.72481531
-0.01991171 0.031439543 0.7243886
-0.019515865 0.029787362 0.72151077
-0.019205432 0.028302759 0.7192539
-0.018944969 0.026921809 0.71736026
-0.018723313 0.025621384 0.71574879
-0.018497633 0.02433902 0.71410805
-0.018082906 0.022841573 0.71109289
-0.017581096 0.021282405 0.70744467
-0.017434955 0.020187885 0.70638222
-0.017457146 0.019294769 0.70654356
-0.017874518 0.018815279 0.70957792
-0.017874518 0.017874509 0.70957792
-0.017874518 0.016933739 0.70957792
-0.017874518 0.015992999 0.70957798
-0.017874518 0.015052229 0.70957792
-0.017874518 0.014111459 0.70957792
-0.017874518 0.013170719 0.70957792
-0.017874518 0.012229919 0.70957792
-0.017874518 0.011289179 0.70957792
-0.017874518 0.010348439 0.70957792
-0.017874463 0.0094076097 0.70957756
-0.017874463 0.0084668696 0.7095775
-0.017874463 0.0075260997 0.7095775
-0.017874463 0.0065853298 0.70957756
-0.017874463 0.0056445599 0.70957756
-0.017874463 0.0047037899 0.7095775
-0.017874463 0.0037630498 0.70957756
-0.017874463 0.0028223097 0.7095775
-0.017874518 0.0018815398 0.70957798
-0.017874518 0.00094076991 0.70957792
-0.017874518 2.9802322e-08 0.70957792
-0.017874518 -0.00094074011 0.70957792
-0.017874518 -0.0018814802 0.70957792
-0.017874518 -0.0028222799 0.70957792
-0.017874518 -0.0037630498 0.70957792
-0.017874518 -0.0047038198 0.70957792
-0.017874518 -0.0056445599 0.70957792
-0.017874576 -0.0065853298 0.70957828
-0.017874576 -0.0075261295 0.70957834
-0.017874576 -0.0084668994 0.70957834
-0.017874518 -0.0094076097 0.70957792
-0.017874518 -0.01034838 0.70957786
-0.017874632 -0.011289209 0.70957875
-0.017874518 -0.01222989 0.70957792
-0.017874518 -0.013170689 0.70957792
-0.017874518 -0.014111429 0.70957792
-0.017874576 -0.015052259 0.70957834
-0.017874518 -0.015992999 0.70957792
-0.017874518 -0.016933709 0.70957792
-0.017874518 -0.017874479 0.70957792
-0.017456824 -0.018375576 0.70654124
-0.017434955 -0.019270211 0.70638222
-0.017581534 -0.020357519 0.70744789
-0.018085221 -0.021892607 0.71110976
-0.018505024 -0.023374766 0.71416175
-0.018725669 -0.02463901 0.71576589
-0.018945288 -0.02592513 0.71736252
-0.019205628 -0.027292192 0.71925527
-0.019516202 -0.028760731 0.72151321
-0.01991255 -0.030392826 0.72439474
-0.018834986 0.03139168 0.72416806
-0.018474165 0.029763937 0.72139907
-0.018190973 0.028297067 0.71922588
-0.017950214 0.026925355 0.71737826
-0.017748106 0.025636166 0.71582735
-0.017566225 0.024397582 0.71443152
-0.017320631 0.023094177 0.71254683
-0.016987707 0.021706551 0.70999193
-0.016573526 0.020256549 0.70681345
-0.016442442 0.019182861 0.70580757
-0.016439969 0.018266618 0.70578861
-0.016851502 0.017787725 0.7089467
-0.016851556 0.016851574 0.70894706
-0.016851556 0.015915364 0.70894712
-0.016851556 0.014979154 0.70894712
-0.016851556 0.014042974 0.70894718
-0.016851556 0.013106793 0.70894706
-0.016851556 0.012170583 0.70894712
-0.016851556 0.011234403 0.70894712
-0.016851556 0.010298193 0.70894718
-0.016851502 0.0093619525 0.7089467
-0.016851502 0.0084257722 0.7089467
-0.016851502 0.007489562 0.7089467
-0.016851502 0.0065533519 0.7089467
-0.016851502 0.0056172013 0.7089467
-0.016851502 0.0046809912 0.7089467
-0.016851502 0.003744781 0.70894676
-0.016851502 0.0028085709 0.7089467
-0.016851556 0.0018723905 0.70894712
-0.016851556 0.00093621016 0.70894706
-0.016851556 -0 0.70894712
-0.016851556 -0.00093621016 0.70894712
-0.016851556 -0.0018723905 0.70894712
-0.016851556 -0.0028086007 0.70894718
-0.016851556 -0.003744781 0.70894712
-0.016851556 -0.0046809912 0.70894712
-0.016851556 -0.0056171715 0.70894706
-0.01685161 -0.0065534115 0.70894754
-0.01685161 -0.0074895918 0.70894754
-0.01685161 -0.008425802 0.70894754
-0.016851556 -0.0093619823 0.70894712
-0.016851556 -0.010298163 0.70894712
-0.016851662 -0.011234432 0.70894796
-0.016851556 -0.012170523 0.70894712
-0.016851556 -0.013106734 0.70894718
-0.01685161 -0.014042974 0.70894754
-0.01685161 -0.014979184 0.70894754
-0.016851556 -0.015915334 0.70894706
-0.016851556 -0.016851544 0.70894712
-0.016439868 -0.017353177 0.70578778
-0.016442545 -0.018269479 0.70580828
-0.016573835 -0.019336104 0.70681584
-0.016988622 -0.020763844 0.70999897
-0.017327808 -0.022141039 0.7126019
-0.017569106 -0.02342543 0.71445358
-0.017749872 -0.0246526 0.71584088
-0.017950395 -0.025928319 0.71737969
-0.018191034 -0.02728653 0.7192263
-0.018474421 -0.028737992 0.7214011
-0.018835584 -0.030346215 0.72417259
-0.017771028 0.031360656 0.72402525
-0.017445836 0.02976054 0.72138298
-0.017182114 0.028299958 0.71924007
-0.016963217 0.026941597 0.71746147
-0.016774336 0.025654882 0.71592671
-0.016608035 0.024423629 0.71457541
-0.016454525 0.023229957 0.71332812
-0.016210256 0.021931499 0.71134335
-0.015949501 0.020640582 0.70922452
-0.015607594 0.019279957 0.70644641
-0.015467544 0.018197149 0.70530844
-0.015442221 0.017259002 0.70510262
-0.015812518 0.016742676 0.70811152
-0.015838476 0.015838504 0.70832241
-0.015838476 0.014906794 0.70832241
-0.015838476 0.013975143 0.70832247
-0.015838476 0.013043493 0.70832241
-0.015838476 0.012111813 0.70832241
-0.015838476 0.011180133 0.70832241
-0.015838476 0.010248452 0.70832241
-0.015838426 0.0093167424 0.70832199
-0.015838426 0.0083850324 0.70832205
-0.015838426 0.0074534118 0.70832205
-0.015838426 0.0065217316 0.70832199
-0.015838426 0.0055900514 0.70832205
-0.015838426 0.004658401 0.70832199
-0.015838426 0.003726691 0.70832199
-0.015838426 0.0027950406 0.70832205
-0.015838476 0.0018633902 0.70832241
-0.015838476 0.0009316802 0.70832247
-0.015838476 2.9802322e-08 0.70832241
-0.015838476 -0.0009316504 0.70832241
-0.015838476 -0.0018633604 0.70832247
-0.015838476 -0.002794981 0.70832241
-0.015838476 -0.003726691 0.70832241
-0.015838476 -0.0046583414 0.70832247
-0.015838476 -0.0055900216 0.70832241
-0.015838476 -0.0065217018 0.70832241
-0.015838524 -0.007453382 0.70832288
-0.015838524 -0.0083850622 0.70832282
-0.015838476 -0.0093167424 0.70832241
-0.015838476 -0.010248423 0.70832241
-0.015838476 -0.011180103 0.70832241
-0.015838476 -0.012111783 0.70832241
-0.015838476 -0.013043463 0.70832247
-0.015838476 -0.013975084 0.70832241
-0.015838476 -0.014906764 0.70832241
-0.015812369 -0.015812367 0.70811033
-0.015442128 -0.016350448 0.70510191
-0.015467639 -0.017287344 0.70530921
-0.015607931 -0.018362284 0.70644915
-0.0159494 -0.019702196 0.70922375
-0.016211765 -0.020979911 0.71135551
-0.016457794 -0.022266418 0.71335471
-0.016610656 -0.023450315 0.71459675
-0.016775226 -0.024669439 0.71593392
-0.016963445 -0.025944084 0.71746331
-0.017182231 -0.02728942 0.71924108
-0.017445955 -0.028734505 0.72138393
-0.017771466 -0.030315995 0.72402883
-0.016718209 0.031346649 0.72396088
-0.016421311 0.029763639 0.72139764
-0.01618042 0.028315753 0.71931791
-0.015981147 0.026968181 0.7175976
-0.01580376 0.025681138 0.71606612
-0.015651761 0.024455905 0.71475387
-0.015513727 0.023270637 0.71356219
-0.015375571 0.022102386 0.71236944
-0.015162495 0.020848453 0.71052992
-0.014947915 0.019619137 0.70867741
-0.014679349 0.0183492 0.70635879
-0.014516077 0.017237872 0.7049492
-0.014467835 0.01627633 0.70453274
-0.014476462 0.015381247 0.70460719
-0.014835136 0.014835149 0.70770371
-0.014835136 0.013907969 0.70770371
-0.014835136 0.012980759 0.70770377
-0.014835136 0.012053579 0.70770371
-0.014835136 0.011126339 0.70770371
-0.014835136 0.010199189 0.70770371
-0.014835089 0.0092719495 0.70770335
-0.014835089 0.0083447695 0.70770335
-0.014835089 0.0074175894 0.70770335
-0.014835089 0.0064903796 0.70770335
-0.014835089 0.0055631995 0.70770329
-0.014835089 0.0046359897 0.70770335
-0.014835089 0.0037088096 0.70770329
-0.014835089 0.00278157 0.70770335
-0.014835136 0.0018544197 0.70770371
-0.014835136 0.00092720985 0.70770365
-0.014835136 -0 0.70770371
-0.014835136 -0.00092718005 0.70770377
-0.014835136 -0.0018543601 0.70770371
-0.014835136 -0.00278157 0.70770371
-0.014835136 -0.00370875 0.70770371
-0.014835136 -0.0046359599 0.70770371
-0.014835136 -0.0055631697 0.70770377
-0.014835136 -0.0064903796 0.70770371
-0.014835183 -0.0074175894 0.70770413
-0.014835183 -0.0083447695 0.70770407
-0.014835136 -0.0092719197 0.70770371
-0.014835183 -0.010199159 0.70770413
-0.014835136 -0.011126339 0.70770371
-0.014835183 -0.012053579 0.70770413
-0.014835136 -0.012980759 0.70770371
-0.014835089 -0.01390788 0.70770335
-0.014476375 -0.014476389 0.70460647
-0.014467835 -0.015372068 0.70453274
-0.014516165 -0.016330689 0.70494998
-0.014678535 -0.017430753 0.7063517
-0.014947494 -0.018684328 0.70867372
-0.015160659 -0.019898355 0.71051407
-0.015378005 -0.021144748 0.71239042
