# .PCD v0.7 - Point Cloud Data file format
VERSION 0.7
FIELDS x y z
SIZE 4 4 4
TYPE F F F
COUNT 1 1 1
WIDTH 1336
HEIGHT 1
VIEWPOINT 0 0 0 1 0 0 0
POINTS 1336
DATA ascii
-0.0059409295 -0.030892819 0.74375492
-0.0059558251 -0.032161444 0.74416649
-0.0059707481 -0.033436149 0.74457872
-0.0059860349 -0.03471899 0.74500108
-0.0060014003 -0.036008388 0.74542558
-0.0060168444 -0.037304401 0.74585223
-0.0060323686 -0.03860715 0.74628115
-0.0060482193 -0.039918244 0.746719
-0.006064178 -0.04123643 0.74715996
-0.0060802456 -0.04256168 0.74760377
-0.0060963738 -0.043893874 0.74804938
-0.0061127641 -0.045234442 0.74850225
-0.0061293938 -0.046583384 0.74896163
-0.0061461143 -0.047939688 0.7494235
-0.006162927 -0.049303383 0.749888
-0.00618055 -0.050680518 0.75037491
-0.006227165 -0.052308172 0.75166273
-0.0062920111 -0.054111302 0.75345415
-0.006366089 -0.056021571 0.75550067
-0.006453394 -0.058080554 0.75791264
-0.0065308562 -0.060083866 0.76005262
-0.0065577859 -0.061643153 0.76079661
-0.0065725683 -0.063096642 0.76120502
-0.0065918276 -0.064599901 0.76173705
-0.0043616681 0.053430438 0.73024988
-0.0043458776 0.052150518 0.72970456
-0.0043207165 0.050768435 0.7288357
-0.0042864499 0.049294204 0.72765237
-0.0042537712 0.04785496 0.72652382
-0.0042227409 0.046450168 0.7254523
-0.0041927216 0.045071781 0.72441566
-0.0041639572 0.043721557 0.72342229
-0.004146656 0.042503268 0.72282481
-0.0041429298 0.041429341 0.72269613
-0.0041481741 0.040444732 0.72287726
-0.0041553173 0.03947556 0.72312397
-0.0041624708 0.038502872 0.72337097
-0.004169649 0.037526906 0.72361887
-0.0041768672 0.036547631 0.72386813
-0.0041840947 0.03556481 0.72411776
-0.0041913479 0.034578651 0.72436821
-0.0041986411 0.033589125 0.7246201
-0.0042061084 0.032597363 0.72487795
-0.0042137667 0.031603277 0.72514236
-0.0042214524 0.030605555 0.72540784
-0.0042291665 0.029604197 0.72567421
-0.0042369086 0.028599113 0.72594154
-0.0042446791 0.027590394 0.72620988
-0.0042524785 0.026578039 0.72647917
-0.0042603062 0.025561839 0.72674954
-0.004268148 0.024541885 0.72702038
-0.0042761108 0.023518622 0.72729534
-0.0042842883 0.022492528 0.72757775
-0.0042925589 0.021462858 0.72786331
-0.0043008616 0.020429134 0.72815007
-0.004309197 0.019391388 0.72843796
-0.0043175644 0.018349648 0.72872686
-0.0043259645 0.017303884 0.72901696
-0.0043343967 0.016254008 0.72930813
-0.0043428629 0.015200019 0.72960049
-0.0043514408 0.014142185 0.72989672
-0.0043601496 0.013080448 0.73019749
-0.0043690046 0.012014747 0.73050326
-0.0043779449 0.010944903 0.73081195
-0.0043869214 0.0098705888 0.73112202
-0.0043959343 0.0087918639 0.73143321
-0.0044050012 0.0077087879 0.73174632
-0.004414089 0.0066211224 0.73206019
-0.0044232146 0.0055290163 0.73237526
-0.0044324938 0.0044324696 0.73269576
-0.0044418285 0.003331393 0.73301804
-0.0044513685 0.002225697 0.73334754
-0.0044609504 0.0011152625 0.7336784
-0.00447059 2.9802322e-08 0.73401135
-0.0044802711 -0.0011200607 0.73434567
-0.0044899951 -0.0022449791 0.73468143
-0.0044998284 -0.0033748448 0.735021
-0.0045097908 -0.0045097768 0.73536509
-0.0045198495 -0.0056498051 0.73571241
-0.0045300038 -0.0067949891 0.73606306
-0.0045401873 -0.007945329 0.73641479
-0.0045504342 -0.0091008544 0.7367686
-0.004560797 -0.010261774 0.73712647
-0.0045712073 -0.011427969 0.737486
-0.0045818593 -0.012600064 0.73785383
-0.0045925607 -0.013777673 0.73822343
-0.0046033128 -0.014960766 0.73859465
-0.0046141152 -0.016149402 0.73896772
-0.0046249502 -0.017343551 0.73934186
-0.0046360171 -0.018544048 0.73972404
-0.0046471548 -0.019750386 0.74010861
-0.0046583465 -0.020962566 0.7404952
-0.0046697026 -0.022181064 0.74088734
-0.0046811323 -0.023405641 0.74128199
-0.0046926923 -0.024636596 0.74168122
-0.0047042901 -0.025873631 0.74208176
-0.0047160024 -0.027117014 0.74248624
-0.0047279228 -0.028367519 0.74289787
-0.0047398852 -0.029624254 0.74331093
-0.0047519272 -0.030887514 0.74372685
-0.0047640493 -0.032157332 0.74414539
-0.0047764066 -0.033434838 0.74457216
-0.0047888667 -0.034719259 0.74500245
-0.0048013716 -0.036010295 0.74543428
-0.0048139626 -0.037308186 0.74586904
-0.0048267562 -0.038614064 0.74631089
-0.0048397165 -0.039927632 0.74675846
-0.0048527475 -0.041248351 0.74720842
-0.004865848 -0.042576164 0.74766088
-0.0048790998 -0.043911874 0.74811846
-0.0048925844 -0.045256376 0.74858415
-0.0049061445 -0.046608359 0.74905235
-0.004919779 -0.047967851 0.74952334
-0.0049335514 -0.04933551 0.74999881
-0.0049477927 -0.050714821 0.75049067
-0.0049823998 -0.052315146 0.75168574
-0.0050350362 -0.05412665 0.7535035
-0.0050946809 -0.056041509 0.7555632
-0.0051661227 -0.05811885 0.7580303
-0.0052323374 -0.060171872 0.76031691
-0.0052541532 -0.061736256 0.76107031
-0.0052676243 -0.063211471 0.76153547
-0.0052830637 -0.064717531 0.76206863
-0.0032570877 0.053199112 0.72959775
-0.0032467756 0.051948398 0.729123
-0.0032319329 0.050633639 0.72843957
-0.0032074749 0.049181312 0.7273134
-0.0031839982 0.04776001 0.72623241
-0.0031615118 0.046368867 0.72519702
-0.0031397056 0.04500246 0.72419298
-0.0031185905 0.043660313 0.72322077
-0.0031037601 0.042418092 0.72253788
-0.003099361 0.041324824 0.72233534
-0.0031023354 0.04033038 0.72247231
-0.0031076628 0.039363742 0.72271764
-0.0031130735 0.03839457 0.72296673
-0.0031186668 0.037424028 0.72322428
-0.0031242801 0.036449969 0.72348273
-0.0031299139 0.035472333 0.72374213
-0.0031355678 0.034491271 0.72400248
-0.0031412423 0.033506572 0.72426379
-0.0031469262 0.032518238 0.72452545
-0.0031526417 0.031526446 0.72478861
-0.0031583779 0.030530989 0.72505277
-0.0031641468 0.029532045 0.72531831
-0.0031700828 0.028530747 0.72559166
-0.0031761315 0.027526498 0.72587025
-0.0031821926 0.026518285 0.72614926
-0.0031882762 0.025506228 0.72642934
-0.0031943833 0.024490297 0.72671056
-0.0032005138 0.023470461 0.72699285
-0.003206668 0.022446662 0.72727621
-0.0032128459 0.021419019 0.72756064
-0.0032190476 0.020387322 0.72784626
-0.0032253666 0.019352168 0.7281372
-0.0032318276 0.018313736 0.72843468
-0.0032383378 0.017271131 0.72873449
-0.0032448864 0.016224474 0.72903591
-0.003251473 0.015173554 0.72933924
-0.0032580749 0.014118373 0.72964317
-0.0032647033 0.013058841 0.7299484
-0.0032713711 0.011995018 0.73025542
-0.0032780659 0.010926902 0.7305637
-0.003284873 0.0098546445 0.7308771
-0.0032917811 0.008778125 0.73119521
-0.0032987674 0.0076971352 0.73151684
-0.003305783 0.0066115856 0.7318399
-0.0033128411 0.0055214167 0.73216492
-0.0033199294 0.0044265687 0.73249125
-0.0033270479 0.0033270717 0.73281908
-0.0033342843 0.0022228658 0.73315221
-0.0033415775 0.0011138916 0.73348796
-0.0033489903 2.9802322e-08 0.73382938
-0.0033564237 -0.001118809 0.73417163
-0.0033638903 -0.0022425652 0.73451537
-0.0033713898 -0.0033713579 0.73486072
-0.0033789743 -0.0045052767 0.73520994
-0.003386657 -0.0056444108 0.7355637
-0.0033944526 -0.0067888796 0.73592257
-0.0034022839 -0.0079386234 0.73628324
-0.0034101512 -0.0090937316 0.73664546
-0.0034180423 -0.010254085 0.73700881
-0.003425983 -0.011419952 0.73737442
-0.003434093 -0.01259166 0.73774785
-0.0034422413 -0.013768971 0.73812306
-0.0034504684 -0.014952004 0.73850185
-0.0034587751 -0.016140938 0.73888433
-0.0034671489 -0.017335713 0.73926985
-0.0034755906 -0.018536508 0.73965859
-0.0034840733 -0.019743055 0.74004912
-0.0034926797 -0.020956039 0.74044538
-0.0035013971 -0.022175521 0.74084681
-0.0035101448 -0.023400962 0.74124962
-0.0035189497 -0.024632633 0.74165505
-0.0035278134 -0.025870651 0.74206316
-0.0035368614 -0.027115911 0.74247974
-0.0035459704 -0.028367728 0.74289918
-0.0035551123 -0.029625893 0.74332005
-0.003564344 -0.030890971 0.74374521
-0.003573667 -0.032162994 0.74417442
-0.0035831393 -0.033442616 0.74461061
-0.0035926767 -0.034729213 0.74504972
-0.0036022502 -0.036022484 0.74549049
-0.0036119334 -0.037323296 0.74593639
-0.0036217866 -0.038632363 0.7463901
-0.0036317084 -0.039948761 0.74684691
-0.0036416699 -0.041272253 0.74730557
-0.0036517309 -0.042603493 0.74776888
-0.0036619981 -0.043943942 0.74824154
-0.003672323 -0.04529193 0.74871695
-0.0036827065 -0.046647608 0.7491951
-0.0036931792 -0.048011333 0.7496773
-0.0037038811 -0.049385041 0.75016999
-0.0037146604 -0.050767004 0.75066638
-0.0037391174 -0.05234766 0.75179243
-0.0037793485 -0.054170668 0.75364488
-0.0038251393 -0.056102037 0.75575328
-0.0038801192 -0.05820176 0.75828481
-0.0039321743 -0.060293317 0.76068163
-0.0039494243 -0.0618743 0.76147586
-0.0039590281 -0.063344449 0.76191807
-0.0039711692 -0.06486237 0.7624771
-0.002163714 0.053011 0.7290675
-0.0021574197 0.051778108 0.72863275
-0.0021493819 0.050510496 0.72807765
-0.0021341734 0.049086004 0.72702724
-0.0021191186 0.047680199 0.72598743
-0.002104453 0.046297997 0.72497457
-0.0020904518 0.044944733 0.72400749
-0.002076701 0.043610722 0.72305787
-0.0020653007 0.042338699 0.72227043
-0.0020618858 0.041237742 0.72203457
-0.0020630371 0.040229201 0.72211409
-0.0020667145 0.03926757 0.72236806
-0.0020704123 0.03830263 0.72262347
-0.0020741231 0.037334234 0.72287977
-0.0020778475 0.03636238 0.72313696
-0.0020815851 0.03538698 0.72339517
-0.0020854094 0.034409255 0.72365928
-0.0020893286 0.033429265 0.72392994
-0.0020932623 0.03244555 0.72420162
-0.0020972111 0.031458199 0.72447431
-0.0021011746 0.030467063 0.72474808
-0.0021051532 0.029472142 0.72502291
-0.0021091469 0.028473496 0.7252987
-0.0021131558 0.027471006 0.72557569
-0.00211718 0.02646476 0.72585356
-0.0021212422 0.025454938 0.72613406
-0.0021254036 0.024442166 0.72642159
-0.0021296346 0.023425996 0.72671372
-0.0021338826 0.022405773 0.72700715
-0.0021381476 0.021381497 0.72730172
-0.0021424296 0.020353109 0.72759748
-0.0021467367 0.019320667 0.7278949
-0.0021510532 0.018283963 0.72819304
-0.0021553871 0.017243087 0.72849238
-0.0021597699 0.016198307 0.72879505
-0.00216421 0.015149474 0.72910178
-0.0021687394 0.014096826 0.72941458
-0.002173288 0.013039738 0.7297287
-0.0021778636 0.011978269 0.73004472
-0.0021824585 0.010912299 0.73036212
-0.0021870728 0.0098418593 0.73068076
-0.0021917229 0.0087669194 0.73100197
-0.0021964414 0.0076875389 0.73132783
-0.0022012291 0.006603688 0.73165852
-0.0022060459 0.0055150986 0.73199123
-0.0022108841 0.0044217706 0.73232532
-0.0022157431 0.0033236146 0.73266095
-0.002220632 0.0022206604 0.73299861
-0.0022255678 0.0011128187 0.73333955
-0.0022305921 2.9802322e-08 0.73368645
-0.0022356731 -0.0011178255 0.73403746
-0.0022407686 -0.0022407472 0.73438931
-0.0022458874 -0.0033687949 0.73474294
-0.0022510211 -0.0045019984 0.73509741
-0.0022562128 -0.0056404769 0.73545599
-0.0022614882 -0.0067844093 0.73582041
-0.0022667975 -0.0079337656 0.7361871
-0.0022721663 -0.0090886652 0.73655784
-0.0022775691 -0.010249048 0.73693103
-0.0022830069 -0.011415035 0.73730659
-0.0022884966 -0.012586713 0.7376858
-0.0022940221 -0.013764143 0.73806739
-0.0022996364 -0.014947623 0.73845512
-0.0023053051 -0.016137123 0.73884666
-0.0023109927 -0.017332405 0.73923945
-0.0023167264 -0.018533766 0.73963553
-0.0023224796 -0.019741058 0.74003285
-0.0023283712 -0.020955324 0.74043971
-0.0023342832 -0.02217564 0.74084806
-0.0023402346 -0.023402333 0.74125916
-0.0023462442 -0.024635524 0.74167418
-0.0023523034 -0.0258753 0.74209273
-0.0023584594 -0.027122289 0.74251783
-0.0023646476 -0.028375775 0.74294525
-0.0023708683 -0.029635847 0.74337488
-0.0023771888 -0.030903429 0.74381137
-0.0023835714 -0.032178164 0.7442522
-0.0023900075 -0.03346011 0.74469674
-0.0023964881 -0.034749061 0.74514437
-0.0024030234 -0.036045343 0.74559575
-0.0024096824 -0.037350059 0.74605566
-0.0024163981 -0.038662374 0.74651951
-0.0024231412 -0.039981812 0.74698514
-0.0024299221 -0.041308641 0.74745351
-0.002436881 -0.042645425 0.74793416
-0.0024438698 -0.043989629 0.74841678
-0.002450909 -0.04534179 0.74890304
-0.0024579684 -0.046701401 0.7493906
-0.0024652318 -0.04807201 0.74989223
-0.0024725285 -0.049450576 0.75039625
-0.0024798682 -0.050837308 0.75090313
-0.0024956525 -0.052408695 0.7519933
-0.0025229964 -0.054244399 0.75388187
-0.0025545724 -0.056200564 0.75606263
-0.0025925527 -0.058332413 0.75868583
-0.0026279937 -0.060443848 0.76113355
-0.0026396213 -0.06203106 0.76193666
-0.0026463035 -0.063511252 0.76239824
-0.0026550449 -0.065048546 0.76300192
-0.0010786551 0.052854151 0.72862518
-0.0010754876 0.051623464 0.72818762
-0.0010723117 0.050398678 0.72774899
-0.001065359 0.049006492 0.72678858
-0.001058059 0.047612667 0.72578019
-0.0010509845 0.04624331 0.72480297
-0.0010440665 0.044894874 0.72384739
-0.0010374197 0.043571651 0.72292924
-0.0010314542 0.042289644 0.72210521
-0.0010289775 0.041159093 0.72176307
-0.0010292303 0.040140003 0.721798
-0.0010309857 0.039177477 0.72204053
-0.0010329015 0.038217396 0.72230512
-0.0010348243 0.037253678 0.72257072
-0.0010367542 0.036286443 0.72283733
-0.0010386915 0.035315514 0.72310489
-0.001040636 0.034341007 0.72337353
-0.0010425878 0.033362836 0.72364306
-0.0010445468 0.032380939 0.72391373
-0.0010465133 0.031395406 0.72418535
-0.0010485168 0.030406982 0.72446215
-0.0010505762 0.029416174 0.72474653
-0.0010526436 0.028421372 0.72503215
-0.0010547193 0.027422726 0.72531891
-0.0010568069 0.026420206 0.72560728
-0.0010588991 0.025413573 0.72589624
-0.0010609995 0.024403006 0.72618634
-0.0010631121 0.023388475 0.72647816
-0.0010652293 0.022369832 0.7267707
-0.001067374 0.021347493 0.72706693
-0.0010695659 0.020321757 0.72736967
-0.0010717823 0.019292086 0.72767586
-0.0010740078 0.018258154 0.7279833
-0.0010762428 0.017219901 0.72829193
-0.0010784869 0.016177326 0.72860193
-0.0010807404 0.015130371 0.72891319
-0.0010830192 0.014079243 0.72922808
-0.0010853353 0.013024062 0.72954798
-0.0010876773 0.01196447 0.72987145
-0.0010900294 0.010900319 0.73019636
-0.0010923917 0.0098315477 0.73052263
-0.0010947642 0.0087581277 0.73085034
-0.0010971552 0.0076801181 0.73118067
-0.0010995729 0.0065974295 0.73151463
-0.001102038 0.005510211 0.73185509
-0.0011045141 0.0044180453 0.73219717
-0.0011070055 0.0033210218 0.73254132
-0.0011095001 0.0022190213 0.7328859
-0.0011120058 0.0011120141 0.73323202
-0.0011145521 2.9802322e-08 0.73358375
-0.0011171269 -0.0011171103 0.73393941
-0.0011197262 -0.0022394359 0.73429847
-0.0011223461 -0.0033670068 0.73466039
-0.0011249826 -0.0044999123 0.73502451
-0.0011276358 -0.0056381822 0.73539102
-0.0011303187 -0.0067818761 0.73576164
-0.0011330144 -0.0079310834 0.73613405
-0.0011357621 -0.0090860724 0.73651356
-0.0011385274 -0.010246694 0.7368955
-0.0011413019 -0.011413008 0.73727882
-0.0011440987 -0.012585044 0.73766512
-0.0011469136 -0.013762921 0.73805392
-0.0011497827 -0.014947176 0.73845023
-0.0011526704 -0.016137362 0.73884916
-0.0011555726 -0.017333537 0.73925006
-0.0011585031 -0.018536061 0.73965478
-0.0011614576 -0.019744754 0.74006295
-0.001164459 -0.020960242 0.74047756
-0.0011674761 -0.022182047 0.74089432
-0.0011705133 -0.023410261 0.74131382
-0.0011735943 -0.024645478 0.74173945
-0.0011767055 -0.025887519 0.74216914
-0.0011798425 -0.027136356 0.74260253
-0.0011829963 -0.028391898 0.74303818
-0.0011861906 -0.029654741 0.74347937
-0.0011894309 -0.030925184 0.74392694
-0.0011926985 -0.03220281 0.74437833
-0.0011959889 -0.033487648 0.74483281
-0.0011992926 -0.034779459 0.74528915
-0.0012026731 -0.036080182 0.74575615
-0.0012060774 -0.037388384 0.74622637
-0.0012095012 -0.038704008 0.74669933
-0.0012129493 -0.040027291 0.74717563
-0.001216462 -0.041359723 0.74766082
-0.001220015 -0.042700529 0.74815166
-0.0012235889 -0.044049174 0.74864531
-0.0012271838 -0.045405775 0.74914187
-0.0012308559 -0.04677254 0.74964917
-0.0012345655 -0.048148006 0.75016153
-0.0012382923 -0.049531668 0.75067633
-0.0012420573 -0.050924361 0.75119638
-0.0012499713 -0.052498788 0.75228965
-0.0012639805 -0.054351151 0.75422478
-0.0012804538 -0.056339949 0.75650024
-0.0013004027 -0.058518142 0.75925583
-0.0013179681 -0.060626537 0.76168221
-0.0013242535 -0.062239915 0.76255035
-0.0013275875 -0.06372422 0.76301098
-0.0013321607 -0.065275878 0.76364267
0 0.052749097 0.72832912
0 0.051498264 0.72782749
0 0.050285906 0.72741747
0 0.048941821 0.72659433
0 0.047558188 0.725613
0 0.046198457 0.72466207
0 0.044860244 0.72373605
0 0.043539286 0.72282279
0 0.042251855 0.72197783
0 0.041094273 0.72153914
0 0.040067464 0.72154111
0 0.039100617 0.72176111
0 0.038142264 0.72202468
0 0.037180364 0.72228926
0 0.036214858 0.7225548
0 0.035248309 0.72283179
0 0.034278065 0.7231099
0 0.033304095 0.72338957
0 0.032326221 0.72366989
0 0.031344593 0.72395122
0 0.030359149 0.72423422
0 0.029369771 0.72451782
0 0.02837652 0.72480243
0 0.027379274 0.72508836
0 0.026379138 0.72538042
0 0.025375664 0.72567785
0 0.024368167 0.725977
0 0.023356497 0.72627747
0 0.022340715 0.72657907
0 0.02132073 0.72688192
0 0.020296514 0.72718608
0 0.019268572 0.72749519
0 0.018236846 0.72780985
0 0.017200679 0.72812593
0 0.016160101 0.72844326
0 0.015115082 0.72876203
0 0.014065534 0.72908217
0 0.013011575 0.72940481
0 0.011953503 0.72973371
0 0.010890931 0.73006678
0 0.0098236203 0.7304008
0 0.0087515414 0.73073637
0 0.0076746941 0.73107338
0 0.0065929294 0.73141134
0 0.0055065751 0.73175538
0 0.0044153333 0.73210257
0 0.0033191741 0.7324549
0 0.0022178888 0.73280877
0 0.0011115372 0.73316371
0 2.9802322e-08 0.73352206
0 -0.001116693 0.7338832
0 -0.0022386909 0.73424834
0 -0.0033661425 0.7346189
0 -0.0044989586 0.73499167
0 -0.0056372583 0.73536623
0 -0.0067811012 0.73574269
0 -0.0079304874 0.73612273
0 -0.0090858638 0.73650932
0 -0.010246933 0.73689854
0 -0.011413902 0.73729092
0 -0.012586713 0.7376858
0 -0.013765484 0.73808324
0 -0.014950693 0.73848772
0 -0.016141921 0.73889416
0 -0.017339468 0.7393046
0 -0.018543571 0.73971969
0 -0.019753933 0.74013752
0 -0.02097106 0.74056071
0 -0.022194594 0.74098551
0 -0.023424923 0.74141508
0 -0.024662495 0.74185145
0 -0.02590701 0.74229145
0 -0.027158231 0.7427339
0 -0.028416306 0.74317867
0 -0.029682577 0.74363315
0 -0.030956149 0.74409139
0 -0.032236964 0.74455291
0 -0.033524871 0.7450164
0 -0.034821182 0.74548781
0 -0.036125749 0.74596596
0 -0.037437886 0.74644697
0 -0.038757771 0.74693137
0 -0.040086359 0.7474227
0 -0.041423708 0.74792099
0 -0.042769253 0.7484231
0 -0.044122666 0.74892741
0 -0.045487076 0.74944532
0 -0.046859592 0.74996567
0 -0.048240781 0.75048995
0 -0.049630672 0.75101811
0 -0.051032186 0.75155973
0 -0.052617788 0.7526809
0 -0.0544945 0.75468528
0 -0.056526601 0.75708628
0 -0.058769673 0.76002812
0 -0.060859293 0.7623812
0 -0.062482774 0.76326424
0 -0.063972652 0.76372594
0 -0.065562516 0.76445067
0.00107576 0.052712262 0.72822529
0.0010703088 0.051374853 0.72747231
0.0010678263 0.050187856 0.7271294
0.0010628576 0.048891455 0.72644299
0.0010559513 0.047517806 0.72548908
0.0010492011 0.04616487 0.72455662
0.0010426389 0.044833511 0.7236501
0.0010362269 0.043521523 0.72276449
0.0010298932 0.042225629 0.72188962
0.0010261937 0.041047782 0.72137856
0.0010256311 0.039999604 0.72130084
0.0010271437 0.039031476 0.72150975
0.0010291198 0.038077444 0.7217828
0.0010311073 0.037119895 0.72205728
0.0010330988 0.036158472 0.72233236
0.001035098 0.035193324 0.72260857
0.001037105 0.03422448 0.72288573
0.0010391234 0.033251941 0.72316456
0.0010411532 0.032275766 0.72344494
0.0010432387 0.031297177 0.72373301
0.0010453473 0.030315101 0.7240243
0.0010474643 0.029329032 0.72431672
0.0010495899 0.028338969 0.72461033
0.0010517242 0.027344853 0.72490519
0.0010538672 0.026346713 0.72520119
0.0010560226 0.025344551 0.72549891
0.001058232 0.024339348 0.72580409
0.0010604585 0.023330122 0.72611165
0.0010626941 0.022316575 0.72642052
0.0010649393 0.021298796 0.72673059
0.001067194 0.020276695 0.72704202
0.0010694582 0.019250274 0.72735476
0.0010717437 0.01821965 0.72767055
0.0010740855 0.01718539 0.72799397
0.0010764375 0.0161466 0.72831887
0.0010788038 0.015103281 0.72864574
0.0010811766 0.014055341 0.72897351
0.0010835598 0.013002723 0.7293027
0.0010859496 0.011945456 0.72963279
0.0010883937 0.010883987 0.7299704
0.001090857 0.0098177195 0.73031068
0.0010933474 0.0087468028 0.73065466
0.0010958493 0.007670939 0.7310003
0.0010983585 0.0065901577 0.73134685
0.0011008916 0.0055044591 0.73169678
0.0011034486 0.0044137836 0.73205006
0.0011060381 0.003318131 0.73240769
0.0011086605 0.0022173226 0.73276997
0.0011112911 0.0011112988 0.73313326
0.0011139384 -0 0.73349899
0.0011165984 -0.0011166036 0.73386645
0.0011192879 -0.0022385716 0.73423797
0.0011220244 -0.0033660531 0.73461592
0.0011247656 -0.004499048 0.73499459
0.0011275461 -0.0056377053 0.73537862
0.001130336 -0.0067819953 0.73576403
0.0011331439 -0.0079320073 0.73615187
0.0011360007 -0.0090879798 0.73654652
0.0011388719 -0.010249853 0.73694313
0.0011417752 -0.011417747 0.73734415
0.0011447065 -0.012591779 0.7377491
0.0011476529 -0.013771802 0.73815602
0.0011506368 -0.014958292 0.73856825
0.0011536361 -0.016150892 0.73898256
0.0011566738 -0.017350107 0.73940212
0.001159759 -0.018556118 0.73982829
0.0011628609 -0.019768596 0.74025679
0.0011659884 -0.020987779 0.7406888
0.0011691283 -0.022213429 0.74112254
0.0011723266 -0.02344656 0.74156433
0.0011755612 -0.024686754 0.74201113
0.0011788136 -0.025933892 0.74246037
0.0011820889 -0.027188063 0.74291283
0.0011854011 -0.028449595 0.74337035
0.0011887748 -0.029719353 0.74383634
0.0011921679 -0.030996352 0.74430507
0.001195585 -0.032280773 0.74477708
0.0011990364 -0.033573002 0.7452538
0.0012025563 -0.034874111 0.74574
0.0012060921 -0.036182761 0.74622846
0.0012096536 -0.037499249 0.74672037
0.0012132858 -0.038825125 0.74722207
0.0012169548 -0.040159494 0.74772888
0.0012206511 -0.041502088 0.74823946
0.0012243646 -0.04285273 0.74875247
0.001228167 -0.04421401 0.74927771
0.0012320083 -0.045584291 0.74980831
0.0012358737 -0.046963155 0.75034225
0.0012397739 -0.048351169 0.75088096
0.0012437663 -0.049750626 0.75143254
0.0012477845 -0.051159114 0.75198746
0.001256451 -0.052770913 0.75318462
0.0012717259 -0.054684192 0.75529462
0.0012901749 -0.056767672 0.75784302
0.0013132889 -0.059097975 0.7610358
0.0013289223 -0.061130434 0.76319528
0.0013355708 -0.062771797 0.76411372
0.0013386548 -0.064255416 0.7645396
0.0021369262 0.05128625 0.72721732
0.0021320621 0.050103486 0.72688138
0.0021241207 0.048854798 0.7263329
0.0021106512 0.047489703 0.72540259
0.0020974774 0.046144485 0.72449273
0.0020845032 0.044816822 0.72359663
0.0020718472 0.043508828 0.72272259
0.0020595298 0.042220384 0.72187185
0.0020508731 0.041017473 0.72127396
0.0020486906 0.039949507 0.72112322
0.0020511136 0.038971156 0.72129059
0.0020550538 0.038018525 0.72156268
0.002059059 0.037063092 0.72183931
0.0020631661 0.036105424 0.72212297
0.0020672891 0.035143912 0.7224077
0.0020714288 0.034178585 0.72269362
0.0020755781 0.033209294 0.72298026
0.0020797509 0.032236159 0.72326845
0.0020839409 0.03125912 0.72355783
0.0020881989 0.030278891 0.72385192
0.0020925333 0.029295474 0.72415125
0.0020968856 0.028307974 0.72445184
0.0021012563 0.027316332 0.7247538
0.0021056451 0.026320547 0.72505689
0.0021100524 0.025320619 0.72536129
0.002114478 0.024316519 0.72566688
0.0021189901 0.023308903 0.72597861
0.002123567 0.022297472 0.72629464
0.0021281641 0.02128163 0.72661215
0.0021327808 0.020261437 0.72693104
0.0021374254 0.019236833 0.72725183
0.0021420745 0.018207639 0.72757292
0.00214676 0.017174065 0.72789657
0.0021515356 0.016136497 0.72822642
0.0021563796 0.015094668 0.72856092
0.0021612374 0.01404804 0.72889644
0.002166125 0.012996763 0.72923398
0.0021710272 0.011940658 0.72957253
0.0021759833 0.010879934 0.72991484
0.00218097 0.0098143518 0.7302593
0.0021860518 0.00874421 0.73061025
0.0021911738 0.0076690912 0.73096406
0.0021963117 0.0065889359 0.73131883
0.0022014817 0.0055037439 0.73167598
0.0022066762 0.0044133663 0.73203468
0.0022119365 0.0033179224 0.73239803
0.0022172711 0.0022172928 0.73276651
0.0022226567 0.0011113286 0.73313844
0.002228077 2.9802322e-08 0.73351276
0.0022335239 -0.0011167526 0.73388898
0.0022390056 -0.0022389889 0.73426759
0.0022445738 -0.0033668578 0.73465222
0.002250178 -0.0045003593 0.73503923
0.0022558533 -0.0056396127 0.73543119
0.0022615744 -0.0067847371 0.73582637
0.0022673246 -0.0079356432 0.73622352
0.0022731475 -0.0090925694 0.73662567
0.0022790004 -0.010255486 0.73702991
0.0022849364 -0.011424661 0.73743987
0.0022909471 -0.012600183 0.73785502
0.0022969898 -0.013781935 0.73827243
0.0023030823 -0.014970034 0.73869318
0.0023092073 -0.016164392 0.73911619
0.002315437 -0.017365754 0.73954642
0.0023217546 -0.018574029 0.73998278
0.0023280976 -0.019788802 0.74042082
0.0023344846 -0.021010339 0.74086201
0.0023409163 -0.022238672 0.74130619
0.0023475036 -0.023474991 0.74176121
0.0023541187 -0.024718225 0.74221802
0.0023607621 -0.025968373 0.74267685
0.0023674995 -0.02722621 0.74314219
0.0023743229 -0.028491884 0.74361348
0.002381224 -0.029765278 0.74409008
0.0023881553 -0.031046003 0.74456882
0.0023952143 -0.032335371 0.74505639
0.0024023538 -0.033632934 0.74554944
0.0024095555 -0.034938544 0.7460469
0.0024167907 -0.036251843 0.74654663
0.0024241684 -0.037574589 0.74705613
0.0024316506 -0.038906366 0.7475729
0.0024391694 -0.040246308 0.74809217
0.0024467348 -0.041594476 0.74861473
0.0024544892 -0.042953551 0.74915028
0.002462303 -0.044321418 0.74968994
0.0024701769 -0.045698285 0.75023377
0.002478153 -0.047084928 0.75078464
0.0024863055 -0.048482984 0.75134772
0.0024945012 -0.049890012 0.75191379
0.002502762 -0.051306605 0.75248432
0.0025219908 -0.052961797 0.75381237
0.0025544846 -0.054921418 0.75605661
0.0025943508 -0.057075709 0.75881004
0.0026462446 -0.05954051 0.76239407
0.0026720413 -0.061456919 0.76417577
0.0026865725 -0.063134462 0.76517946
0.0026921297 -0.064611107 0.76556325
0.0032001121 0.05120182 0.72697437
0.0031935258 0.05003193 0.7266711
0.003184339 0.048826575 0.72624809
0.0031648874 0.047473311 0.72535247
0.0031454393 0.046133101 0.72445703
0.0031264918 0.044813067 0.72358453
0.0031077927 0.043509126 0.7227236
0.003089316 0.042220652 0.72187287
0.0030743806 0.040991753 0.72118521
0.0030704446 0.03991577 0.72100395
0.003072697 0.03892085 0.72110766
0.0030787725 0.037971526 0.72138739
0.0030848936 0.037018746 0.7216692
0.0030910391 0.036062151 0.72195214
0.0030973488 0.035103291 0.72224271
0.0031037061 0.034140795 0.72253543
0.0031100893 0.033174306 0.72282928
0.0031164989 0.032203823 0.7231245
0.0031229348 0.031229377 0.7234208
0.0031293978 0.030250847 0.72371835
0.0031358874 0.029268295 0.7240172
0.0031425478 0.02828294 0.72432387
0.0031492698 0.027293712 0.72463334
0.0031560096 0.026300132 0.7249437
0.0031627782 0.025302261 0.72525531
0.0031695759 0.024300098 0.72556829
0.003176403 0.023293614 0.72588265
0.003183305 0.022283167 0.72620046
0.0031903281 0.021268845 0.72652388
0.0031974285 0.02025041 0.72685081
0.0032045487 0.019227296 0.72717863
0.0032117125 0.018199742 0.72750849
0.0032188967 0.017167479 0.72783929
0.0032261596 0.016130835 0.72817373
0.0032334791 0.015089571 0.72851074
0.0032409495 0.014044136 0.72885466
0.0032484543 0.012993872 0.72920024
0.0032559822 0.011938632 0.72954684
0.0032635571 0.010878563 0.72989559
0.0032711672 0.0098135471 0.73024607
0.0032788853 0.0087437034 0.73060143
0.0032867002 0.007668972 0.7309612
0.0032946013 0.0065892339 0.73132503
0.0033025402 0.0055042505 0.73169065
0.0033105179 0.004414022 0.73205793
0.0033185463 0.0033185482 0.7324276
0.0033267005 0.0022178292 0.73280305
0.0033349076 0.0011116266 0.73318094
0.0033432429 2.9802322e-08 0.73356473
0.0033516199 -0.0011171699 0.73395044
0.0033600389 -0.0022400022 0.7343381
0.0033685258 -0.0033684969 0.73472887
0.003377107 -0.0045027733 0.73512399
0.003385796 -0.0056429505 0.73552406
0.0033945946 -0.0067891479 0.73592919
0.003403452 -0.0079413652 0.73633701
0.0034123687 -0.0090996623 0.73674756
0.0034213325 -0.010263979 0.73716027
0.0034304222 -0.011434734 0.73757887
0.0034396534 -0.012612045 0.73800385
0.0034489478 -0.013795793 0.73843181
0.0034582927 -0.014985889 0.7388621
0.0034677016 -0.016182572 0.7392953
0.0034772838 -0.017386407 0.73973656
0.0034869602 -0.018597126 0.74018204
0.0034966904 -0.019814551 0.74063009
0.003506544 -0.021039248 0.7410838
0.003516495 -0.022271097 0.74154198
0.0035265721 -0.023510456 0.74200594
0.0035367215 -0.024757028 0.7424733
0.0035469995 -0.026011318 0.74294651
0.0035574229 -0.027273566 0.74342644
0.0035679361 -0.028543472 0.74391055
0.0035785262 -0.029821038 0.74439812
0.0035892513 -0.03110683 0.744892
0.0036001862 -0.032401681 0.74539542
0.0036111735 -0.033704251 0.74590135
0.0036222278 -0.035014838 0.74641037
0.0036334535 -0.036334544 0.74692726
0.0036448834 -0.037663788 0.74745351
0.0036563852 -0.039001435 0.74798316
0.0036679748 -0.040347695 0.74851674
0.0036798206 -0.041704595 0.74906218
0.0036918039 -0.043071032 0.74961394
0.0037038503 -0.04444617 0.75016862
0.0037160993 -0.045831889 0.75073266
0.0037285544 -0.047228366 0.75130612
0.003741093 -0.048634171 0.75188339
0.0037537797 -0.050050378 0.75246763
0.0037668864 -0.05148077 0.75307107
0.0037996932 -0.053195715 0.75458163
0.0038522249 -0.05521518 0.75700045
0.0039181178 -0.057465702 0.76003444
0.0040057409 -0.060086101 0.76406896
0.0040332475 -0.061843097 0.76533544
0.0040505142 -0.063458025 0.76613051
0.004063983 -0.06502372 0.76675075
0.004262337 0.051148057 0.72681969
0.0042538624 0.049982905 0.72652704
0.0042437254 0.048802882 0.72617698
0.0042195208 0.047469646 0.72534108
0.004194052 0.046134621 0.72446156
0.0041690064 0.044816822 0.72359663
0.0041445177 0.043517441 0.72275102
0.0041203289 0.042233437 0.72191566
0.0040992447 0.040992469 0.72118753
0.0040914337 0.039891511 0.72091788
0.0040931087 0.03888455 0.7209757
0.0041008415 0.037932843 0.72124267
0.0041091987 0.036982805 0.72153139
0.0041175908 0.036028951 0.72182119
0.004126017 0.035071135 0.72211218
0.0041345349 0.03410995 0.72240627
0.0041432469 0.033145994 0.72270709
0.0041519962 0.032177985 0.72300923
0.0041607968 0.031205982 0.72331321
0.0041696201 0.030229747 0.72361791
0.0041784807 0.02924937 0.72392386
0.004187379 0.02826488 0.72423112
0.00419639 0.027276576 0.72454232
0.0042056027 0.026285052 0.72486049
0.0042148563 0.025289148 0.72518003
0.0042241355 0.024288803 0.72550046
0.0042334711 0.023284107 0.72582281
0.0042428323 0.022274882 0.7261461
0.004252281 0.021261454 0.72647238
0.0042618783 0.020243913 0.72680384
0.0042715967 0.01922217 0.72713941
0.0042813742 0.018195868 0.72747707
0.004291181 0.017164767 0.72781575
0.0043010483 0.016128957 0.72815657
0.0043109618 0.015088379 0.72849882
0.0043210303 0.014043361 0.72884655
0.0043312092 0.012993664 0.7291981
0.0043415152 0.011939198 0.72955394
0.0043518553 0.010879666 0.72991103
0.0043622595 0.0098151267 0.73027033
0.0043726983 0.0087453723 0.73063076
0.0043833163 0.0076708198 0.73099744
0.0043940186 0.0065910518 0.73136699
0.0044048545 0.0055060685 0.73174125
0.0044157607 0.0044157803 0.73211783
0.0044267206 0.0033200681 0.73249638
0.0044377851 0.0022189021 0.73287845
0.0044489382 0.0011122525 0.73326367
0.0044602645 2.9802322e-08 0.73365474
0.0044717155 -0.0011178851 0.73405015
0.004483243 -0.0022415817 0.73444825
0.0044948128 -0.0033711195 0.73484778
0.0045064935 -0.004506439 0.73525119
0.004518304 -0.0056478381 0.735659
0.0045303144 -0.0067954361 0.73607385
0.0045423894 -0.0079491436 0.73649079
0.0045545627 -0.0091091394 0.73691118
0.0045668022 -0.010275304 0.73733383
0.0045792134 -0.011447996 0.73776245
0.0045917989 -0.012627453 0.73819709
0.0046044709 -0.013813406 0.73863471
0.004617285 -0.015006155 0.73907721
0.0046301703 -0.016205609 0.73952222
0.0046432554 -0.017412215 0.73997402
0.0046564322 -0.018625706 0.74042904
0.0046697943 -0.019846588 0.74089044
0.0046833069 -0.021074861 0.74135715
0.0046969722 -0.022310615 0.74182904
0.0047107362 -0.023553699 0.74230433
0.0047245808 -0.024804056 0.74278247
0.0047387714 -0.026063204 0.74327254
0.0047530667 -0.027330101 0.74376613
0.0047674291 -0.028604567 0.74426216
0.0047818976 -0.029886842 0.74476182
0.0047967448 -0.031178862 0.74527454
0.0048116841 -0.032478869 0.74579042
0.0048267171 -0.033787012 0.74630958
0.0048419824 -0.035104334 0.74683666
0.0048575425 -0.036431551 0.747374
0.0048731836 -0.037767172 0.7479142
0.0048889853 -0.039111853 0.74845982
0.0049051326 -0.040467322 0.74901748
0.0049214074 -0.04183197 0.74957955
0.0049377908 -0.043205649 0.7501452
0.0049545518 -0.04459098 0.75072408
0.0049715308 -0.045986652 0.75131035
0.0049886261 -0.047391921 0.75190079
0.0050060083 -0.048808545 0.75250101
0.0050237244 -0.050237238 0.75311279
0.0050420575 -0.051681072 0.75374591
0.0050935033 -0.053481787 0.75552255
0.0051705241 -0.055583119 0.75818229
0.0052718259 -0.057990074 0.7616806
0.0053857951 -0.060590208 0.7656163
0.0054183975 -0.06231156 0.76674211
0.0054347846 -0.063858718 0.767308
0.0053253071 0.051122963 0.72674745
0.0053126737 0.049939156 0.72639841
0.0053016497 0.048775196 0.72609389
0.0052753366 0.04747805 0.72536695
0.0052440073 0.046147287 0.72450143
0.0052130301 0.044832081 0.72364563
0.0051828315 0.043535799 0.72281134
0.0051530176 0.042254776 0.72198766
0.0051249387 0.040999532 0.72121197
0.0051111807 0.039867252 0.72083187
0.0051126392 0.038856059 0.72087216
0.0051218141 0.037901491 0.72112566
0.0051325099 0.036954105 0.72142112
0.0051432499 0.036002755 0.72171783
0.0051540532 0.035047591 0.72201633
0.0051648836 0.034088254 0.72231549
0.0051757605 0.033124894 0.72261596
0.0051868814 0.032158673 0.72292328
0.0051981234 0.031188756 0.72323382
0.005209432 0.030214727 0.72354627
0.0052207722 0.029236317 0.72385955
0.00523218 0.028253794 0.72417468
0.005243619 0.02726683 0.72449064
0.0052551827 0.026275933 0.72481018
0.0052669654 0.025281429 0.72513568
0.0052788383 0.024282664 0.72546369
0.0052907839 0.023279458 0.72579372
0.0053027654 0.022271633 0.72612464
0.0053148195 0.021259308 0.72645772
0.005326909 0.020242304 0.72679174
0.0053392272 0.019221216 0.72713208
0.0053517176 0.018195868 0.72747707
0.0053642858 0.01716572 0.72782433
0.0053769131 0.016130775 0.72817314
0.0053896201 0.015090942 0.72852427
0.0054023671 0.014046162 0.72887641
0.0054152934 0.012996703 0.7292335
0.0054283999 0.011942506 0.7295956
0.0054416503 0.010883331 0.72996157
0.0054549654 0.0098189712 0.73032945
0.0054683452 0.008749336 0.73069912
0.0054818122 0.0076745749 0.73107111
0.0054954258 0.0065945089 0.73144722
0.0055092508 0.0055092573 0.73182917
0.0055232476 0.0044186115 0.73221588
0.0055372957 0.0033223927 0.73260391
0.0055514355 0.0022206008 0.73299462
0.0055656685 0.0011131763 0.73338783
0.0055800378 -0 0.73378479
0.0055946922 -0.0011188984 0.73418963
0.0056094443 -0.0022437572 0.73459721
0.0056242961 -0.0033745766 0.73500752
0.0056392271 -0.0045113564 0.73541999
0.0056543015 -0.0056542754 0.73583645
0.0056696516 -0.0068035424 0.73626047
0.0056851069 -0.0079591274 0.73668748
0.005700734 -0.0091211796 0.7371192
0.0057164473 -0.01028958 0.73755336
0.0057323356 -0.011464655 0.73799229
0.0057484019 -0.012646466 0.7384361
0.0057646697 -0.013835162 0.73888558
0.005781143 -0.01503095 0.7393406
0.0057977554 -0.016233683 0.73979956
0.0058145318 -0.017443568 0.7402631
0.0058313822 -0.018660426 0.74072856
0.005848607 -0.019885242 0.74120444
0.0058660265 -0.021117657 0.74168569
0.005883527 -0.022357374 0.74216914
0.0059011322 -0.023604512 0.74265552
0.0059191021 -0.024860203 0.74315202
0.0059372764 -0.026124001 0.74365407
0.0059555867 -0.027395695 0.74415994
0.0059741302 -0.028675795 0.74467224
0.0059929588 -0.029964805 0.74519241
0.0060120276 -0.031262517 0.74571925
0.0060311942 -0.032568425 0.74624872
0.0060507292 -0.033884078 0.74678838
0.0060705403 -0.035209119 0.74733567
0.006090506 -0.036543012 0.74788725
0.006110704 -0.037886351 0.74844527
0.006131365 -0.039240718 0.74901605
0.0061521409 -0.040604085 0.74959004
0.0061730836 -0.041976959 0.75016862
0.0061946083 -0.04336226 0.7507633
0.0062163095 -0.044757456 0.7513628
0.006238163 -0.046162397 0.75196648
0.006260593 -0.04758051 0.75258619
0.0062832907 -0.049009621 0.75321323
0.0063061537 -0.050449222 0.75384486
0.0063323635 -0.051925361 0.75456899
0.0064090295 -0.053835839 0.75668699
0.0065181172 -0.056055784 0.75970078
0.0066793533 -0.058778286 0.76415509
0.0067915572 -0.061124027 0.76725495
0.006837212 -0.062902331 0.76851618
0.0068540098 -0.064427674 0.76898032
0.0063929097 0.051143289 0.72680598
0.0063721118 0.049914896 0.72632718
0.0063602333 0.048761815 0.72605366
0.00633319 0.047498941 0.72543108
0.0062960731 0.046171248 0.72457653
0.0062593888 0.044858992 0.72373199
0.0062233242 0.043563277 0.7229017
0.0061879307 0.042284191 0.72208691
0.00615298 0.041019887 0.7212823
0.0061345557 0.039874613 0.7208581
0.006132911 0.038841784 0.72082025
0.0061423052 0.03787756 0.72103655
0.0061554634 0.036932796 0.7213394
0.006168657 0.03598386 0.72164315
0.0061819283 0.035030961 0.72194868
0.0061952355 0.03407383 0.72225511
0.0062086214 0.033112645 0.72256327
0.0062220655 0.032147378 0.72287273
0.0062356116 0.031178087 0.72318459
0.0062495014 0.030205965 0.72350436
0.0062634312 0.029229373 0.7238251
0.0062774452 0.028248519 0.72414774
0.0062914998 0.027263224 0.72447127
0.0063056401 0.026273489 0.72479683
0.0063198213 0.025279284 0.72512329
0.0063342913 0.024281472 0.72545648
0.0063489634 0.023279548 0.72579426
0.0063637039 0.022273004 0.72613358
0.0063785124 0.021261722 0.72647446
0.0063934135 0.02024582 0.72681761
0.0064083613 0.019225091 0.72716171
0.0064235176 0.01819998 0.72751069
0.0064389315 0.017170519 0.72786546
0.0064544664 0.01613614 0.72822315
0.0064700767 0.015096873 0.7285825
0.0064857393 0.014052451 0.72894311
0.0065015005 0.013003021 0.72930598
0.0065174825 0.011948705 0.72967392
0.0065336861 0.010889471 0.73004699
0.0065500671 0.0098251104 0.73042405
0.0065665306 0.0087553859 0.73080307
0.0065831007 0.0076803267 0.73118454
0.0065997797 0.0065998137 0.73156846
0.0066165919 0.0055138767 0.73195565
0.0066337613 0.0044225156 0.73235089
0.0066510453 0.0033255517 0.73274881
0.0066684443 0.0022228062 0.73314941
0.0066859345 0.0011143088 0.7335521
0.0067035416 2.9802322e-08 0.73395741
0.0067215208 -0.0011202395 0.7343713
0.0067395964 -0.0022464991 0.7347874
0.0067578973 -0.0033789277 0.73520875
0.0067762979 -0.0045175254 0.73563242
0.0067948252 -0.005662322 0.73605889
0.0068136617 -0.0068136454 0.73649257
0.0068326029 -0.0079713464 0.7369287
0.0068519134 -0.0091358721 0.73737323
0.0068713329 -0.010306984 0.73782033
0.0068909428 -0.011484861 0.73827177
0.0069106654 -0.012669504 0.73872584
0.0069307429 -0.013861477 0.73918802
0.0069511267 -0.015060723 0.73965728
0.0069715772 -0.016266972 0.74012816
0.0069922023 -0.017480493 0.74060297
0.0070130327 -0.018701375 0.74108249
0.0070343208 -0.019930571 0.74157262
0.007055738 -0.021167189 0.74206567
0.0070773703 -0.022411615 0.74256372
0.0070992205 -0.023664057 0.74306673
0.0071215187 -0.024925321 0.7435801
0.0071439287 -0.026194394 0.74409604
0.0071666529 -0.027472138 0.74461919
0.0071897539 -0.028759003 0.74515104
0.0072130631 -0.03005442 0.74568766
0.0072365231 -0.031358242 0.7462278
0.0072605796 -0.032672614 0.74678159
0.0072848857 -0.033996135 0.74734122
0.0073093553 -0.035328537 0.74790454
0.0073341709 -0.036670864 0.74847585
0.0073595503 -0.038024306 0.74906009
0.0073850746 -0.039387047 0.74964768
0.0074109314 -0.04076013 0.75024295
0.007437434 -0.042145461 0.75085318
0.0074641271 -0.043540716 0.7514677
0.0074911066 -0.044946641 0.75208879
0.0075188531 -0.046366245 0.75272763
0.0075467727 -0.04779622 0.7533704
0.0075751264 -0.049238265 0.75402313
0.0076041147 -0.050694078 0.75469053
0.0076417276 -0.052218467 0.75555646
0.0077536963 -0.05427587 0.75813419
0.0079116663 -0.056700259 0.76177096
0.0081722261 -0.059929609 0.76776963
0.0082389005 -0.061791718 0.76930463
0.0082708644 -0.063409954 0.77004045
0.0074325115 0.049903989 0.72629523
0.0074189501 0.048753113 0.72602761
0.0073937862 0.047531456 0.72553104
0.007350917 0.046205789 0.72468507
0.0073086191 0.044895828 0.72385043
0.0072668558 0.043601155 0.72302628
0.0072258427 0.042322814 0.72221696
0.0071854391 0.041059673 0.72141969
0.0071589504 0.039885581 0.72089696
0.0071535138 0.03883341 0.72078961
0.0071635325 0.037864387 0.72098738
0.0071788728 0.036919922 0.72129005
0.0071944036 0.035972029 0.72159654
0.0072102509 0.035021245 0.72190928
0.0072261435 0.034066141 0.72222292
0.007242132 0.033106893 0.72253847
0.0072581908 0.032143444 0.72285527
0.0072742957 0.031175554 0.72317314
0.0072904718 0.030203372 0.72349232
0.0073070284 0.029228151 0.72381902
0.0073237889 0.028248936 0.72414976
0.0073406007 0.027265131 0.72448152
0.0073574898 0.026276797 0.72481477
0.0073744832 0.025283962 0.72515017
0.0073915287 0.024286479 0.72548646
0.0074088112 0.023284853 0.72582752
0.0074263867 0.022279173 0.72617429
0.0074440995 0.021268845 0.72652388
0.0074618966 0.020253718 0.72687513
0.007479779 0.019233733 0.72722793
0.0074977474 0.018208832 0.72758257
0.007515884 0.017179191 0.72794044
0.007534408 0.0161452 0.72830594
0.0075530782 0.015106171 0.72867441
0.0075718695 0.014062047 0.72904521
0.0075907265 0.013012707 0.72941726
0.0076097054 0.011958122 0.72979182
0.0076288073 0.010898322 0.7301687
0.0076483991 0.0098336935 0.73055536
0.0076680914 0.0087635517 0.73094398
0.0076879133 0.0076879263 0.7313351
0.0077078384 0.0066067278 0.73172832
0.0077278679 0.0055199265 0.73212355
0.0077482611 0.0044276118 0.73252594
0.0077688769 0.0033295453 0.73293281
0.0077897203 0.0022256374 0.73334414
0.0078106755 0.0011158288 0.73375756
0.0078317439 -0 0.73417336
0.0078531038 -0.0011218488 0.73459482
0.0078746695 -0.0022498965 0.73502046
0.0078966543 -0.0033842623 0.7354542
0.007918763 -0.0045250058 0.73589051
0.0079410234 -0.0056721568 0.73632985
0.007963473 -0.0068258345 0.73677284
0.0079861712 -0.0079861283 0.7372207
0.0080093378 -0.0091535151 0.73767787
0.0080326712 -0.010327697 0.73813832
0.0080561088 -0.011508703 0.73860079
0.008079716 -0.012696683 0.7390666
0.0081038401 -0.013892233 0.73954272
0.0081281718 -0.015095115 0.74002284
0.0081527773 -0.016305536 0.74050838
0.0081775654 -0.017523319 0.74099755
0.008202794 -0.018749207 0.74149537
0.0082283104 -0.019983023 0.74199891
0.0082540512 -0.021224678 0.74250692
0.0082801841 -0.022474796 0.74302256
0.0083066812 -0.023733348 0.74354541
0.0083333487 -0.025000036 0.74407172
0.0083604241 -0.026275605 0.74460596
0.0083880471 -0.027560741 0.74515104
0.0084158182 -0.028854221 0.74569905
0.0084438091 -0.030156434 0.74625134
0.0084725032 -0.031469285 0.74681765
0.0085015334 -0.032791585 0.74739045
0.0085307611 -0.034123033 0.7479673
0.0085605793 -0.03546527 0.74855566
0.0085908901 -0.036818057 0.74915379
0.0086214151 -0.03818053 0.74975616
0.0086526265 -0.039554864 0.75037205
0.0086843176 -0.040940374 0.75099748
0.0087162787 -0.042336166 0.7516281
0.0087489905 -0.043744922 0.75227362
0.0087821716 -0.045165449 0.75292838
0.0088156052 -0.046596766 0.75358814
0.0088500082 -0.048042864 0.75426704
0.0088848704 -0.049501389 0.75495499
0.008920162 -0.050972313 0.75565141
0.0089813517 -0.052605033 0.75685894
0.0091428775 -0.054857254 0.7600463
0.0093966378 -0.057722181 0.76505387
0.0096648419 -0.060750425 0.7703464
0.0097422283 -0.062628627 0.77187347
0.0097749354 -0.06423527 0.77251887
0.008493905 0.049901694 0.72628838
0.0084798271 0.048759043 0.72604537
0.0084576411 0.047574222 0.72566229
0.0084095411 0.046252489 0.7248317
0.0083616022 0.044943601 0.72400391
0.0083142649 0.043649942 0.72318661
0.0082675181 0.042371064 0.72237945
0.008221494 0.041107476 0.7215848
0.0081853168 0.039903432 0.72096014
0.0081771584 0.038841486 0.72081923
0.0081855701 0.037858278 0.72096449
0.0082035204 0.036915869 0.72127444
0.008221522 0.035969168 0.72158527
0.0082396315 0.035018474 0.72189796
0.008258163 0.034064949 0.72221792
0.0082768947 0.033107579 0.72254133
0.0082956823 0.032145798 0.72286582
0.0083145853 0.031179696 0.7231921
0.0083335442 0.030209124 0.7235195
0.0083525898 0.029234082 0.72384834
0.00837187 0.028255105 0.72418129
0.0083915656 0.027272612 0.72452134
0.0084113544 0.026285499 0.72486305
0.0084312353 0.025293738 0.72520638
0.0084512122 0.024297267 0.72555125
0.0084712533 0.023295969 0.72589731
0.0084915403 0.022290319 0.72624755
0.0085121989 0.021280557 0.72660422
0.008533082 0.020266056 0.72696489
0.0085540358 0.019246608 0.72732663
0.008575093 0.018222094 0.72769022
0.0085962852 0.017192602 0.72805619
0.0086176135 0.016158044 0.72842443
0.008639425 0.015118986 0.72880107
0.0086614406 0.014074862 0.72918117
0.0086835697 0.013025373 0.7295633
0.0087058116 0.01197052 0.72994733
0.008728168 0.010910243 0.73033333
0.0087508336 0.0098447204 0.73072469
0.0087738102 0.0087738335 0.73112142
0.0087971026 0.007697463 0.73152357
0.0088204872 0.0066153705 0.73192739
0.0088439956 0.0055274963 0.73233324
0.008867763 0.0044339001 0.73274368
0.0088917902 0.0033344328 0.73315859
0.0089162495 0.0022290945 0.73358083
0.0089409109 0.0011176467 0.7340067
0.0089656748 -0 0.73443425
0.0089907469 -0.0011238456 0.73486716
0.0090159588 -0.0022539794 0.73530251
0.0090417592 -0.00339064 0.73574799
0.0090677431 -0.0045338571 0.73619664
0.0090939114 -0.0056836605 0.7366485
0.0091201952 -0.0068401098 0.73710227
0.009146913 -0.0080035329 0.73756367
0.0091740359 -0.0091740191 0.73803198
0.009201427 -0.010351598 0.73850495
0.0092290537 -0.0115363 0.7389819
0.0092569189 -0.012728274 0.73946309
0.0092853503 -0.013927996 0.73995399
0.0093139578 -0.015135139 0.74044794
0.0093430728 -0.016350359 0.74095064
0.0093723694 -0.017573178 0.74145651
0.0094020739 -0.018804133 0.74196947
0.009432042 -0.020043105 0.74248683
0.0094627663 -0.021291226 0.74301738
0.0094936909 -0.022547513 0.74355137
0.0095248567 -0.023812115 0.74408948
0.0095564201 -0.025085598 0.74463445
0.0095887333 -0.026369005 0.74519241
0.0096212281 -0.027661026 0.74575341
0.0096541001 -0.028962284 0.74632102
0.0096877506 -0.030274212 0.74690205
0.009721715 -0.031595558 0.7474885
0.009756078 -0.032926768 0.74808186
0.0097912094 -0.034269214 0.7486884
0.009826716 -0.035621852 0.74930155
0.0098626455 -0.036984891 0.74992192
0.0098995371 -0.038360715 0.75055897
0.0099367071 -0.039746791 0.75120068
0.0099743241 -0.041144073 0.75185025
0.01001307 -0.042555541 0.75251925
0.010052076 -0.043977797 0.75319278
0.010091943 -0.045413703 0.7538811
0.010132645 -0.046863467 0.7545839
0.010173677 -0.048324943 0.75529236
0.010216051 -0.049803227 0.756024
0.010258914 -0.051294535 0.75676411
0.010372743 -0.05316028 0.75872952
0.010610943 -0.055707455 0.76284248
0.011133768 -0.059843987 0.7718699
0.011259753 -0.06192863 0.77404523
0.011298896 -0.063556254 0.77472103
0.009559636 0.049922526 0.72634971
0.0095444666 0.048782855 0.72611684
0.0095238183 0.047619104 0.72579998
0.0094727874 0.046311408 0.72501671
0.0094191497 0.045002639 0.72419351
0.0093661826 0.043708891 0.72338057
0.0093138404 0.042429715 0.72257715
0.0092620468 0.041164696 0.72178227
0.0092178369 0.039943963 0.72110379
0.009203732 0.038860232 0.72088724
0.009210065 0.037863612 0.72098446
0.0092296936 0.036918789 0.7212857
0.0092504909 0.035974145 0.72160482
0.0092713507 0.03502512 0.72192508
0.0092923045 0.034071803 0.72224665
0.0093135796 0.03311497 0.72257316
0.0093352469 0.032154769 0.7229057
0.0093569811 0.031189948 0.7232393
0.0093788505 0.030220747 0.723575
0.0094008222 0.029247046 0.72391224
0.0094228964 0.028268695 0.72425103
0.0094451429 0.027285993 0.72459245
0.0094678942 0.026299715 0.72494161
0.0094908243 0.025308907 0.72529358
0.0095138652 0.024313211 0.72564715
0.0095370524 0.023312807 0.72600305
0.0095603187 0.022307426 0.72636014
0.0095837675 0.021297276 0.72672009
0.0096077463 0.020283014 0.72708809
0.0096319122 0.019263834 0.72745895
0.0096562374 0.018239558 0.72783232
0.0096806837 0.017210096 0.72820759
0.0097052557 0.016175479 0.72858465
0.0097300578 0.015135646 0.72896534
0.0097553432 0.014091074 0.72935343
0.0097809033 0.013041198 0.72974575
0.0098065976 0.011985838 0.73014009
0.0098324269 0.010924935 0.73053658
0.0098583931 0.0098583996 0.73093504
0.009884825 0.0087865293 0.73134071
0.0099116564 0.0077090859 0.73175251
0.0099387076 0.0066258609 0.73216772
0.0099659432 0.0055366457 0.73258579
0.0099934042 0.0044415593 0.73300719
0.010021054 0.0033403635 0.73343158
0.010049272 0.0022331774 0.73386467
0.010077802 0.0011197627 0.73430252
0.010106494 2.9802322e-08 0.73474288
0.010135387 -0.0011261404 0.7351864
0.010164447 -0.0022587478 0.73563236
0.010194256 -0.0033980906 0.73608994
