# .PCD v0.7 - Point Cloud Data file format
VERSION 0.7
FIELDS x y z
SIZE 4 4 4
TYPE F F F
COUNT 1 1 1
WIDTH 1305
HEIGHT 1
VIEWPOINT 0 0 0 1 0 0 0
POINTS 1305
DATA ascii
-0.030859908 0.0012344122 0.75013816
-0.030931937 -0 0.75053614
-0.031018658 -0.0012407303 0.75101531
-0.031123443 -0.002489835 0.75159431
-0.031248627 -0.0037498176 0.75228596
-0.03139735 -0.0050235689 0.75310767
-0.03157777 -0.0063155293 0.75410461
-0.031796142 -0.0076310635 0.75531113
-0.032067124 -0.0089787543 0.7568084
-0.032421891 -0.010374963 0.75876856
-0.032928195 -0.011854142 0.76156616
-0.033948947 -0.013579577 0.76720613
-0.035232931 0.052849412 0.78241187
-0.034527659 0.050352842 0.77835262
-0.032383975 0.045877337 0.76601464
-0.032033127 0.044045568 0.76399523
-0.031796668 0.042395592 0.76263428
-0.031576242 0.040785998 0.76136565
-0.031372081 0.039215147 0.76019061
-0.03118185 0.037678093 0.75909567
-0.031004142 0.036171526 0.75807297
-0.030837907 0.034692645 0.75711614
-0.03068307 0.03323999 0.75622499
-0.030538661 0.031811118 0.75539386
-0.030403892 0.030403882 0.75461817
-0.030277496 0.029015929 0.75389069
-0.030159667 0.027646393 0.75321245
-0.030050213 0.026293963 0.75258255
-0.029948335 0.024956942 0.75199616
-0.029854387 0.023634762 0.75145543
-0.029767975 0.022326022 0.75095814
-0.029688358 0.021029264 0.7504999
-0.029615805 0.01974389 0.75008231
-0.029550204 0.018468916 0.74970472
-0.029491719 0.01720354 0.74936813
-0.029440263 0.015946805 0.74907196
-0.02939504 0.014697522 0.74881166
-0.029356955 0.013455302 0.7485925
-0.029325956 0.012219161 0.74841404
-0.029302238 0.010988355 0.74827754
-0.029285528 0.0097618699 0.74818134
-0.029276516 0.008539021 0.74812949
-0.029274596 0.0073186755 0.74811846
-0.029280961 0.0061002374 0.74815512
-0.029295743 0.0048826635 0.74824017
-0.029319571 0.0036649704 0.74837732
-0.029354298 0.0024462342 0.74857718
-0.029398672 0.0012249649 0.74883258
-0.029455451 2.9802322e-08 0.7491594
-0.029525757 -0.0012302101 0.74956405
-0.029609783 -0.0024674535 0.75004768
-0.029710727 -0.0037138164 0.75062865
-0.0298323 -0.0049720407 0.75132835
-0.029976005 -0.0062449872 0.75215548
-0.030149221 -0.0075372756 0.75315237
-0.030360179 -0.008855015 0.75436658
-0.030623039 -0.010207653 0.7558794
-0.030966211 -0.011612326 0.75785458
-0.031460445 -0.013108522 0.76069921
-0.032530535 -0.014909804 0.7668581
-0.033886835 0.053040296 0.78314418
-0.031808186 0.04840377 0.77066028
-0.03093471 0.045729607 0.76541442
-0.030677348 0.044015348 0.76386875
-0.030441429 0.042353332 0.76245195
-0.030221526 0.040733367 0.76113123
-0.030018471 0.039154559 0.75991166
-0.029829308 0.037610859 0.75877565
-0.029652281 0.03609845 0.75771248
-0.029487383 0.034615666 0.75672209
-0.029333865 0.033160061 0.75580013
-0.029189907 0.031728178 0.75493556
-0.029055499 0.030318797 0.75412834
-0.028930029 0.028930038 0.75337476
-0.028812313 0.027559608 0.75266778
-0.028703136 0.026207238 0.75201207
-0.028601719 0.024871081 0.75140297
-0.028507074 0.023549378 0.75083464
-0.028419664 0.022241503 0.75030959
-0.028339362 0.020946503 0.74982738
-0.0282657 0.019663095 0.74938494
-0.028198233 0.018390149 0.74897975
-0.028137568 0.017127216 0.74861544
-0.028083388 0.015873224 0.74829006
-0.028035849 0.014627397 0.74800456
-0.027994428 0.013388634 0.74775577
-0.027959639 0.012156397 0.74754679
-0.027931439 0.010929704 0.7473774
-0.027909899 0.0097078383 0.74724805
-0.027895672 0.008490026 0.74716258
-0.02788862 0.0072753429 0.74712032
-0.027887939 0.006062597 0.74711621
-0.027894991 0.0048513114 0.74715853
-0.027910242 0.0036404729 0.7472502
-0.027933834 0.0024290383 0.74739188
-0.027968444 0.001216054 0.74759966
-0.028012197 2.9802322e-08 0.74786246
-0.028067024 -0.0012202859 0.74819177
-0.028135484 -0.0024465322 0.74860293
-0.028216729 -0.0036804378 0.74909085
-0.02831414 -0.0049241781 0.74967587
-0.028431477 -0.0061807334 0.75038064
-0.028570538 -0.0074531436 0.7512157
-0.028737143 -0.0087460876 0.75221634
-0.028940311 -0.010066181 0.75343657
-0.029194392 -0.011423856 0.75496244
-0.02952544 -0.012837112 0.75695068
-0.030008329 -0.014351785 0.75985086
-0.031182626 -0.016269177 0.7669034
-0.032614984 0.053369969 0.7844094
-0.030025061 0.047767133 0.76814783
-0.029587314 0.045725852 0.76539928
-0.029330133 0.043995202 0.76378453
-0.0290951 0.042320162 0.76230884
-0.02887629 0.04068929 0.76093495
-0.028674435 0.039101541 0.75966758
-0.028486418 0.0375503 0.75848699
-0.02831077 0.036031872 0.75738418
-0.028147563 0.034544796 0.75635946
-0.027995091 0.033085108 0.75540215
-0.027852319 0.031650394 0.75450563
-0.02771851 0.03023842 0.75366551
-0.027593659 0.028847933 0.75288159
-0.027477428 0.027477443 0.75215185
-0.027368465 0.026124448 0.7514677
-0.027267294 0.024788469 0.75083244
-0.027173188 0.023467779 0.75024158
-0.027085444 0.022160828 0.74969065
-0.027004173 0.020866871 0.74918038
-0.026929593 0.019585162 0.74871212
-0.026861599 0.018314749 0.74828523
-0.026798775 0.017053753 0.74789071
-0.026742801 0.015802592 0.74753928
-0.026692832 0.014559746 0.74722552
-0.026649127 0.013324589 0.7469511
-0.026611514 0.012096167 0.74671495
-0.026579946 0.010873646 0.7465167
-0.02655481 0.0096563101 0.74635893
-0.026535533 0.0084431469 0.74623787
-0.026523056 0.0072335899 0.74615949
-0.026517466 0.0060266852 0.74612445
-0.026517678 0.0048214197 0.74612582
-0.026525527 0.0036171377 0.74617505
-0.026540915 0.0024128258 0.74627173
-0.026565161 0.0012075603 0.7464239
-0.026598424 2.9802322e-08 0.74663275
-0.026641423 -0.001210928 0.7469027
-0.026694357 -0.0024267733 0.74723512
-0.02676085 -0.0036491752 0.74765259
-0.02683989 -0.0048799515 0.7481488
-0.026933694 -0.0061212778 0.74873781
-0.027046146 -0.007376194 0.74944389
-0.027180074 -0.0086481869 0.75028479
-0.027340675 -0.0099420249 0.75129318
-0.02753629 -0.011264831 0.7525214
-0.027781006 -0.012627721 0.75405794
-0.028102227 -0.01405108 0.75607479
-0.028571632 -0.015584499 0.75902206
-0.031429853 0.053879797 0.78636533
-0.028535226 0.047558695 0.76732522
-0.028248567 0.045735836 0.76543963
-0.027991297 0.04398632 0.76374733
-0.027757041 0.042296469 0.76220649
-0.027539421 0.040653467 0.76077503
-0.0273393 0.039056122 0.75945872
-0.027152451 0.037496239 0.75822967
-0.026978856 0.03597182 0.75708777
-0.026817365 0.034479469 0.75602555
-0.02666622 0.033015341 0.75503135
-0.026524877 0.031577259 0.75410163
-0.026392609 0.03016299 0.75323159
-0.026269162 0.028770983 0.75241959
-0.026154093 0.02739954 0.75166261
-0.026046 0.026046008 0.75095171
-0.025945047 0.024709582 0.75028771
-0.025851291 0.02338928 0.74967098
-0.025763845 0.022083282 0.7490958
-0.025682477 0.020790607 0.74856055
-0.025607292 0.019510359 0.74806601
-0.025538284 0.018241644 0.74761206
-0.025475364 0.016983569 0.74719816
-0.025417821 0.015734851 0.74681967
-0.025366511 0.014495134 0.74648213
-0.025320644 0.013263226 0.74618047
-0.02528026 0.012038261 0.74591482
-0.025245721 0.010819614 0.7456876
-0.025217177 0.00960657 0.74549985
-0.025194695 0.0083982646 0.74535203
-0.025177531 0.0071935952 0.74523914
-0.025166776 0.0059921145 0.74516839
-0.025162516 0.0047928691 0.74514037
-0.025163732 0.0035948455 0.7451483
-0.025171949 0.0023973286 0.74520242
-0.025188193 0.0011994839 0.74530923
-0.025212189 2.9802322e-08 0.74546707
-0.025244597 -0.0012021065 0.74568033
-0.02528681 -0.0024082363 0.74595791
-0.025337901 -0.0036196709 0.74629396
-0.025401795 -0.004838407 0.74671429
-0.025478274 -0.0060662329 0.7472173
-0.025568604 -0.0073052943 0.7478115
-0.02567572 -0.0085585713 0.74851608
-0.025804829 -0.0098303854 0.74936533
-0.025959067 -0.011125296 0.75037986
-0.026146866 -0.012450904 0.75161517
-0.026382016 -0.013819128 0.75316191
-0.02669289 -0.015253067 0.75520682
-0.027148673 -0.016806275 0.75820482
-0.03018919 0.054340512 0.7881335
-0.027200393 0.047600716 0.76749092
-0.026917033 0.045758963 0.7655338
-0.026660411 0.043989748 0.7637614
-0.026426705 0.04228276 0.76214731
-0.026210684 0.040626585 0.76065528
-0.026012264 0.039018422 0.75928491
-0.025827251 0.037449509 0.75800711
-0.0256558 0.035918176 0.75682294
-0.025496338 0.034420103 0.75572151
-0.025346942 0.032951057 0.75468969
-0.025207296 0.031509131 0.75372529
-0.025076896 0.030092329 0.75282466
-0.024954956 0.028698206 0.75198245
-0.024841042 0.027325153 0.75119567
-0.024734538 0.025971293 0.75046009
-0.024634453 0.02463448 0.74976885
-0.024541045 0.023313969 0.74912369
-0.024454271 0.022008866 0.74852437
-0.024373405 0.020717442 0.74796587
-0.024298528 0.019438803 0.74744874
-0.024229437 0.018172115 0.74697155
-0.024165748 0.016916037 0.74653167
-0.024107469 0.015669882 0.7461291
-0.024054628 0.014432788 0.7457642
-0.024007441 0.013204098 0.74543834
-0.023965558 0.011982799 0.74514902
-0.023928631 0.010767937 0.74489403
-0.023897193 0.0095589459 0.74467683
-0.023871299 0.0083549917 0.74449801
-0.023851005 0.007155329 0.74435782
-0.023835808 0.0059589744 0.74425286
-0.023826547 0.0047653317 0.7441889
-0.023823397 0.0035735071 0.74416721
-0.023825495 0.0023825467 0.74418169
-0.023834758 0.0011917651 0.74424565
-0.023851005 -0 0.74435788
-0.023874748 -0.001193732 0.74452186
-0.023906127 -0.0023905933 0.74473858
-0.023947321 -0.0035920739 0.74502307
-0.023996884 -0.0047993362 0.74536538
-0.024058033 -0.0060144663 0.74578768
-0.024131725 -0.0072394907 0.7462967
-0.024218291 -0.0084764063 0.74689454
-0.024321182 -0.0097284913 0.7476052
-0.024444323 -0.010999918 0.74845564
-0.024592184 -0.012296051 0.74947691
-0.024772137 -0.013624638 0.75071979
-0.024997326 -0.014998406 0.75227511
-0.025297781 -0.016443551 0.75435019
-0.0257433 -0.018020302 0.75742733
-0.026603669 0.050406992 0.77304012
-0.025878362 0.047670692 0.76776707
-0.025592607 0.045797348 0.76568949
-0.025336476 0.044005454 0.76382744
-0.025103362 0.042279363 0.76213264
-0.024889071 0.040608495 0.76057482
-0.024692753 0.03898859 0.75914747
-0.024510132 0.037410229 0.75781983
-0.024340989 0.035870939 0.75659013
-0.024183581 0.034366131 0.75544572
-0.024036471 0.032892048 0.75437623
-0.023899024 0.031446099 0.75337696
-0.023770837 0.030026346 0.75244498
-0.023650946 0.028630108 0.75157344
-0.023538236 0.02725485 0.750754
-0.023433106 0.025899768 0.74998969
-0.023334788 0.024562955 0.74927485
-0.023242643 0.023242652 0.74860501
-0.023156727 0.021937966 0.74798036
-0.023076814 0.020647675 0.74739939
-0.023002224 0.019370317 0.74685705
-0.02293314 0.018105119 0.74635488
-0.022869468 0.016851187 0.74589199
-0.022811122 0.015607625 0.74546772
-0.022757377 0.014373094 0.74507707
-0.022708811 0.013147265 0.74472392
-0.022665452 0.011929214 0.74440873
-0.022627242 0.010718197 0.74413097
-0.022593495 0.0095130801 0.74388558
-0.022564804 0.0083133578 0.74367702
-0.0225414 0.0071183443 0.74350685
-0.022523429 0.0059272647 0.7433762
-0.022510329 0.0047390163 0.74328101
-0.02250253 0.0035530329 0.74322426
-0.02250029 0.00236848 0.74320799
-0.022503426 0.0011844039 0.74323076
-0.022512931 2.9802322e-08 0.7432999
-0.022529177 -0.001185745 0.74341798
-0.022552826 -0.0023739636 0.74358994
-0.022582749 -0.0035656691 0.74380749
-0.022622894 -0.0047627091 0.74409932
-0.022670727 -0.0059659481 0.74444711
-0.022729183 -0.0071776211 0.74487209
-0.022799799 -0.0083999634 0.74538547
-0.02288262 -0.0096347332 0.74598753
-0.022981456 -0.010885954 0.74670613
-0.023098322 -0.012157023 0.74755579
-0.023239776 -0.013454616 0.74858415
-0.02341165 -0.014786273 0.74983364
-0.023627803 -0.016166359 0.75140512
-0.023916626 -0.017622799 0.75350499
-0.024350533 -0.019224077 0.75665951
-0.024927326 0.049854636 0.77092099
-0.024564041 0.047763437 0.7681331
-0.024276083 0.045854837 0.76592332
-0.024019239 0.044035286 0.76395226
-0.023786994 0.042288005 0.76216996
-0.023574552 0.040600628 0.76053965
-0.023380361 0.038967341 0.75904948
-0.023200098 0.037377954 0.75766611
-0.023033887 0.035830528 0.75639057
-0.022878936 0.034318417 0.75520152
-0.022734161 0.032838255 0.75409049
-0.022599697 0.031388462 0.75305867
-0.022473887 0.029965192 0.7520932
-0.02235591 0.028565884 0.7511878
-0.022245359 0.027188808 0.75033939
-0.022142028 0.025832385 0.74954647
-0.02204537 0.024494886 0.74880475
-0.021954866 0.023174614 0.74811018
-0.021870194 0.021870226 0.74746037
-0.021791315 0.020580709 0.74685502
-0.02171785 0.019304812 0.74629128
-0.021649165 0.018040985 0.74576426
-0.021585613 0.01678884 0.74527651
-0.021527193 0.015547425 0.74482822
-0.021473655 0.014315784 0.74441731
-0.021424152 0.013092577 0.74403751
-0.02137983 0.011877716 0.74369729
-0.021340113 0.010670066 0.74339253
-0.021305291 0.0094690025 0.74312526
-0.021274725 0.0082735419 0.74289078
-0.021248799 0.0070829391 0.74269176
-0.021227563 0.0058965683 0.74252886
-0.021211583 0.0047137141 0.74240613
-0.021200411 0.0035334229 0.74232042
-0.021194199 0.0023549199 0.74227279
-0.021192772 0.0011774004 0.74226183
-0.021196632 2.9802322e-08 0.74229145
-0.021206371 -0.0011781156 0.74236625
-0.021222346 -0.0023580194 0.74248874
-0.021245763 -0.0035409033 0.74266845
-0.021274637 -0.0047276616 0.74289006
-0.021313095 -0.0059202909 0.74318516
-0.021359526 -0.0071198046 0.74354148
-0.021414723 -0.008327961 0.74396509
-0.021482445 -0.0095477402 0.74448484
-0.021561356 -0.010780662 0.74509037
-0.021655908 -0.012031049 0.74581593
-0.021767303 -0.013302207 0.74667084
-0.021901511 -0.014600992 0.74770069
-0.022065364 -0.015936077 0.74895811
-0.022272848 -0.017323315 0.75055039
-0.022548769 -0.018790632 0.75266784
-0.022970926 -0.020418584 0.75590748
-0.023597525 0.049971282 0.77136827
-0.023257965 0.047884047 0.76860917
-0.022966051 0.045932114 0.76623726
-0.022707965 0.044080198 0.76414019
-0.022476481 0.042308688 0.76225924
-0.022266129 0.040602952 0.76055008
-0.022074511 0.038955033 0.75899303
-0.02189716 0.037353992 0.75755203
-0.021733841 0.03579697 0.75622493
-0.021581687 0.034276813 0.75498867
-0.021440104 0.03279075 0.75383818
-0.021308534 0.031336099 0.75276923
-0.021185225 0.029908568 0.75176728
-0.021069655 0.028506011 0.75082821
-0.020961681 0.027126908 0.74995083
-0.020860404 0.025768727 0.74912792
-0.020765899 0.024430484 0.74836004
-0.02067757 0.023110241 0.74764228
-0.020594351 0.021805793 0.74696606
-0.020516628 0.020516634 0.74633455
-0.020444283 0.019241691 0.74574673
-0.020376798 0.017979532 0.74519843
-0.020313757 0.016728997 0.74468613
-0.020255486 0.015489519 0.74421269
-0.020201905 0.014260173 0.74377733
-0.020153023 0.013040185 0.74338019
-0.020107977 0.011828244 0.7430141
-0.020067513 0.010624021 0.74268532
-0.020031018 0.0094263852 0.74238878
-0.019999482 0.0082350969 0.74213254
-0.019971909 0.0070489347 0.74190843
-0.01994874 0.0058672726 0.74172026
-0.019929867 0.0046893954 0.74156684
-0.019915344 0.0035144687 0.74144888
-0.019905699 0.0023418665 0.7413705
-0.019901076 0.0011706948 0.74133289
-0.019900216 -0 0.74132591
-0.019904759 -0.0011708736 0.74136281
-0.019914716 -0.0023428798 0.74144375
-0.019930419 -0.0035170913 0.74157131
-0.019953309 -0.0046948791 0.74175733
-0.019981461 -0.0058768988 0.74198604
-0.020017775 -0.0070650876 0.74228108
-0.020062815 -0.0082611144 0.74264717
-0.020115338 -0.0094660521 0.74307394
-0.02017941 -0.010683209 0.74359453
-0.020254347 -0.011914313 0.74420345
-0.020344412 -0.013163984 0.74493515
-0.020450568 -0.014435679 0.74579781
-0.020577922 -0.015736014 0.74683261
-0.020733707 -0.017074794 0.74809843
-0.020931222 -0.018468708 0.74970329
-0.021194018 -0.01994729 0.75183868
-0.021602897 -0.021602869 0.75516105
-0.022309713 0.050196886 0.77223396
-0.021958336 0.048033863 0.76920044
-0.021661552 0.04603079 0.76663822
-0.021402389 0.044142425 0.76440072
-0.021171464 0.042342931 0.76240712
-0.020963557 0.0406169 0.76061225
-0.020774288 0.038951814 0.75897819
-0.02060017 0.03733781 0.75747502
-0.020440266 0.035770476 0.75609446
-0.020291302 0.034241587 0.75480843
-0.020153197 0.032748967 0.75361615
-0.020024708 0.031288594 0.75250685
-0.019904422 0.029856652 0.75146836
-0.019791663 0.028450549 0.7504949
-0.019686444 0.027068883 0.74958658
-0.019588141 0.02570945 0.74873781
-0.019495687 0.024369627 0.74793965
-0.019409247 0.02304849 0.7471934
-0.019328436 0.021744519 0.74649572
-0.019252189 0.02045545 0.74583745
-0.019181024 0.019181013 0.7452231
-0.019114837 0.017920166 0.74465168
-0.019053223 0.016671598 0.7441197
-0.018995948 0.015434235 0.74362528
-0.018942861 0.014207214 0.74316692
-0.018893821 0.012989551 0.74274361
-0.01884884 0.01178053 0.74235529
-0.018808162 0.010579616 0.74200404
-0.018771507 0.0093857646 0.7416876
-0.018738685 0.0081982017 0.74140429
-0.018709656 0.0070161223 0.7411536
-0.018684752 0.00583902 0.74093854
-0.018664157 0.0046660602 0.7407608
-0.018647553 0.0034964085 0.74061751
-0.018634774 0.0023293495 0.74050719
-0.018626384 0.0011641979 0.74043465
-0.018622812 2.9802322e-08 0.74040389
-0.018622667 -0.0011638999 0.74040264
-0.018627625 -0.0023284256 0.74044544
-0.01863762 -0.0034945309 0.74053174
-0.01865289 -0.0046631992 0.74066353
-0.018675292 -0.0058360398 0.74085695
-0.018702522 -0.0070134103 0.74109203
-0.018737137 -0.0081974864 0.74139088
-0.018780177 -0.0093900859 0.74176246
-0.018830191 -0.010591954 0.74219424
-0.018890595 -0.011806607 0.74271572
-0.018962033 -0.01303634 0.74333245
-0.019046817 -0.014285147 0.74406445
-0.019147603 -0.015557408 0.74493456
-0.019268248 -0.01685968 0.74597609
-0.019415742 -0.018202245 0.74724948
-0.019603394 -0.019603372 0.74886954
-0.019852187 -0.021092921 0.75101745
-0.020247182 -0.022778064 0.75442755
-0.021037465 0.050489932 0.77335852
-0.020668346 0.048226148 0.76995933
-0.020363418 0.046157122 0.7671513
-0.020101536 0.044223428 0.76473963
-0.019871589 0.04239279 0.76262212
-0.019666072 0.040643215 0.76072955
-0.019479636 0.038959324 0.75901264
-0.019308981 0.037330747 0.75744104
-0.019152464 0.035751283 0.7559998
-0.01900729 0.034213126 0.75466287
-0.018872999 0.032713205 0.75342625
-0.018747836 0.031246394 0.75227368
-0.01863086 0.029809386 0.75119638
-0.018521557 0.028399736 0.7501899
-0.018419614 0.027015448 0.74925113
-0.01832398 0.025653571 0.74837041
-0.018234249 0.024312377 0.74754405
-0.018149974 0.022989959 0.746768
-0.018071154 0.021685421 0.74604213
-0.017997589 0.020397305 0.74536467
-0.01792844 0.019123673 0.74472797
-0.017863898 0.017863929 0.74413359
-0.017803656 0.016616791 0.74357885
-0.017747276 0.015380979 0.74305958
-0.017695041 0.014156073 0.74257857
-0.017647021 0.012941182 0.74213636
-0.017602593 0.011735111 0.74172723
-0.017561639 0.010536999 0.74135017
-0.017524593 0.0093464851 0.74100894
-0.017491335 0.0081626475 0.74070263
-0.017461963 0.0069848299 0.7404322
-0.017435687 0.0058118999 0.74019027
-0.017413296 0.0046435595 0.73998398
-0.01739469 0.0034789741 0.73981267
-0.017380187 0.0023173392 0.73967916
-0.017368954 0.0011579394 0.73957568
-0.017361857 2.9802322e-08 0.7395103
-0.017359152 -0.001157254 0.73948544
-0.017359694 -0.0023146272 0.73949039
-0.017364966 -0.0034729838 0.73953897
-0.017374838 -0.0046333075 0.73962992
-0.017390147 -0.0057966709 0.73977089
-0.017411323 -0.0069645345 0.73996592
-0.017437732 -0.0081375837 0.74020904
-0.017470375 -0.0093175173 0.74050969
-0.017511316 -0.010506779 0.74088669
-0.017558737 -0.011705816 0.74132335
-0.017615523 -0.012918025 0.74184632
-0.017683327 -0.014146626 0.74247074
-0.01776275 -0.01539436 0.74320209
-0.017858107 -0.016667545 0.74408025
-0.017971851 -0.017971843 0.74512768
-0.018110918 -0.019318312 0.74640834
-0.018288597 -0.020727038 0.74804455
-0.018524636 -0.022229552 0.75021821
-0.018905392 -0.023946792 0.75372452
-0.019785 0.050875753 0.77483881
-0.019387018 0.048467547 0.77091205
-0.019071762 0.04631716 0.76780152
-0.018806774 0.044330269 0.76518703
-0.018576773 0.042461187 0.7629177
-0.018372901 0.040682912 0.7609061
-0.018189572 0.038977653 0.75909734
-0.018022574 0.037332505 0.75744963
-0.017870186 0.035740405 0.75594604
-0.017729033 0.034191728 0.75455338
-0.017598717 0.032683372 0.75326753
-0.017477341 0.031209558 0.75206995
-0.017364074 0.029766977 0.75095242
-0.017258912 0.028353959 0.74991482
-0.017160179 0.026965976 0.74894071
-0.017067678 0.025601536 0.74802798
-0.016980875 0.024258435 0.74717152
-0.016899612 0.022935212 0.74636978
-0.016823474 0.021630198 0.74561852
-0.016752131 0.020341903 0.74491465
-0.016685199 0.019068837 0.74425423
-0.016622515 0.017809838 0.74363571
-0.016564056 0.016564101 0.74305892
-0.016509477 0.015330225 0.74252045
-0.016458377 0.014107168 0.7420162
-0.016411021 0.012894392 0.74154896
-0.016367409 0.011691034 0.74111867
-0.016327359 0.010496199 0.74072349
-0.016290179 0.0093086958 0.74035668
-0.01625685 0.0081284642 0.7400279
-0.016226819 0.0069543421 0.73973155
-0.016200364 0.0057858825 0.73947054
-0.016176758 0.004621923 0.73923767
-0.016156735 0.0034621656 0.73904002
-0.016140325 0.0023057759 0.73887813
-0.016127571 0.001151979 0.73875237
-0.016117893 2.9802322e-08 0.73865676
-0.016111782 -0.0011508465 0.73859656
-0.01610991 -0.0023013949 0.73857796
-0.01611097 -0.0034523308 0.73858851
-0.016116522 -0.0046046972 0.73864329
-0.016126635 -0.0057595372 0.73874307
-0.016141452 -0.0069177449 0.73888922
-0.01616125 -0.0080806017 0.7390846
-0.016186949 -0.0092496574 0.73933816
-0.016217338 -0.010425419 0.73963797
-0.016256152 -0.011611521 0.74002099
-0.016301278 -0.012808144 0.74046618
-0.016354101 -0.014017761 0.74098742
-0.016418075 -0.015245318 0.74161863
-0.01649254 -0.016492516 0.74235332
-0.016581802 -0.017766207 0.74323404
-0.016688678 -0.019072741 0.7442885
-0.016819263 -0.020423383 0.74557692
-0.016986556 -0.021839827 0.74722761
-0.017209334 -0.023355484 0.74942565
-0.01757873 -0.02511245 0.75307035
-0.018574798 0.051437914 0.7769959
-0.018117636 0.048778296 0.7721383
-0.017786156 0.04651767 0.76861614
-0.017515808 0.044463247 0.76574355
-0.017285492 0.042548925 0.76329625
-0.017083693 0.040738076 0.76115203
-0.016903535 0.03900817 0.75923783
-0.016740682 0.037344605 0.75750732
-0.016592393 0.035737455 0.75593168
-0.016455667 0.034177154 0.75447887
-0.016329931 0.032659888 0.75314289
-0.016212832 0.031178534 0.75189859
-0.016103968 0.029730409 0.7507419
-0.016002519 0.028312176 0.74966395
-0.015907703 0.026920766 0.74865639
-0.0158186 0.025553137 0.74770963
-0.015735291 0.024208128 0.74682444
-0.015657101 0.022883475 0.74599361
-0.01558389 0.021577686 0.74521577
-0.015515347 0.020289302 0.7444874
-0.01545117 0.019016862 0.74380553
-0.015390583 0.017758399 0.74316168
-0.015333877 0.016513437 0.74255919
-0.015281209 0.01528123 0.74199951
-0.015231901 0.014060229 0.74147564
-0.015185832 0.012849569 0.74098611
-0.015143067 0.011648506 0.74053174
-0.015103785 0.010456502 0.74011433
-0.01506776 0.0092725158 0.73973149
-0.015034478 0.0080955029 0.73937786
-0.015004371 0.0069251359 0.73905802
-0.014977459 0.0057605505 0.73877203
-0.014953823 0.0046011508 0.73852092
-0.014932915 0.0034460425 0.73829877
-0.014914998 0.0022946596 0.73810828
-0.014900454 0.0011461973 0.73795378
-0.014889322 -0 0.73783553
-0.014881241 -0.0011447072 0.7377497
-0.014876374 -0.0022886992 0.73769796
-0.014874886 -0.0034326315 0.7376821
-0.01487666 -0.0045773983 0.737701
-0.01488233 -0.0057239234 0.73776126
-0.01489219 -0.0068733096 0.73786598
-0.014906544 -0.0080265701 0.73801851
-0.014925074 -0.0091846287 0.73821539
-0.014949601 -0.010349721 0.73847604
-0.014978213 -0.011521667 0.73878002
-0.015014393 -0.012704432 0.73916447
-0.015057021 -0.01389876 0.73961741
-0.015106559 -0.015106529 0.74014378
-0.015165936 -0.016332537 0.74077469
-0.015235802 -0.017579764 0.74151713
-0.015318567 -0.018853575 0.74239647
-0.01541845 -0.020162582 0.74345791
-0.015540481 -0.021517545 0.74475443
-0.015697021 -0.022941738 0.74641782
-0.015908292 -0.024474293 0.74866271
-0.016264804 -0.026273906 0.75245088
-0.016866881 0.049195081 0.77378333
-0.016507372 0.0467709 0.76964504
-0.016229467 0.044631064 0.76644599
-0.01599725 0.042659342 0.76377302
-0.015797347 0.04080987 0.76147187
-0.015620747 0.03905192 0.75943899
-0.015462443 0.037367612 0.75761682
-0.015318815 0.035743922 0.7559635
-0.015186937 0.034170628 0.75444543
-0.015065955 0.032642901 0.75305283
-0.014953525 0.031153172 0.75175858
-0.014849368 0.029698759 0.75055957
-0.014752199 0.028275073 0.74944109
-0.014661412 0.026879251 0.74839604
-0.014576319 0.025508583 0.7474165
-0.014496798 0.024161369 0.74650115
-0.014422336 0.022835374 0.74564397
-0.014352386 0.021528572 0.74483883
-0.014286599 0.020239383 0.7440815
-0.014225096 0.018966824 0.74337363
-0.01416744 0.017709285 0.74270993
-0.014113151 0.016465366 0.74208498
-0.014062321 0.015234202 0.74149984
-0.014014829 0.01401484 0.74095315
-0.013970719 0.012806535 0.74044538
-0.013929603 0.011608005 0.73997211
-0.013891377 0.010418564 0.73953211
-0.013855889 0.0092372596 0.73912358
-0.013823633 0.0080637932 0.73875231
-0.013794085 0.0068970621 0.73841214
-0.013767319 0.0057364106 0.7381041
-0.013743143 0.004581064 0.73782575
-0.013722005 0.0034304857 0.73758245
-0.013703669 0.0022839904 0.73737139
-0.013688059 0.0011406839 0.73719174
-0.013675156 2.9802322e-08 0.7370432
-0.013665311 -0.0011387765 0.73692989
-0.013658617 -0.0022763908 0.73685282
-0.013654906 -0.003413707 0.73681009
-0.013653861 -0.0045512915 0.73679811
-0.013656003 -0.0056900084 0.73682272
-0.013661753 -0.0068308711 0.73688889
-0.013671227 -0.0079748631 0.73699796
-0.013685171 -0.0091234446 0.73715842
-0.013702353 -0.010276705 0.73735625
-0.013725594 -0.011437982 0.73762381
-0.013752463 -0.012606412 0.73793304
-0.013785826 -0.013785809 0.73831707
-0.013825881 -0.014978021 0.73877817
-0.013871938 -0.016183883 0.73930836
-0.01392683 -0.01740849 0.73994017
-0.013991862 -0.018655777 0.7406888
-0.014068586 -0.019930482 0.74157196
-0.014161088 -0.021241605 0.74263674
-0.014274371 -0.022601098 0.74394077
-0.014419947 -0.024033248 0.74561656
-0.01461907 -0.025583327 0.74790859
-0.014960985 -0.027428478 0.75184447
-0.015653437 0.049806356 0.77619606
-0.015238901 0.047102094 0.77099049
-0.014946546 0.04483965 0.7673192
-0.014712685 0.042800546 0.76438248
-0.014513988 0.040903062 0.76188731
-0.014340988 0.039111793 0.75971484
-0.014187246 0.037402779 0.75778425
-0.01404864 0.035760164 0.75604373
-0.013922011 0.034172237 0.7544536
-0.013806262 0.032633007 0.75300008
-0.013699074 0.031134307 0.75165403
-0.013599811 0.029672295 0.75040758
-0.013507438 0.028242856 0.74924761
-0.013420991 0.026841998 0.74816197
-0.013340537 0.02546829 0.74715173
-0.013265183 0.024118513 0.74620545
-0.013194454 0.022790432 0.74531728
-0.013128054 0.021482319 0.74448347
-0.013065608 0.020192295 0.74369931
-0.013007165 0.018919468 0.74296534
-0.012952216 0.017662138 0.74227536
-0.012900831 0.016419262 0.74163008
-0.012852631 0.015189528 0.74102479
-0.012807545 0.013971895 0.74045861
-0.012765264 0.012765259 0.73992777
-0.012725688 0.011568815 0.73943073
-0.012689112 0.010382056 0.73897135
-0.012655241 0.0092038512 0.73854607
-0.012623841 0.008033365 0.73815179
-0.012594825 0.0068699121 0.73778743
-0.01256855 0.0057130158 0.73745739
-0.012545029 0.0045618713 0.73716211
-0.012523754 0.0034156144 0.73689497
-0.012504845 0.002273649 0.7366575
-0.012488709 0.0011353493 0.73645484
-0.012475183 -0 0.73628503
-0.012464061 -0.0011330843 0.73614538
-0.012455424 -0.0022646189 0.7360369
-0.012449783 -0.0033953786 0.73596603
-0.012447036 -0.0045261979 0.73593158
-0.012446468 -0.0056574643 0.73592442
-0.012448884 -0.0067902803 0.73595476
-0.012454524 -0.0079255998 0.73602557
-0.012463634 -0.009064436 0.73613995
-0.012477039 -0.010208458 0.73630828
-0.01249281 -0.011357099 0.73650634
-0.012514603 -0.012514591 0.73678005
-0.012539837 -0.013679802 0.73709691
-0.012570433 -0.014855951 0.73748106
-0.012607542 -0.016045958 0.73794711
-0.012650152 -0.01725021 0.73848218
-0.012700393 -0.018473268 0.73911309
-0.012760635 -0.019720942 0.73986959
-0.012831507 -0.020996988 0.74075949
-0.012916622 -0.022310495 0.74182832
-0.013021351 -0.023675203 0.74314356
-0.013155137 -0.025114357 0.74482352
-0.013341734 -0.02668348 0.74716675
-0.013666397 -0.028575182 0.75124371
-0.014591793 0.051071286 0.78118807
-0.01398718 0.04755646 0.77283645
-0.013669145 0.045108229 0.76844323
-0.013429466 0.042974323 0.76513249
-0.013232519 0.04102084 0.76241201
-0.013063147 0.039189428 0.76007241
-0.012914297 0.037451476 0.75801635
-0.01278104 0.035786957 0.75617564
-0.012660307 0.034182817 0.7545079
-0.012550142 0.032630384 0.75298619
-0.012448544 0.031121373 0.7515828
-0.012354836 0.029651642 0.75028831
-0.012267587 0.028215498 0.7490831
-0.012186303 0.026809901 0.74796033
-0.012110526 0.02543214 0.74691361
-0.012039633 0.024079293 0.74593437
-0.011972986 0.022748679 0.74501371
-0.011910506 0.021438956 0.7441507
-0.011851885 0.020148218 0.74334097
-0.011796881 0.018875033 0.74258113
-0.011745351 0.01761806 0.74186933
-0.011696939 0.01637575 0.74120069
-0.011651342 0.015146762 0.74057084
-0.011608591 0.013930291 0.73998034
-0.011568807 0.012725681 0.73943073
-0.011531576 0.011531621 0.7389164
-0.011496581 0.010346919 0.73843306
-0.011464141 0.0091713369 0.73798496
-0.011434257 0.0080040097 0.73757219
-0.011406671 0.0068440139 0.73719108
-0.011381092 0.0056905746 0.73683774
-0.011357968 0.0045431852 0.73651838
-0.011337185 0.0034011304 0.73623121
-0.011318673 0.0022637546 0.73597556
-0.011302114 0.0011302233 0.73574686
-0.011287871 2.9802322e-08 0.73555005
-0.011276187 -0.0011275709 0.7353887
-0.011266747 -0.0022533536 0.73525828
-0.011259367 -0.0033777952 0.73515642
-0.011254638 -0.0045017898 0.73509097
-0.011252593 -0.0056262612 0.73506272
-0.011252381 -0.0067513883 0.7350598
-0.011255063 -0.0078785121 0.73509687
-0.011260603 -0.0090084672 0.7351734
-0.01126918 -0.010142237 0.73529184
-0.011281834 -0.011281818 0.73546666
-0.011296704 -0.012426347 0.73567212
-0.011316477 -0.013579726 0.73594522
-0.011340039 -0.014742017 0.73627061
-0.011367736 -0.015914798 0.73665327
-0.011401905 -0.017102838 0.73712528
-0.011440855 -0.018305331 0.73766327
-0.011487035 -0.019527942 0.73830116
-0.011541779 -0.020775199 0.73905742
-0.011606778 -0.022052884 0.73995519
-0.011684668 -0.023369312 0.74103111
-0.011780478 -0.024738997 0.74235463
-0.011902974 -0.026186526 0.74404663
-0.012075564 -0.027773768 0.7464307
-0.012383336 -0.029720008 0.75068212
-0.012775753 0.048263997 0.77571094
-0.012398825 0.0454624 0.76992583
-0.012148895 0.043196112 0.76608992
-0.011951489 0.041166246 0.76306003
-0.011786031 0.039286792 0.76052058
-0.011642586 0.037515014 0.75831896
-0.011515358 0.03582558 0.75636631
-0.011400925 0.034202814 0.75460994
-0.011297083 0.032636046 0.75301617
-0.011201579 0.031115502 0.75155038
-0.011113766 0.029636741 0.75020266
-0.011032091 0.028193116 0.74894911
-0.010956359 0.026782215 0.74778676
-0.010885599 0.025399774 0.74670064
-0.010819507 0.024043381 0.74568629
-0.010757454 0.022710204 0.74473387
-0.01069923 0.021398485 0.74384022
-0.010644723 0.020106703 0.74300373
-0.010593576 0.018833041 0.74221873
-0.010545495 0.01757586 0.74148077
-0.010500359 0.016333908 0.74078798
-0.010458101 0.015106201 0.74013942
-0.010418127 0.013890862 0.73952585
-0.010380752 0.012687594 0.73895222
-0.010345884 0.011495441 0.73841709
-0.010313314 0.010313332 0.73791718
-0.010282766 0.0091402531 0.73744833
-0.010254363 0.0079756379 0.73701239
-0.010228226 0.0068188608 0.73661131
-0.010204206 0.0056690276 0.73624259
-0.010181847 0.004525274 0.73589945
-0.010161707 0.0033872426 0.73559034
-0.010143569 0.0022541583 0.73531199
-0.010127564 0.0011253059 0.73506629
-0.010113291 2.9802322e-08 0.73484719
-0.010101002 -0.0011222959 0.7346586
-0.010090872 -0.0022424161 0.73450315
-0.010082965 -0.0033609867 0.73438179
-0.010076815 -0.0044785738 0.73428744
-0.010072871 -0.0055960119 0.73422688
-0.010071393 -0.0067142248 0.73420417
-0.010071582 -0.0078334212 0.73420709
-0.01007435 -0.008954972 0.73424959
-0.010079585 -0.010079563 0.73432994
-0.010087639 -0.011208445 0.7344535
-0.010099401 -0.012343675 0.7346341
-0.010113176 -0.01348421 0.73484552
-0.010131053 -0.014633745 0.73511982
-0.010152803 -0.015793234 0.73545372
-0.010177743 -0.016962886 0.73583639
-0.01020872 -0.01814881 0.73631191
-0.010244002 -0.019349754 0.73685336
-0.010286006 -0.020572007 0.73749804
-0.010335256 -0.021818876 0.73825407
-0.010394176 -0.023098171 0.73915827
-0.010464766 -0.024417758 0.74024165
-0.010551481 -0.02579248 0.74157262
-0.010662618 -0.027248889 0.74327838
-0.010820513 -0.028854668 0.74570173
-0.011116027 -0.030877829 0.75023729
-0.011142893 0.045964479 0.77202743
-0.010870066 0.043480277 0.76731658
-0.010671052 0.041350335 0.76388037
-0.010509188 0.039409488 0.76108551
-0.010371386 0.037596285 0.75870615
-0.010250736 0.035877615 0.75662291
-0.010143315 0.034233689 0.75476813
-0.010046261 0.032650352 0.75309229
-0.009957335 0.031116694 0.75155687
-0.0098759495 0.02962786 0.75015163
-0.0098004863 0.028176397 0.74884868
-0.0097305421 0.026758999 0.74764091
-0.009665356 0.025371581 0.74651533
-0.0096043721 0.024010956 0.74546242
-0.0095473705 0.022675037 0.74447811
-0.0094940327 0.021361589 0.74355721
-0.009443948 0.020068407 0.74269241
-0.0093968743 0.018793762 0.7418797
-0.0093526589 0.017536253 0.74111617
-0.0093110055 0.016294241 0.74039698
-0.009271998 0.015067011 0.73972344
-0.0092355022 0.013853312 0.7390933
-0.0092010358 0.012651443 0.73849821
-0.0091686985 0.011460871 0.73793977
-0.0091384463 0.010280788 0.73741746
-0.009110312 0.0091103017 0.73693162
-0.0090840496 0.0079485774 0.73647821
-0.0090595251 0.0067946613 0.73605478
-0.0090367794 0.0056479871 0.73566204
-0.0090161636 0.0045080781 0.73530602
-0.0089970026 0.0033739209 0.73497522
-0.0089796502 0.0022449493 0.73467559
-0.0089639518 0.0011205077 0.73440456
-0.0089502614 -0 0.73416817
-0.0089381561 -0.0011172295 0.73395908
-0.0089275911 -0.0022318661 0.73377669
-0.0089189913 -0.0033446252 0.73362815
-0.0089124413 -0.0044561923 0.73351508
-0.0089074699 -0.0055671632 0.73342925
-0.0089042699 -0.006678164 0.733374
-0.0089032035 -0.0077903271 0.73335564
-0.0089036701 -0.0089036822 0.73336363
-0.0089064026 -0.01001969 0.73341084
-0.0089114737 -0.011139333 0.73349839
-0.0089190239 -0.012263626 0.73362875
-0.0089295683 -0.013394356 0.73381084
-0.0089422883 -0.014531195 0.73403049
-0.0089580799 -0.015676618 0.73430312
-0.0089778882 -0.016833514 0.73464519
-0.0090003032 -0.018000573 0.7350322
-0.0090277959 -0.019184023 0.73550689
-0.0090593528 -0.020383507 0.73605174
-0.0090971105 -0.021605611 0.73670375
-0.0091409395 -0.022852331 0.73746049
-0.0091936048 -0.024133176 0.73836982
-0.0092567382 -0.025456011 0.73945993
-0.0093343854 -0.026836336 0.74080062
-0.00943466 -0.028303981 0.74253201
-0.0095763449 -0.029926062 0.74497843
-0.0098577412 -0.032037675 0.74983716
-0.0099361278 0.0468418 0.77569968
-0.009594419 0.043860227 0.76895666
-0.0093895597 0.041582376 0.76491416
-0.0092313001 0.039562702 0.76179123
-0.0090998746 0.037699491 0.75919771
-0.0089863911 0.035945565 0.75695837
-0.0088865012 0.034276515 0.75498724
-0.0087967925 0.032673836 0.75321692
-0.0087151844 0.031125695 0.75160658
-0.0086407755 0.029625535 0.75013816
-0.0085720001 0.028165162 0.74878097
-0.0085084122 0.02674076 0.74752617
-0.0084492238 0.02534768 0.74635822
-0.0083939312 0.023982674 0.74526715
-0.0083424328 0.022643775 0.74425089
-0.0082941717 0.021327883 0.74329859
-0.0082487855 0.020032763 0.74240303
-0.0082061579 0.018756926 0.74156177
-0.0081661446 0.017498881 0.74077225
-0.0081285518 0.016257137 0.74003035
-0.008093222 0.015030295 0.73933321
-0.0080599766 0.013817132 0.73867714
-0.0080287373 0.012616634 0.73806071
-0.0079995207 0.011427909 0.73748416
-0.0079721641 0.010249913 0.73694432
-0.0079464205 0.0090816617 0.73643625
-0.007922288 0.0079222918 0.73596007
-0.007899981 0.0067714453 0.73551989
-0.0078792898 0.005628109 0.73511159
-0.0078599835 0.0044914484 0.7347306
-0.0078421878 0.0033609569 0.73437947
-0.0078260908 0.0022360682 0.73406184
-0.0078114672 0.001115948 0.73377323
-0.0077981534 -0 0.73351049
-0.007786544 -0.0011123717 0.73328143
-0.007776422 -0.0022218525 0.7330817
-0.0077676596 -0.003328979 0.73290873
-0.0077603627 -0.0044344664 0.73276472
-0.0077549573 -0.0055392087 0.73265809
-0.0077510304 -0.0066437423 0.73258054
-0.007748636 -0.0077486336 0.73253345
-0.0077478276 -0.0088546574 0.73251748
-0.0077485493 -0.0099623799 0.73253161
-0.0077512609 -0.011073202 0.73258519
-0.0077559678 -0.012187928 0.732678
-0.0077628507 -0.01330772 0.73281389
-0.0077720964 -0.014433861 0.73299634
-0.0077836909 -0.015567362 0.73322511
-0.007797481 -0.016708881 0.73349726
-0.007815103 -0.017863065 0.733845
-0.0078349859 -0.019027799 0.73423737
-0.0078589143 -0.020208627 0.73470956
-0.0078869015 -0.021407276 0.7352618
-0.007920118 -0.022628874 0.73591727
-0.0079588145 -0.023876399 0.73668087
-0.0080048721 -0.025158167 0.73758978
-0.0080604134 -0.026484221 0.73868573
-0.0081287744 -0.027870059 0.74003476
-0.0082179811 -0.029349893 0.74179506
-0.0083430009 -0.030988306 0.74426216
-0.0086118579 -0.033217162 0.74956751
-0.0083300937 0.044427186 0.77140403
-0.0081065493 0.041883856 0.76625758
-0.0079509029 0.03975457 0.76267427
-0.0078262342 0.037826836 0.75980413
-0.007721086 0.036031753 0.75738335
-0.0076294099 0.034332365 0.75527281
-0.007547922 0.032707691 0.75339681
-0.0074743507 0.031143129 0.75170308
-0.0074075777 0.029630333 0.75016582
-0.0073460671 0.028159976 0.74874967
-0.00728935 0.026727617 0.74744397
-0.0072366111 0.02532813 0.74622983
-0.0071876398 0.023958802 0.74510235
-0.0071418416 0.02261582 0.74404794
-0.0070989947 0.021297008 0.74306154
-0.0070588081 0.020000011 0.74213636
-0.0070210071 0.018722713 0.74126613
-0.0069855233 0.017463833 0.74044919
-0.0069521829 0.016221792 0.7396816
-0.0069208774 0.014995247 0.73896086
-0.0068915021 0.013783067 0.73828459
-0.0068639056 0.012583852 0.73764926
-0.0068377876 0.011396348 0.73704803
-0.0068133497 0.010220051 0.73648536
-0.0067905323 0.0090540349 0.73596013
-0.0067691258 0.0078973174 0.73546731
-0.0067490279 0.0067490339 0.73500454
-0.0067303432 0.0056086183 0.73457438
-0.0067131505 0.0044754446 0.73417866
-0.006697176 0.0033485889 0.73381078
-0.0066823289 0.0022274852 0.73346901
-0.0066688927 0.0011115074 0.73315966
-0.0066568265 -0 0.7328819
-0.0066458681 -0.0011076331 0.73262966
-0.0066361055 -0.0022120178 0.73240483
-0.0066278232 -0.0033138692 0.73221415
-0.006620741 -0.0044138134 0.73205113
-0.0066148262 -0.005512327 0.731915
-0.0066102678 -0.0066102743 0.73181003
-0.0066072573 -0.0077084303 0.73174071
-0.006605594 -0.0088074505 0.73170245
-0.0066050561 -0.0099075437 0.73168999
-0.0066059367 -0.011009872 0.73171031
-0.0066084564 -0.012115479 0.73176831
-0.0066127176 -0.013225406 0.73186642
-0.0066189235 -0.014340997 0.73200929
-0.0066267401 -0.015462369 0.73218924
-0.0066370927 -0.016592681 0.7324276
-0.006648914 -0.017730415 0.73269969
-0.0066642598 -0.018882066 0.73305303
-0.0066816537 -0.020044923 0.73345351
-0.0067020562 -0.021223158 0.7339232
-0.0067263604 -0.022421151 0.73448277
-0.0067548272 -0.023641855 0.73513812
-0.0067883111 -0.024890453 0.73590893
-0.0068278448 -0.026173413 0.73681915
-0.0068756486 -0.027502567 0.73791963
-0.006934864 -0.028895289 0.73928297
-0.0070123435 -0.030386806 0.74106663
-0.0071209501 -0.032044262 0.74356699
-0.0073826606 -0.034452409 0.74959213
-0.0071501303 0.04576084 0.77716106
-0.0068223118 0.042298347 0.76810455
-0.0066663278 0.039997995 0.76379526
-0.0065494669 0.037986904 0.76056683
-0.0064532538 0.036138237 0.75790876
-0.006370971 0.034403265 0.75563556
-0.0062987008 0.032753289 0.75363898
-0.0062340051 0.03117007 0.75185168
-0.0061755707 0.029642761 0.75023735
-0.0061218995 0.028160721 0.74875462
-0.0060726721 0.026719779 0.74739456
-0.0060270382 0.025313556 0.74613392
-0.0059846374 0.023938566 0.74496245
-0.0059451102 0.022591472 0.74387044
-0.0059080957 0.021269172 0.74284786
-0.0058734179 0.019969642 0.74188989
-0.0058409115 0.018690914 0.74099183
-0.0058104419 0.017431349 0.74015009
-0.0057817497 0.01618892 0.73935747
-0.0057547642 0.014962405 0.73861194
-0.0057293545 0.013750494 0.73790991
-0.0057055461 0.012552232 0.73725212
-0.0056831948 0.011366397 0.73663461
-0.0056620091 0.010191619 0.73604935
-0.0056421584 0.0090274811 0.73550105
-0.0056236582 0.0078731477 0.73498988
-0.005606357 0.0067276657 0.73451185
-0.0055900859 0.005590111 0.73406243
-0.0055749123 0.0044599473 0.73364317
-0.0055609648 0.0033366084 0.73325783
-0.0055481005 0.0022192597 0.73290253
-0.0055360789 0.0011072457 0.73257035
-0.0055252174 2.9802322e-08 0.73227036
-0.0055154627 -0.0011030436 0.73200083
-0.0055067409 -0.0022026896 0.73175991
-0.005498881 -0.0032993257 0.73154271
-0.0054921177 -0.004393667 0.73135585
-0.0054865647 -0.0054865479 0.73120242
-0.0054819733 -0.006578356 0.73107558
-0.0054783584 -0.0076696873 0.73097581
-0.0054759979 -0.0087615848 0.73091054
-0.0054748687 -0.0098547637 0.73087937
-0.005474607 -0.010949194 0.73087209
-0.0054755341 -0.012046158 0.73089772
-0.0054778135 -0.013146728 0.73096073
-0.0054815086 -0.014251918 0.73106277
-0.0054869498 -0.015363455 0.73121309
-0.0054934565 -0.016480356 0.73139286
-0.0055023604 -0.01760754 0.73163885
-0.0055123344 -0.018741906 0.7319144
-0.0055251559 -0.019890547 0.73226857
-0.0055399355 -0.021051764 0.73267692
-0.0055568707 -0.022227466 0.73314476
-0.0055774008 -0.023425072 0.73371196
-0.0056011197 -0.024644911 0.73436719
-0.0056292787 -0.025894701 0.73514521
-0.0056624622 -0.027179778 0.73606193
-0.0057024611 -0.028512299 0.73716694
-0.0057522934 -0.029911906 0.73854357
-0.0058175116 -0.031414539 0.74034542
-0.005909998 -0.033095956 0.74290049
-0.0055441819 0.042967409 0.77108592
-0.0053760838 0.040320635 0.7652809
-0.0052670175 0.038185894 0.76151454
-0.0051817405 0.036272228 0.7585696
-0.0051100883 0.034493119 0.75609523
-0.0050480054 0.032812059 0.75395131
-0.0049932115 0.031207591 0.75205916
-0.0049438649 0.029663205 0.75035501
-0.0048988508 0.02816841 0.74880052
-0.0048577604 0.026717722 0.74738157
-0.0048197554 0.025303751 0.74606913
-0.0047845328 0.023922682 0.74485278
-0.0047517377 0.022570759 0.74372029
-0.0047210185 0.021244615 0.74265939
-0.0046924143 0.01994279 0.74167162
-0.0046656001 0.018662423 0.74074566
-0.0046403208 0.017401218 0.73987269
-0.0046166037 0.016158134 0.73905367
-0.0045942818 0.014931411 0.7382828
-0.0045732809 0.013719857 0.73755753
-0.0045535346 0.012522221 0.73687565
-0.0045349258 0.01133731 0.73623306
-0.0045175664 0.010164529 0.73563349
-0.0045011397 0.0090022981 0.73506629
-0.0044857115 0.0078500211 0.73453355
-0.0044712117 0.0067068636 0.73403275
-0.0044577573 0.0055721998 0.73356819
-0.0044451645 0.004445225 0.73313326
-0.0044333693 0.0033250451 0.73272598
-0.0044224416 0.0022112429 0.73234868
-0.0044124844 0.001103133 0.73200476
-0.0044032079 2.9802322e-08 0.73168445
-0.0043947492 -0.0010986626 0.73139232
-0.004387164 -0.0021935701 0.73113036
-0.0043804757 -0.0032853782 0.73089939
-0.0043744352 -0.0043744147 0.73069084
-0.0043692295 -0.0054615438 0.73051107
-0.0043649329 -0.0065473914 0.73036265
-0.0043615242 -0.007632643 0.73024487
-0.0043588071 -0.0087175965 0.73015118
-0.0043570511 -0.0098033547 0.7300905
-0.0043563335 -0.010890841 0.7300657
-0.0043562376 -0.01197961 0.73006237
-0.004357147 -0.013071418 0.73009384
-0.0043590949 -0.014167041 0.73016101
-0.0043621799 -0.01526764 0.73026752
-0.0043667592 -0.016375333 0.73042572
-0.0043719755 -0.017487884 0.73060584
-0.0043792659 -0.018611848 0.73085761
-0.0043874225 -0.019743353 0.73113924
-0.0043976568 -0.020888865 0.73149276
-0.0044097044 -0.022048503 0.73190874
-0.0044233631 -0.023222625 0.73238039
-0.0044398056 -0.02441892 0.73294824
-0.0044588097 -0.025638163 0.73360455
-0.0044815037 -0.026888996 0.73438817
-0.0045082527 -0.028176576 0.73531193
-0.0045404299 -0.029512793 0.73642313
-0.004580765 -0.030920118 0.73781604
-0.0046332907 -0.032433003 0.73962992
-0.0047093933 -0.03414309 0.74225801
-0.0040780636 0.040780634 0.76739895
-0.0039768335 0.038442731 0.76273793
-0.0039039394 0.036436796 0.75938165
-0.0038449869 0.034604907 0.75666714
-0.0037947157 0.032887578 0.75435245
-0.0037507813 0.031256527 0.75232953
-0.0037115852 0.029692709 0.75052476
-0.003676106 0.02818349 0.74889117
-0.003643886 0.026721835 0.74740756
-0.003614143 0.025299013 0.74603814
-0.003586683 0.023911238 0.74477375
-0.0035611289 0.022553802 0.74359709
-0.0035373524 0.021224141 0.74250233
-0.0035151094 0.019918948 0.7414782
-0.0034942799 0.018636197 0.74051905
-0.0034747242 0.017373651 0.73961866
-0.0034563232 0.016129494 0.73877144
-0.0034390171 0.014902443 0.73797452
-0.0034227499 0.013691038 0.73722553
-0.0034074555 0.012494028 0.73652136
-0.0033930712 0.01131025 0.73585904
-0.0033795119 0.010138571 0.73523468
-0.0033667334 0.0089779794 0.73464632
-0.0033547706 0.0078278184 0.73409545
-0.003343581 0.0066871941 0.73358029
-0.0033330014 0.0055550337 0.73309314
-0.0033230826 0.0044308007 0.73263639
-0.0033139363 0.0033139288 0.73221529
-0.0033053788 0.0022036135 0.7318213
-0.0032974018 0.0010991693 0.73145401
-0.0032900937 -0 0.73111755
-0.0032833982 -0.0010944605 0.73080915
-0.0032772711 -0.0021848083 0.73052704
-0.0032717069 -0.003271699 0.73027086
-0.0032668791 -0.004355818 0.73004854
-0.0032625664 -0.0054375827 0.72984999
-0.0032587769 -0.0065175593 0.72967559
-0.003255697 -0.007596612 0.72953373
-0.0032533107 -0.0086754858 0.72942382
-0.0032514494 -0.0097543299 0.72933817
-0.0032502059 -0.010833979 0.72928095
-0.0032497796 -0.011915863 0.72926128
-0.0032497915 -0.012999117 0.72926176
-0.0032505845 -0.014085829 0.72929835
-0.0032521605 -0.015176743 0.72937083
-0.0032545689 -0.016272843 0.72948182
-0.0032581342 -0.017376661 0.72964597
-0.003262125 -0.018485337 0.72982967
-0.0032676568 -0.019605935 0.73008442
-0.0032739639 -0.020735055 0.73037481
-0.0032815624 -0.02187705 0.73072469
-0.0032907489 -0.023035228 0.73114765
-0.0033010864 -0.02420795 0.73162365
-0.0033134317 -0.025402963 0.7321921
-0.0033278421 -0.026622742 0.73285562
-0.0033448597 -0.027873814 0.73363918
-0.0033650447 -0.029163688 0.7345686
-0.0033893462 -0.030504078 0.73568749
-0.0034199159 -0.031919181 0.73709512
-0.0034595665 -0.033442467 0.73892081
-0.0035182422 -0.035182416 0.74162245
-0.0027750654 0.041625977 0.77129138
-0.0026752504 0.03879115 0.76439744
-0.0026175962 0.036646366 0.76041549
-0.0025735172 0.034742504 0.75737107
-0.0025369646 0.032980531 0.75484657
-0.0025054817 0.031318516 0.75267214
-0.002477709 0.029732525 0.750754
-0.0024527586 0.028206706 0.74903083
-0.0024302399 0.026732683 0.74747545
-0.002409487 0.025299668 0.74604213
-0.0023904301 0.023904324 0.74472594
-0.0023727505 0.022541136 0.74350488
-0.0023563008 0.021206737 0.74236876
-0.0023409438 0.019898027 0.74130809
-0.0023265495 0.018612415 0.74031389
-0.0023130774 0.017348081 0.73938352
-0.0023003924 0.016102761 0.73850733
-0.002288488 0.014875203 0.73768514
-0.0022772904 0.013663769 0.73691183
-0.002266763 0.012467206 0.73618466
-0.0022568291 0.011284173 0.73549855
-0.0022475251 0.010113865 0.73485601
-0.0022387612 0.0089550614 0.73425066
-0.00223045 0.0078065991 0.73367673
-0.0022226654 0.0066680312 0.73313904
-0.002215405 0.005538553 0.73263758
-0.0022085772 0.0044171512 0.73216605
-0.0022021418 0.0033032298 0.73172158
-0.0021961574 0.0021961629 0.73130822
-0.0021906574 0.0010953546 0.73092836
-0.0021855058 2.9802322e-08 0.73057252
-0.0021807142 -0.0010903478 0.7302416
-0.0021764054 -0.002176404 0.72994405
-0.0021724782 -0.0032587051 0.72967279
-0.0021688896 -0.0043377876 0.72942495
-0.0021657387 -0.0054143071 0.72920728
-0.0021630058 -0.0064890385 0.72901863
-0.0021606095 -0.0075621307 0.72885311
-0.002158602 -0.0086344182 0.72871441
-0.0021571144 -0.0097070038 0.72861171
-0.0021559887 -0.010779917 0.72853386
-0.0021552544 -0.011853874 0.7284832
-0.0021549966 -0.012929946 0.72846538
-0.0021550825 -0.014008045 0.72847134
-0.0021556839 -0.01508975 0.72851288
-0.0021567938 -0.016175926 0.72858948
-0.0021584611 -0.017267674 0.72870469
-0.0021609154 -0.018367767 0.72887421
-0.0021636744 -0.019473046 0.72906476
-0.0021673643 -0.020589918 0.72931957
-0.0021716852 -0.021716833 0.72961801
-0.0021767078 -0.022855401 0.72996491
-0.0021829312 -0.024012238 0.73039472
-0.0021898749 -0.025183558 0.73087436
-0.0021981215 -0.026377439 0.73144388
-0.0022078147 -0.027597666 0.73211336
-0.0022191573 -0.028849036 0.73289675
-0.0022327106 -0.030141592 0.7338329
-0.0022490125 -0.031486183 0.73495871
