# .PCD v0.7 - Point Cloud Data file format
VERSION 0.7
FIELDS x y z
SIZE 4 4 4
TYPE F F F
COUNT 1 1 1
WIDTH 1324
HEIGHT 1
VIEWPOINT 0 0 0 1 0 0 0
POINTS 1324
DATA ascii
-0.012171986 0.019272298 0.71974015
-0.012224353 0.018336535 0.72034293
-0.012277173 0.017392695 0.7209509
-0.012330451 0.0164406 0.72156417
-0.012384194 0.01548028 0.72218281
-0.012438406 0.014511496 0.72280687
-0.012493053 0.013534158 0.72343588
-0.012548224 0.012548238 0.72407103
-0.012603886 0.011553586 0.72471172
-0.012660044 0.010550082 0.72535813
-0.012716705 0.009537518 0.72601032
-0.012773874 0.0085159242 0.72666848
-0.012831561 0.0074851215 0.72733247
-0.012889817 0.006444931 0.72800308
-0.012948605 0.0053952932 0.72867978
-0.01300793 0.0043359995 0.72936273
-0.013067898 0.0032669604 0.73005295
-0.013128471 0.0021880865 0.73075026
-0.013189607 0.0010991693 0.73145401
-0.013251315 5.9604645e-08 0.73216432
-0.013313604 -0.0011094809 0.73288131
-0.01337643 -0.0022293627 0.73360449
-0.013439903 -0.0033599436 0.73433518
-0.01350398 -0.0045012832 0.73507273
-0.013568672 -0.0056536198 0.73581749
-0.013633988 -0.0068169832 0.73656929
-0.013699934 -0.007991612 0.73732835
-0.013766629 -0.0091777444 0.73809612
-0.013833974 -0.01037544 0.73887134
-0.013901982 -0.011584967 0.73965412
-0.013970664 -0.012806416 0.74044478
-0.014040026 -0.014040023 0.74124324
-0.014110192 -0.015286028 0.74205089
-0.014181064 -0.016544551 0.74286669
-0.014252707 -0.017815858 0.74369138
-0.014325021 -0.01910004 0.74452382
-0.014398131 -0.020397335 0.74536538
-0.01447193 -0.021707892 0.74621499
-0.01454667 -0.023032188 0.7470752
-0.014622185 -0.024370253 0.74794447
-0.014698548 -0.025722474 0.74882352
-0.014775653 -0.027088642 0.7497111
-0.014853632 -0.028469414 0.75060868
-0.014932377 -0.029864758 0.75151515
-0.015012024 -0.031275034 0.75243199
-0.015092397 -0.032700151 0.75335711
-0.015173893 -0.034141243 0.75429523
-0.01525621 -0.035597831 0.75524282
-0.015339424 -0.037070274 0.75620073
-0.015423818 -0.038559526 0.75717217
-0.015509213 -0.040065438 0.75815511
-0.015595491 -0.041587979 0.7591483
-0.015682735 -0.043127477 0.76015252
-0.015770957 -0.04468435 0.76116812
-0.015860179 -0.046258837 0.76219517
-0.015950417 -0.047851264 0.7632339
-0.016041761 -0.04946208 0.76428533
-0.016134083 -0.051091254 0.76534808
-0.016227622 -0.052739739 0.76642478
-0.016322624 -0.054408729 0.7675184
-0.016418671 -0.05609709 0.76862401
-0.016515929 -0.057805717 0.7697435
-0.013926397 0.063301831 0.75450867
-0.013921122 0.062012315 0.75444239
-0.013769478 0.060084999 0.75253814
-0.013415213 0.057319522 0.74808943
-0.013078771 0.054693043 0.7438646
-0.012758742 0.052194864 0.73984581
-0.012454002 0.049816012 0.73601902
-0.012163524 0.047548324 0.73237133
-0.011886287 0.04538402 0.72888994
-0.011621365 0.043316007 0.72556317
-0.010745423 0.039074302 0.71456349
-0.010781829 0.038226515 0.7150206
-0.010824569 0.037393987 0.7155574
-0.010884209 0.036610514 0.71630627
-0.010919266 0.035735816 0.71674657
-0.010954917 0.034856558 0.7171942
-0.010979811 0.033937603 0.71750677
-0.010981837 0.032945484 0.71753228
-0.010978779 0.031938255 0.71749383
-0.010976126 0.030932724 0.71746057
-0.010975205 0.02993241 0.71744901
-0.010975685 0.028935909 0.71745497
-0.0109762 0.027939409 0.71746153
-0.010978963 0.026948422 0.71749616
-0.010982611 0.025958896 0.71754199
-0.010986743 0.024969906 0.71759385
-0.010993573 0.023986012 0.71767968
-0.011000745 0.023001581 0.71776968
-0.01100863 0.0220173 0.71786869
-0.011032875 0.021062791 0.71817315
-0.011078269 0.020142317 0.71874321
-0.011125287 0.019216418 0.71933365
-0.011172744 0.018282682 0.71992958
-0.011220609 0.017340958 0.72053063
-0.011268962 0.016391218 0.72113782
-0.011317773 0.015433371 0.7217508
-0.011367008 0.01446712 0.72236907
-0.011416675 0.013492465 0.72299272
-0.011466777 0.012509227 0.72362196
-0.01151732 0.011517316 0.72425663
-0.011568352 0.010516703 0.72489738
-0.011619798 0.0095071197 0.72554344
-0.011671702 0.0084885359 0.72619522
-0.011724073 0.0074608028 0.72685295
-0.011776915 0.0064238012 0.72751647
-0.011830237 0.0053774118 0.72818607
-0.011884042 0.0043214858 0.72886169
-0.01193834 0.0032559335 0.72954357
-0.011993224 0.0021806061 0.73023278
-0.01204857 0.0010953546 0.73092782
-0.01210443 -0 0.73162925
-0.012160856 -0.0011055171 0.73233783
-0.012217765 -0.0022214055 0.73305243
-0.012275347 -0.0033477843 0.73377556
-0.012333474 -0.0044849217 0.73450547
-0.012392106 -0.0056327283 0.73524177
-0.012451348 -0.0067916214 0.73598564
-0.012511156 -0.0079616308 0.73673677
-0.012571544 -0.0091429353 0.73749506
-0.012632517 -0.010335684 0.73826075
-0.012694085 -0.011540085 0.73903394
-0.012756255 -0.012756199 0.73981458
-0.012819037 -0.013984382 0.74060291
-0.012882543 -0.015224785 0.74140042
-0.012946628 -0.016477495 0.7422052
-0.013011407 -0.017742783 0.74301863
-0.013076785 -0.019020766 0.74383962
-0.013142875 -0.020311713 0.74466956
-0.013209584 -0.021615684 0.74550724
-0.013277136 -0.022933215 0.74635553
-0.013345381 -0.024264306 0.74721259
-0.013414278 -0.025609046 0.74807769
-0.013483943 -0.026967883 0.74895257
-0.013554337 -0.028340876 0.7498365
-0.013625528 -0.029728413 0.75073045
-0.013697525 -0.031130701 0.7516346
-0.01377029 -0.032547951 0.75254834
-0.013843831 -0.03398028 0.75347179
-0.01391816 -0.035428047 0.75440526
-0.013993293 -0.036891401 0.75534868
-0.014069242 -0.038370669 0.75630248
-0.014146081 -0.039866239 0.75726736
-0.014223701 -0.041378021 0.75824207
-0.014302241 -0.042906702 0.75922835
-0.014381716 -0.044452548 0.76022631
-0.014462208 -0.046016097 0.76123714
-0.014543669 -0.047597438 0.76226014
-0.014626119 -0.049196959 0.76329547
-0.014709445 -0.05081442 0.76434183
-0.01479379 -0.052450687 0.76540095
-0.014879041 -0.05410555 0.76647151
-0.014965349 -0.055779904 0.7675553
-0.015052595 -0.05747354 0.76865089
-0.012708292 0.063541472 0.75517076
-0.01269576 0.062209249 0.75499761
-0.012517707 0.060084999 0.75253814
-0.012195648 0.057319522 0.74808943
-0.011889792 0.054693043 0.7438646
-0.011598857 0.052194864 0.73984581
-0.01132182 0.049816012 0.73601902
-0.011057748 0.047548324 0.73237133
-0.010805716 0.04538402 0.72888994
-0.010564879 0.043316007 0.72556317
-0.0097454544 0.038981855 0.71424419
-0.0097731892 0.038115442 0.71462733
-0.0098120756 0.037285894 0.71516454
-0.0098656528 0.036502898 0.71590459
-0.0098973038 0.035630316 0.71634173
-0.0099296225 0.03475374 0.71678817
-0.0099556157 0.03384912 0.71714723
-0.0099592498 0.032865524 0.71719748
-0.0099569485 0.031862259 0.71716571
-0.0099549154 0.030860245 0.71713763
-0.0099543827 0.029863149 0.71713018
-0.0099553484 0.028870553 0.7171436
-0.0099563822 0.027877927 0.71715784
-0.0099590495 0.026889443 0.71719468
-0.0099628856 0.025903523 0.71724766
-0.0099667599 0.024916887 0.71730119
-0.0099726412 0.023934364 0.71738243
-0.0099793011 0.022952408 0.71747446
-0.0099863047 0.021969914 0.71757114
-0.010006061 0.021012753 0.71784407
-0.010045368 0.020090759 0.71838707
-0.010087824 0.019166887 0.71897352
-0.010130607 0.018235087 0.7195645
-0.010173788 0.01729545 0.72016096
-0.010217339 0.016347736 0.72076255
-0.010261266 0.015391886 0.72136927
-0.010305606 0.014427871 0.72198176
-0.010350295 0.013455391 0.72259909
-0.01039541 0.012474477 0.72322232
-0.010440958 0.01148504 0.72385144
-0.010486943 0.01048699 0.72448659
-0.010533334 0.0094800293 0.72512746
-0.010580137 0.0084641278 0.72577393
-0.010627359 0.0074391961 0.72642624
-0.010675004 0.0064050555 0.7270844
-0.010723079 0.005361557 0.72774845
-0.010771588 0.004308641 0.72841847
-0.010820498 0.0032461584 0.72909415
-0.010869895 0.0021739602 0.7297765
-0.010919745 0.0010920167 0.73046505
-0.010970054 -0 0.73115999
-0.011020828 -0.0011020601 0.73186135
-0.011072075 -0.002214402 0.73256922
-0.011123801 -0.0033371449 0.73328376
-0.011176054 -0.0044703782 0.73400545
-0.011228759 -0.0056143701 0.73473352
-0.011282005 -0.0067691803 0.73546904
-0.011335716 -0.0079349577 0.73621094
-0.011390028 -0.0091120303 0.73696119
-0.011444906 -0.010300428 0.7377193
-0.011500316 -0.011500299 0.73848462
-0.011556265 -0.012711883 0.73925745
-0.011612761 -0.013935298 0.74003786
-0.011669858 -0.015170813 0.74082655
-0.011727474 -0.016418427 0.74162245
-0.01178566 -0.017678499 0.74242622
-0.011844428 -0.018951088 0.74323785
-0.011903878 -0.020236552 0.74405921
-0.011963882 -0.02153495 0.74488801
-0.012024542 -0.02284658 0.74572587
-0.01208577 -0.024171531 0.74657166
-0.012147626 -0.025510013 0.74742609
-0.012210168 -0.026862323 0.74829006
-0.012273307 -0.028228611 0.7491622
-0.012337103 -0.029609025 0.75004339
-0.012401616 -0.031004012 0.75093448
-0.012466913 -0.03241396 0.75183648
-0.0125329 -0.033838809 0.75274801
-0.01259959 -0.035278857 0.7536692
-0.012666993 -0.036734283 0.75460029
-0.012735231 -0.038205683 0.75554287
-0.012804152 -0.039692879 0.75649494
-0.01287388 -0.041196406 0.75745803
-0.012944314 -0.042716205 0.75843096
-0.01301558 -0.044252992 0.75941545
-0.013087579 -0.045806527 0.76040995
-0.013160435 -0.047377586 0.76141638
-0.013234049 -0.048965961 0.76243317
-0.013308551 -0.050572485 0.76346231
-0.013383836 -0.05219695 0.76450229
-0.013460039 -0.053840131 0.76555485
-0.0135373 -0.055502921 0.76662207
-0.013615513 -0.057185113 0.76770246
-0.0137 -0.058909953 0.76886946
-0.011470745 0.065000921 0.75568157
-0.011476451 0.063758105 0.75576913
-0.011457635 0.062380463 0.75548041
-0.011265936 0.060084999 0.75253814
-0.010976084 0.057319522 0.74808943
-0.010700813 0.054693043 0.7438646
-0.010438971 0.052194864 0.73984581
-0.010189638 0.049816012 0.73601902
-0.0099519733 0.047548324 0.73237133
-0.0097251441 0.04538402 0.72888994
-0.0095083909 0.043316007 0.72556317
-0.008753526 0.038904577 0.7139774
-0.0087735532 0.038018763 0.71428478
-0.0088084619 0.037191302 0.71482062
-0.0088571971 0.036412925 0.7155686
-0.0088853063 0.035541266 0.71600002
-0.008913625 0.034664124 0.71643472
-0.0089381514 0.033766359 0.71681112
-0.0089438567 0.032794178 0.71689862
-0.0089424225 0.031795323 0.71687663
-0.0089410478 0.030796945 0.71685553
-0.0089403018 0.029801011 0.71684408
-0.0089415554 0.028811693 0.71686339
-0.0089429002 0.027822405 0.71688396
-0.0089454409 0.026836336 0.71692294
-0.0089492686 0.025853455 0.71698171
-0.008953101 0.02486974 0.71704054
-0.0089584645 0.023889244 0.71712285
-0.0089646149 0.022909582 0.71721721
-0.0089709554 0.021929026 0.7173146
-0.0089865271 0.020968586 0.71755362
-0.0090203257 0.020045191 0.71807235
-0.0090583023 0.019123077 0.71865517
-0.0090965685 0.018193126 0.71924251
-0.0091351587 0.017255306 0.7198348
-0.0091741104 0.016309559 0.72043258
-0.0092133628 0.015355647 0.72103506
-0.0092529533 0.014393479 0.72164267
-0.0092928847 0.013423055 0.72225559
-0.0093331961 0.012444288 0.72287428
-0.009373825 0.011456937 0.72349787
-0.0094148098 0.010460943 0.72412688
-0.0094561875 0.0094561577 0.72476196
-0.0094978977 0.0084426105 0.72540212
-0.0095400438 0.0074200332 0.72604901
-0.0095826015 0.0063884258 0.72670215
-0.0096255392 0.0053475201 0.7273612
-0.0096688299 0.0042972863 0.72802556
-0.0097125461 0.0032375455 0.72869658
-0.0097566592 0.0021681488 0.72937363
-0.0098011754 0.0010890663 0.73005688
-0.0098460997 -0 0.73074639
-0.0098914374 -0.00109905 0.73144221
-0.0099371951 -0.0022082329 0.73214447
-0.0099833775 -0.0033277571 0.73285329
-0.010029992 -0.004457742 0.73356879
-0.010077043 -0.0055983365 0.7342909
-0.0101245 -0.0067496598 0.73501927
-0.010172482 -0.0079119503 0.73575568
-0.010220882 -0.0090852082 0.73649853
-0.010269746 -0.010269701 0.73724854
-0.010319079 -0.011465639 0.73800576
-0.010368889 -0.01267308 0.73877019
-0.010419182 -0.013892233 0.73954207
-0.010469965 -0.015123248 0.74032152
-0.010521368 -0.016366571 0.7411105
-0.01057328 -0.017622113 0.74190718
-0.010625706 -0.018890142 0.74271184
-0.010678655 -0.020170778 0.74352449
-0.010732135 -0.021464258 0.74434531
-0.010786152 -0.022770762 0.74517435
-0.010840716 -0.024090469 0.74601185
-0.010895791 -0.025423497 0.74685711
-0.010951472 -0.026770264 0.74771178
-0.011007772 -0.028130949 0.74857575
-0.011064607 -0.029505581 0.74944806
-0.011122078 -0.030894667 0.75033021
-0.011180103 -0.032298058 0.7512207
-0.011238784 -0.033716291 0.75212145
-0.011298035 -0.035149425 0.75303078
-0.011357964 -0.036597878 0.7539506
-0.011418483 -0.038061559 0.75487942
-0.0114797 -0.039541185 0.75581902
-0.011541625 -0.041036904 0.75676948
-0.011604274 -0.042548984 0.75773096
-0.011667605 -0.044077605 0.75870299
-0.011731685 -0.045623213 0.75968647
-0.011796523 -0.047186077 0.76068169
-0.011862029 -0.048766106 0.76168704
-0.01192832 -0.050364017 0.76270449
-0.011995303 -0.051979631 0.76373255
-0.012063042 -0.053613514 0.76477218
-0.012131605 -0.055266172 0.7658245
-0.012200897 -0.056937486 0.76688796
-0.012270984 -0.058627993 0.76796371
-0.010215306 0.065122575 0.75601119
-0.010230196 0.063938737 0.75626826
-0.010210702 0.062540591 0.75593174
-0.010014166 0.060084999 0.75253814
-0.0097565185 0.057319522 0.74808943
-0.0095118331 0.054693043 0.7438646
-0.0092790853 0.052194864 0.73984581
-0.0090574557 0.049816012 0.73601902
-0.0088462001 0.047548324 0.73237133
-0.0086445725 0.04538402 0.72888994
-0.0084519023 0.043316007 0.72556317
-0.0077681332 0.038840681 0.7137568
-0.0077808616 0.03793171 0.71397662
-0.0078107738 0.037101179 0.71449304
-0.0078539615 0.03632459 0.71523881
-0.0078793745 0.035457253 0.7156775
-0.0079049524 0.034584165 0.71611923
-0.0079275509 0.033692122 0.7165094
-0.007934954 0.032731712 0.71663719
-0.0079342667 0.031737059 0.71662533
-0.0079334732 0.030742198 0.71661162
-0.0079330495 0.029748946 0.71660435
-0.0079342406 0.028761655 0.71662486
-0.0079354048 0.027773947 0.716645
-0.0079374164 0.026788831 0.71667975
-0.0079409666 0.025808156 0.71674109
-0.0079446528 0.024827063 0.71680468
-0.0079494566 0.023848355 0.71688759
-0.0079551991 0.022871226 0.71698678
-0.0079610283 0.021892875 0.71708745
-0.00797306 0.020929307 0.71729523
-0.0080021024 0.020005286 0.71779662
-0.008035643 0.019084662 0.71837574
-0.0080694659 0.01815632 0.71895981
-0.0081035746 0.01722008 0.7195487
-0.008137973 0.016275972 0.7201426
-0.0081726639 0.015323758 0.72074163
-0.0082076527 0.014363408 0.72134584
-0.0082429424 0.013394803 0.72195512
-0.0082785077 0.012417763 0.72256923
-0.0083144112 0.01143235 0.72318918
-0.0083506266 0.010438293 0.72381443
-0.0083871586 0.0094355941 0.72444528
-0.0084240111 0.0084240437 0.72508156
-0.0084611904 0.0074035227 0.72572351
-0.0084986985 0.0063740909 0.72637117
-0.0085365409 0.0053353608 0.72702456
-0.0085746907 0.0042873621 0.72768331
-0.0086132148 0.0032299757 0.72834849
-0.008652118 0.0021630526 0.72902024
-0.0086914375 0.0010864437 0.72969908
-0.008731083 -0 0.73038369
-0.0087710936 -0.0010963678 0.73107445
-0.0088114711 -0.0022028387 0.73177171
-0.0088522555 -0.0033195615 0.73247594
-0.0088933855 -0.0044466853 0.73318613
-0.0089349011 -0.0055842996 0.73390293
-0.0089768386 -0.0067326128 0.73462707
-0.0090191374 -0.0078917444 0.7353574
-0.0090618366 -0.0090618432 0.73609471
-0.0091049783 -0.010243118 0.73683959
-0.0091484962 -0.011435628 0.73759103
-0.0091924323 -0.012639612 0.73834962
-0.0092368294 -0.013855189 0.73911619
-0.0092816195 -0.015082628 0.73988956
-0.0093268473 -0.016321957 0.74067044
-0.0093725175 -0.017573476 0.74145907
-0.0094186747 -0.018837363 0.74225605
-0.0094652511 -0.020113677 0.74306029
-0.0095122904 -0.021402627 0.74387246
-0.009559799 -0.022704512 0.7446928
-0.0096078627 -0.024019599 0.74552268
-0.0096564516 -0.025348186 0.74636161
-0.0097055342 -0.026690185 0.74720913
-0.0097551178 -0.028045893 0.74806529
-0.0098052109 -0.029415607 0.74893028
-0.0098557808 -0.030799299 0.74980336
-0.0099069159 -0.032197446 0.75068629
-0.0099585839 -0.033610225 0.75157845
-0.010010838 -0.035037905 0.75248063
-0.010063598 -0.036480546 0.75339168
-0.010116919 -0.037938416 0.75431228
-0.010170806 -0.039411873 0.75524282
-0.010225272 -0.040901065 0.75618315
-0.010280324 -0.042406321 0.75713384
-0.010335972 -0.043927848 0.75809461
-0.010392225 -0.045465976 0.75906599
-0.01044914 -0.047021091 0.76004863
-0.010506636 -0.048593163 0.76104146
-0.010564768 -0.050182641 0.76204515
-0.010623594 -0.051789999 0.76306087
-0.010683174 -0.053415865 0.76408964
-0.010743427 -0.055060029 0.76513004
-0.010804413 -0.056723177 0.76618302
-0.010866045 -0.058404982 0.7672472
-0.0089558503 0.065249801 0.75635564
-0.0089738788 0.064099133 0.75671142
-0.008952653 0.062668592 0.75629258
-0.008762395 0.060084999 0.75253814
-0.0085369535 0.057319522 0.74808943
-0.0083228545 0.054693043 0.7438646
-0.0081192311 0.052195072 0.73984641
-0.0079252739 0.049816012 0.73601902
-0.0077404245 0.047548324 0.73237133
-0.0075640013 0.04538402 0.72888994
-0.0073954146 0.043316007 0.72556317
-0.006788583 0.038791895 0.71358842
-0.0067951865 0.037858874 0.71371871
-0.0068220193 0.037033856 0.71424824
-0.0068602823 0.036261529 0.71500325
-0.0068817809 0.035392046 0.71542746
-0.0069035525 0.034517765 0.71585715
-0.0069241486 0.033631593 0.71626353
-0.0069315033 0.032677114 0.71640873
-0.0069311573 0.031685352 0.71640182
-0.0069308113 0.030693591 0.71639502
-0.0069307419 0.0297032 0.71639359
-0.0069320346 0.028718442 0.7164191
-0.0069333273 0.027733326 0.71644461
-0.0069351518 0.026749849 0.71648073
-0.0069383648 0.025771081 0.71654415
-0.0069415807 0.02479139 0.71660751
-0.0069456333 0.023813635 0.7166875
-0.0069507356 0.022838145 0.71678823
-0.0069559375 0.021861523 0.71689081
-0.0069656898 0.020897061 0.71708328
-0.0069897086 0.019970596 0.71755725
-0.0070189075 0.019051343 0.71813345
-0.0070483517 0.018124372 0.71871448
-0.0070780432 0.017189562 0.71930039
-0.0071079619 0.016246766 0.71989083
-0.0071381591 0.015296072 0.72048664
-0.0071686138 0.014337271 0.72108763
-0.0071993298 0.013370216 0.72169375
-0.0072303102 0.012394845 0.72230512
-0.007261558 0.011411011 0.72292173
-0.0072930772 0.010418683 0.72354364
-0.0073248711 0.0094177127 0.72417116
-0.0073569175 0.0084079206 0.72480345
-0.0073892721 0.007389307 0.72544193
-0.0074219122 0.0063616633 0.72608602
-0.0074548423 0.0053249002 0.72673583
-0.0074880659 0.004278928 0.72739148
-0.0075215865 0.0032235384 0.72805291
-0.0075554084 0.0021587312 0.72872037
-0.0075895367 0.0010842383 0.72939384
-0.0076239458 2.9802322e-08 0.73007286
-0.0076586967 -0.0010941029 0.73075867
-0.0076937666 -0.0021981895 0.73145068
-0.007729216 -0.0033125281 0.7321502
-0.0077649937 -0.0044371486 0.73285615
-0.007801075 -0.00557217 0.73356819
-0.0078375228 -0.0067178309 0.73428738
-0.0078743119 -0.0078742802 0.73501337
-0.0079114195 -0.0090416074 0.73574567
-0.007948908 -0.010219991 0.73648536
-0.0079867532 -0.011409611 0.73723221
-0.00802493 -0.012610584 0.73798555
-0.0080635045 -0.013823122 0.7387467
-0.0081024515 -0.015047401 0.7395153
-0.0081417458 -0.016283453 0.74029064
-0.008181422 -0.017531604 0.74107361
-0.0082215192 -0.018792003 0.74186492
-0.0082620112 -0.02006489 0.74266398
-0.0083029047 -0.021350324 0.74347085
-0.0083442051 -0.022648543 0.74428588
-0.0083859181 -0.023959756 0.74510902
-0.0084280157 -0.025284022 0.74593973
-0.0084705725 -0.026621819 0.74677956
-0.0085135624 -0.027973115 0.74762791
-0.0085569909 -0.029338241 0.74848485
-0.0086008636 -0.030717373 0.74935061
-0.008645189 -0.032110691 0.75022525
-0.0086900098 -0.033518583 0.75110972
-0.0087353336 -0.034941316 0.75200415
-0.0087811342 -0.03637895 0.75290793
-0.0088274535 -0.037831903 0.75382197
-0.0088742273 -0.039300144 0.75474501
-0.0089215003 -0.040783972 0.75567776
-0.0089692781 -0.042283684 0.75662065
-0.00901761 -0.043799788 0.75757438
-0.0090664262 -0.045332104 0.75853765
-0.0091157733 -0.04688108 0.75951147
-0.0091656614 -0.048447073 0.7604959
-0.0092161382 -0.05003041 0.76149195
-0.0092671337 -0.051631182 0.76249826
-0.0093186963 -0.053249687 0.76351583
-0.0093708364 -0.054886311 0.76454467
-0.0094236052 -0.056541651 0.76558602
-0.0094769299 -0.05821538 0.76663822
-0.0095387204 -0.059957653 0.76785755
-0.0076901726 0.065366507 0.75667173
-0.0077073788 0.064228147 0.75706786
-0.0076886816 0.06279093 0.75663733
-0.0075106244 0.060084999 0.75253814
-0.0073173889 0.057319522 0.74808943
-0.007133875 0.054693043 0.7438646
-0.0069593415 0.052195072 0.73984641
-0.006793092 0.049816012 0.73601902
-0.0066346494 0.047548324 0.73237133
-0.0064834296 0.04538402 0.72888994
-0.006338927 0.043316007 0.72556317
-0.005813648 0.038757652 0.7134701
-0.005815031 0.037797719 0.71350193
-0.0058372878 0.036969513 0.71401429
-0.0058703758 0.036200643 0.71477616
-0.0058887415 0.035332471 0.71519893
-0.005907516 0.034460545 0.71563113
-0.0059258002 0.033579558 0.71605206
-0.0059329718 0.032631367 0.71621716
-0.005932854 0.031641901 0.71621448
-0.0059326766 0.030652165 0.71621042
-0.0059326366 0.029663205 0.71620953
-0.005933939 0.028680712 0.71623951
-0.0059352219 0.027697712 0.71626902
-0.005936861 0.026715875 0.71630675
-0.0059397463 0.025738895 0.71637321
-0.0059426539 0.024761081 0.71644008
-0.0059461789 0.023784727 0.71652126
-0.0059505813 0.022810578 0.71662259
-0.0059549897 0.021835029 0.7167241
-0.0059623918 0.020868391 0.71689451
-0.0059823813 0.01994133 0.71735471
-0.0060072946 0.01902312 0.71792829
-0.0060324166 0.018097281 0.71850669
-0.0060577495 0.017163664 0.71908987
-0.0060832957 0.016222119 0.71967798
-0.0061090589 0.015272677 0.72027111
-0.0061350409 0.014315128 0.7208693
-0.0061612655 0.013349414 0.72147304
-0.0061876946 0.012375385 0.72208148
-0.0062143514 0.011393011 0.72269517
-0.0062412387 0.010402083 0.72331417
-0.0062683597 0.0094025433 0.72393858
-0.0062957178 0.0083943009 0.72456843
-0.0063233147 0.0073772073 0.72520375
-0.0063511552 0.0063511729 0.72584468
-0.0063792421 0.0053160489 0.72649133
-0.0064075789 0.0042717159 0.72714365
-0.0064361678 0.0032181144 0.72780186
-0.0064650136 0.0021550357 0.72846591
-0.0064941188 0.0010823607 0.72913599
-0.0065234872 2.9802322e-08 0.72981215
-0.0065531223 -0.0010921657 0.73049438
-0.0065830275 -0.002194345 0.73118293
-0.006613208 -0.0033065975 0.73187768
-0.006643666 -0.0044290721 0.73257887
-0.0066744057 -0.0055619776 0.73328656
-0.0067054313 -0.0067054033 0.73400092
-0.0067367721 -0.0078595579 0.73472244
-0.0067683812 -0.0090245008 0.73545015
-0.0068002888 -0.010200411 0.73618472
-0.0068325512 -0.011387557 0.73692739
-0.0068650944 -0.012585998 0.73767674
-0.0068979757 -0.013795912 0.73843366
-0.0069311466 -0.01501748 0.73919737
-0.0069646654 -0.016250879 0.73996902
-0.0069984826 -0.017496169 0.74074751
-0.007032657 -0.018753737 0.74153429
-0.0070671393 -0.020023525 0.74232817
-0.0071019898 -0.021305978 0.74313051
-0.0071371566 -0.022600979 0.74394011
-0.0071727028 -0.023909003 0.74475843
-0.007208575 -0.02522999 0.74558431
-0.0072448379 -0.02656436 0.74641919
-0.0072814375 -0.02791217 0.74726176
-0.007318439 -0.029273719 0.74811363
-0.0073557878 -0.030649126 0.74897349
-0.0073935511 -0.032038718 0.74984288
-0.0074316724 -0.033442497 0.7507205
-0.0074702208 -0.034861028 0.75160795
-0.0075091701 -0.036294341 0.75250471
-0.0075485287 -0.037742645 0.75341076
-0.0075882697 -0.039206028 0.75432569
-0.0076284637 -0.040685117 0.75525105
-0.0076690856 -0.042179942 0.75618625
-0.0077101765 -0.04369095 0.75713229
-0.0077517428 -0.045218468 0.75808918
-0.0077937264 -0.046762347 0.75905573
-0.0078362012 -0.048323214 0.76003361
-0.0078791417 -0.049901217 0.76102215
-0.0079225209 -0.051496327 0.76202089
-0.007966415 -0.053109437 0.76303142
-0.0080107991 -0.054740429 0.76405323
-0.0080556432 -0.056389481 0.76508558
-0.0081010284 -0.058057368 0.76613045
-0.0081484541 -0.059755296 0.76722234
-0.0064183525 0.065467209 0.75694454
-0.0064321505 0.064321518 0.75732577
-0.0064161918 0.062878698 0.75688481
-0.0062588537 0.060084999 0.75253814
-0.006097849 0.05731979 0.74809015
-0.005944896 0.054693043 0.7438646
-0.0057994509 0.052195072 0.73984641
-0.0056609102 0.049816012 0.73601902
-0.0055288742 0.047548324 0.73237133
-0.0054028579 0.04538402 0.72888994
-0.0052824393 0.043316007 0.72556317
-0.0048423558 0.038738847 0.71340519
-0.0048393458 0.037746906 0.71332204
-0.0048579066 0.03692013 0.71383476
-0.0048853578 0.036151677 0.71459317
-0.0049006538 0.035284728 0.71501577
-0.0049162568 0.034413815 0.71544683
-0.0049313703 0.033533365 0.71586436
-0.0049382979 0.032592773 0.71605575
-0.0049385605 0.031606793 0.71606296
-0.0049385279 0.030618876 0.71606207
-0.0049385442 0.029631287 0.71606255
-0.0049395449 0.02864939 0.7160902
-0.0049406281 0.027667522 0.71612012
-0.0049419249 0.0266864 0.71615601
-0.0049444232 0.02571103 0.71622497
-0.0049469396 0.024734706 0.71629441
-0.004949871 0.023759395 0.71637547
-0.0049536801 0.022786945 0.71648073
-0.0049574948 0.021813005 0.71658605
-0.0049637007 0.020847559 0.71675754
-0.0049793082 0.01991725 0.71718866
-0.0049999687 0.018999875 0.71775943
-0.0050208187 0.01807496 0.71833551
-0.0050418256 0.017142206 0.71891582
-0.0050630439 0.016201735 0.71950203
-0.0050844415 0.015253365 0.72009313
-0.0051060035 0.01429683 0.72068882
-0.0051277666 0.013332218 0.72129011
-0.0051496979 0.012359291 0.72189599
-0.0051718359 0.01137805 0.7225076
-0.0051941467 0.010388315 0.72312391
-0.0052166693 0.0093899965 0.72374618
-0.0052393698 0.0083830059 0.72437334
-0.0052622869 0.0073672235 0.7250064
-0.0052853869 0.0063425004 0.72564459
-0.0053087091 0.0053087175 0.72628891
-0.0053322199 0.0042657852 0.72693843
-0.0053559584 0.0032135844 0.72759426
-0.0053798896 0.0021519959 0.72825539
-0.005404056 0.0010808408 0.72892302
-0.0054284399 -0 0.72959661
-0.0054530245 -0.001090616 0.73027587
-0.0054778536 -0.0021911263 0.7309618
-0.0055028894 -0.0033017099 0.73165345
-0.0055281757 -0.0044225156 0.73235202
-0.0055536749 -0.0055536628 0.73305649
-0.0055794311 -0.0066953003 0.73376811
-0.0056054061 -0.0078475475 0.73448563
-0.0056316452 -0.0090106428 0.73521054
-0.0056581097 -0.010184586 0.73594165
-0.0056848461 -0.011369675 0.73668033
-0.0057118144 -0.01256597 0.73742533
-0.0057390616 -0.013773739 0.73817807
-0.0057665482 -0.014992982 0.73893744
-0.0057943217 -0.016224116 0.73970473
-0.0058223633 -0.017467082 0.74047947
-0.0058506555 -0.018722087 0.74126101
-0.0058792704 -0.019989491 0.74205154
-0.0059081423 -0.021269292 0.74284917
-0.0059373239 -0.022561818 0.74365538
-0.0059667709 -0.023867071 0.74446893
-0.0059965355 -0.025185436 0.74529123
-0.0060265986 -0.026517034 0.74612176
-0.0060569402 -0.027861923 0.74695998
-0.0060876133 -0.029220521 0.74780738
-0.0061185989 -0.030592978 0.74866337
-0.0061498764 -0.031979352 0.74952745
-0.0061815013 -0.033380091 0.75040114
-0.0062134522 -0.034795314 0.75128382
-0.0062457095 -0.03622511 0.75217503
-0.0062783295 -0.037669957 0.7530762
-0.0063112923 -0.039130002 0.75398684
-0.0063445759 -0.040605247 0.75490636
-0.00637824 -0.042096347 0.75583637
-0.006412263 -0.04360339 0.75677633
-0.0064466232 -0.045126349 0.75772554
-0.0064813816 -0.046665907 0.75868583
-0.0065165171 -0.048222214 0.75965649
-0.006552007 -0.04979524 0.76063693
-0.0065879142 -0.051385701 0.76162899
-0.0066242171 -0.052993745 0.76263189
-0.0066608926 -0.054619312 0.76364511
-0.0066980072 -0.056263238 0.76467043
-0.0067355982 -0.057926148 0.76570904
-0.0067735827 -0.059607506 0.76675832
-0.0051411167 0.065549254 0.7571668
-0.0051516034 0.06439507 0.75752884
-0.0051395847 0.062959939 0.75711381
-0.0050070831 0.060084999 0.75253814
-0.0048782793 0.05731979 0.74809015
-0.0047559165 0.054693043 0.7438646
-0.0046395608 0.052195072 0.73984641
-0.0045287278 0.049816012 0.73601902
-0.0044231 0.047548324 0.73237133
-0.0043222862 0.04538402 0.72888994
-0.0042259512 0.043316007 0.72556317
-0.0038737839 0.038737863 0.71340168
-0.003867449 0.037707627 0.71318293
-0.003882406 0.036882907 0.71369946
-0.0039044765 0.036116421 0.71446162
-0.0039166505 0.035249889 0.71488208
-0.0039289007 0.034377903 0.71530503
-0.003941149 0.033499777 0.71572804
-0.0039470857 0.032563478 0.71593308
-0.0039473739 0.031578988 0.71594304
-0.0039474657 0.030592859 0.7159462
-0.0039475448 0.029606611 0.71594894
-0.0039484221 0.028626055 0.71597922
-0.003949353 0.027645499 0.71601135
-0.0039504152 0.02666533 0.71604806
-0.0039524236 0.025690764 0.71611732
-0.0039544469 0.024715304 0.71618724
-0.0039567226 0.023740381 0.71626586
-0.0039597386 0.022768557 0.71636993
-0.0039627985 0.021795392 0.71647567
-0.0039673187 0.020828485 0.71663177
-0.003979662 0.019898325 0.71705806
-0.0039961585 0.018981785 0.71762764
-0.0040127798 0.018057525 0.71820164
-0.0040295394 0.017125577 0.7187804
-0.0040464532 0.01618582 0.71936452
-0.0040634959 0.015238136 0.71995306
-0.004080683 0.014282435 0.72054654
-0.0040980298 0.013318628 0.72114569
-0.0041155112 0.012346536 0.72174931
-0.004133156 0.011366189 0.7223587
-0.0041509531 0.010377377 0.72297323
-0.0041689039 0.0093800426 0.72359312
-0.0041870107 0.0083740056 0.72421843
-0.0042052758 0.0073592961 0.72484916
-0.0042236852 0.0063355565 0.72548497
-0.0042422726 0.0053028762 0.72612685
-0.0042610238 0.0042610466 0.72677433
-0.0042799572 0.0032100081 0.7274282
-0.0042990432 0.0021495521 0.72808725
-0.0043183011 0.0010795891 0.72875226
-0.0043377317 2.9802322e-08 0.72942334
-0.0043573547 -0.0010893345 0.73010099
-0.0043771393 -0.0021885335 0.73078412
-0.0043971045 -0.0032978058 0.73147357
-0.0044172527 -0.0044172406 0.73216945
-0.0044376026 -0.0055469871 0.73287219
-0.0044581247 -0.0066871643 0.73358083
-0.0044788374 -0.0078379512 0.73429614
-0.0044997605 -0.0089994967 0.73501873
-0.0045208628 -0.01017192 0.7357474
-0.0045421636 -0.0113554 0.73648298
-0.0045636664 -0.012550026 0.73722553
-0.0045853918 -0.013756156 0.73797584
-0.0046073063 -0.01497376 0.73873258
-0.0046294318 -0.016202956 0.73949659
-0.0046517709 -0.017444104 0.74026811
-0.0046743448 -0.018697351 0.74104762
-0.0046971203 -0.019962758 0.74183416
-0.0047201188 -0.021240532 0.7426284
-0.0047433437 -0.022530854 0.74343044
-0.0047668177 -0.02383408 0.744241
-0.0047905059 -0.02515015 0.74505907
-0.0048144301 -0.026479334 0.74588525
-0.0048386143 -0.027822047 0.74672037
-0.0048630433 -0.029178262 0.74756396
-0.0048877196 -0.030548245 0.74841613
-0.0049126479 -0.031932175 0.749277
-0.0049378523 -0.03333047 0.7501474
-0.0049632955 -0.034743071 0.75102609
-0.0049890024 -0.036170304 0.75191379
-0.0050149774 -0.037612319 0.75281072
-0.005041224 -0.039069474 0.75371718
-0.0050677471 -0.040541977 0.75463307
-0.0050945501 -0.042030036 0.75555867
-0.0051216385 -0.043533921 0.7564941
-0.0051490166 -0.045053869 0.75743961
-0.0051767118 -0.046590388 0.75839597
-0.0052046836 -0.048143297 0.75936192
-0.0052329591 -0.049713075 0.76033837
-0.0052615432 -0.051299989 0.76132542
-0.0052904417 -0.052904427 0.76232344
-0.0053196591 -0.054526508 0.76333237
-0.0053492016 -0.056166619 0.76435256
-0.0053790738 -0.057824999 0.76538414
-0.0054093059 -0.059502333 0.76642817
-0.0038595072 0.065611631 0.75733578
-0.0038671356 0.064452261 0.75768697
-0.0038571716 0.06300047 0.75722814
-0.0037553122 0.060084999 0.75253814
-0.0036587093 0.05731979 0.74809015
-0.0035669375 0.054693043 0.7438646
-0.0034796707 0.052195072 0.73984641
-0.003396546 0.049816012 0.73601902
-0.0033173247 0.047548324 0.73237133
-0.0032417148 0.04538402 0.72888994
-0.0031694635 0.043316007 0.72556317
-0.0031003733 0.041338354 0.72238195
-0.0028982689 0.037677526 0.71307617
-0.0029092506 0.036850542 0.71358186
-0.0029255247 0.036081523 0.71433115
-0.0029348694 0.035218447 0.71476144
-0.0029442834 0.034349978 0.71519488
-0.0029536113 0.033474296 0.71562439
-0.0029584004 0.032542437 0.71584493
-0.0029585476 0.031557858 0.71585166
-0.002958626 0.030572504 0.71585536
-0.0029587143 0.029587179 0.71585941
-0.0029594013 0.028607577 0.715891
-0.0029601476 0.027628064 0.71592534
-0.0029609532 0.026648581 0.71596241
-0.0029624868 0.025674909 0.7160331
-0.0029640419 0.024700344 0.71610469
-0.002965776 0.023726225 0.7161845
-0.002968075 0.022755265 0.71629035
-0.0029703674 0.021782726 0.71639591
-0.0029737533 0.020816296 0.71655184
-0.0029826309 0.019884199 0.71696061
-0.002994966 0.018968135 0.71752858
-0.0030074138 0.018044502 0.71810168
-0.0030199552 0.01711309 0.71867919
-0.0030326119 0.016173959 0.71926188
-0.0030453752 0.015226901 0.71984959
-0.0030582356 0.014271766 0.72044176
-0.0030712162 0.013308614 0.72103941
-0.0030842964 0.012337208 0.72164178
-0.0030974995 0.011357516 0.72224963
-0.0031108158 0.01036942 0.72286284
-0.0031242364 0.009372741 0.72348076
-0.0031377843 0.008367449 0.72410452
-0.0031514391 0.0073533654 0.72473329
-0.0031652243 0.0063304901 0.72536796
-0.0031791308 0.0052985847 0.7260083
-0.0031931601 0.0042575598 0.72665429
-0.0032073136 0.0032073557 0.72730595
-0.0032215931 0.0021477342 0.72796345
-0.0032360004 0.0010786653 0.72862685
-0.0032505374 2.9802322e-08 0.72929615
-0.0032652051 -0.0010883808 0.72997153
-0.0032800063 -0.002186656 0.73065299
-0.003294942 -0.003294915 0.73134077
-0.0033100143 -0.0044133365 0.73203474
-0.0033252127 -0.0055420101 0.7327345
-0.003340564 -0.0066810846 0.73344135
-0.0033560575 -0.0078307986 0.73415482
-0.0033716955 -0.008991152 0.73487478
-0.00338748 -0.010162413 0.73560154
-0.0034034129 -0.011344671 0.73633522
-0.0034194964 -0.012538165 0.73707575
-0.0034357328 -0.013742924 0.73782331
-0.0034521238 -0.014959186 0.73857802
-0.0034686858 -0.016187161 0.7393406
-0.0034853935 -0.017426938 0.74010992
-0.0035022632 -0.018678725 0.74088669
-0.0035193108 -0.019942731 0.74167162
-0.003536511 -0.021219045 0.74246359
-0.0035538801 -0.022507876 0.74326336
-0.0035714351 -0.023809522 0.74407166
-0.0035891503 -0.025124013 0.74488729
-0.0036070419 -0.026451647 0.74571109
-0.0036251124 -0.027792513 0.74654323
-0.0036433802 -0.029147029 0.74738431
-0.0036618176 -0.030515134 0.74823326
-0.0036804427 -0.031897157 0.74909085
-0.0036992738 -0.033293456 0.74995792
-0.003718283 -0.03470394 0.75083315
-0.0037374885 -0.036129028 0.75171745
-0.0037569094 -0.037569076 0.7526117
-0.003776517 -0.039023966 0.75351447
-0.0037963304 -0.040494144 0.75442678
-0.0038163692 -0.041980028 0.75534946
-0.0038366206 -0.043481678 0.75628197
-0.003857088 -0.044999331 0.75722438
-0.003877775 -0.046533257 0.75817686
-0.0038986853 -0.048083782 0.75913966
-0.0039198217 -0.049651027 0.76011288
-0.0039411718 -0.051235229 0.76109594
-0.0039627734 -0.052836955 0.7620905
-0.0039846124 -0.054456353 0.76309615
-0.0040066941 -0.056093723 0.76411283
-0.0040290221 -0.057749301 0.76514089
-0.0040515997 -0.059423447 0.76618052
-0.0025746645 0.06565392 0.75745034
-0.0025796001 0.06449002 0.75779122
-0.0025714587 0.063000768 0.75722897
-0.0025035415 0.060084999 0.75253814
-0.0024391396 0.05731979 0.74809015
-0.0023779583 0.054693043 0.7438646
-0.0023197804 0.052195072 0.73984641
-0.0022643639 0.049816012 0.73601902
-0.00221155 0.047548324 0.73237133
-0.0021611431 0.04538402 0.72888994
-0.0021129756 0.043316007 0.72556317
-0.0020669156 0.041338354 0.72238195
-0.0019311943 0.037658304 0.71300817
-0.0019386723 0.036834806 0.71352464
-0.0019496658 0.036068827 0.71428394
-0.0019557818 0.035204113 0.71470636
-0.0019619362 0.034333885 0.7151314
-0.0019679731 0.033455551 0.7155484
-0.001971306 0.032526582 0.71577853
-0.0019715216 0.031544358 0.71579349
-0.0019715477 0.030559003 0.71579528
-0.0019715675 0.02957353 0.71579659
-0.0019720185 0.028594285 0.7158277
-0.0019725219 0.027615339 0.71586251
-0.0019730455 0.026636124 0.71589875
-0.0019740865 0.025663167 0.71597064
-0.0019751289 0.024689108 0.71604258
-0.001976284 0.023715436 0.71612239
-0.0019778546 0.022745341 0.71623081
-0.0019794409 0.021773875 0.71634042
-0.0019816039 0.020806879 0.71648979
-0.0019874705 0.019874722 0.71689492
-0.001995686 0.018959016 0.71746242
-0.0020039699 0.018035769 0.71803457
-0.0020123227 0.017104745 0.71861148
-0.0020207453 0.016165972 0.7191931
-0.0020292457 0.015219361 0.71978021
-0.0020378109 0.014264703 0.72037184
-0.0020464489 0.013301939 0.72096837
-0.0020551605 0.012331009 0.72157001
-0.0020639463 0.011351705 0.72217691
-0.0020728076 0.010364056 0.72278893
-0.0020817453 0.0093678832 0.7234062
-0.0020907607 0.0083630681 0.72402889
-0.0020998614 0.0073495507 0.72465742
-0.0021090347 0.0063271224 0.72529095
-0.0021182883 0.0052957237 0.72593009
-0.0021276234 0.004255265 0.72657484
-0.0021370414 0.0032055676 0.7272253
-0.0021465428 0.0021465719 0.72788155
-0.0021561293 0.0010780692 0.72854364
-0.0021658097 2.9802322e-08 0.72921222
-0.0021755693 -0.001087755 0.72988629
-0.0021854176 -0.0021853745 0.7305665
-0.002195355 -0.0032930076 0.73125285
-0.0022053916 -0.0044107437 0.73194599
-0.0022155121 -0.0055387914 0.73264503
-0.0022257259 -0.0066771507 0.73335046
-0.0022360426 -0.0078261197 0.73406291
-0.0022464474 -0.008985728 0.73478156
-0.002256949 -0.010156244 0.73550683
-0.0022675581 -0.011337757 0.73623961
-0.0022782583 -0.012530416 0.73697871
-0.0022890605 -0.013734341 0.73772472
-0.0022999742 -0.014949799 0.73847848
-0.0023109836 -0.01617685 0.73923886
-0.0023220987 -0.017415702 0.74000651
-0.0023333216 -0.018666536 0.74078166
-0.0023446628 -0.019929618 0.74156493
-0.002356105 -0.021204919 0.74235529
-0.0023676595 -0.022492766 0.74315327
-0.0023793378 -0.02379334 0.74395978
-0.0023911218 -0.025106788 0.74477375
-0.0024030234 -0.026433259 0.74559575
-0.0024150538 -0.027773112 0.74642664
-0.0024271952 -0.029126346 0.74726522
-0.0024394598 -0.03049323 0.7481122
-0.0024518485 -0.031874031 0.74896789
-0.0024643741 -0.033269018 0.74983299
-0.0024770179 -0.034678221 0.75070626
-0.002489792 -0.036101967 0.75158852
-0.0025027094 -0.037540615 0.75248069
-0.0025157507 -0.038994104 0.75338137
-0.0025289285 -0.040462822 0.75429159
-0.0025422559 -0.041947216 0.75521201
-0.002555714 -0.043447137 0.75614148
-0.002569315 -0.044963002 0.75708085
-0.0025830613 -0.04649508 0.7580303
-0.0025969674 -0.048043907 0.75899076
-0.0026110122 -0.049609214 0.75996077
-0.0026252097 -0.051191598 0.76094139
-0.0026395745 -0.052791476 0.76193345
-0.0026540854 -0.054408729 0.76293564
-0.0026687565 -0.056043893 0.76394898
-0.0026836027 -0.057697415 0.76497436
-0.0026986154 -0.059369534 0.76601118
-0.0012877559 0.065675557 0.75750887
-0.0012900741 0.064503729 0.75782907
-0.0012857293 0.063000768 0.75722897
-0.0012517708 0.060084999 0.75253814
-0.0012195698 0.05731979 0.74809015
-0.0011889791 0.054693043 0.7438646
-0.0011598902 0.052195072 0.73984641
-0.001132182 0.049816012 0.73601902
-0.001105775 0.047548324 0.73237133
-0.0010805716 0.04538402 0.72888994
-0.0010564878 0.043316007 0.72556317
-0.0010334578 0.041338354 0.72238195
-0.00096534018 0.03764829 0.7129727
-0.00096904242 0.03682363 0.71348411
-0.00097451993 0.036057234 0.71424073
-0.0009775823 0.035192966 0.71466374
-0.00098070607 0.034324735 0.71509522
-0.00098381401 0.033449739 0.71552455
-0.00098552566 0.032522351 0.71576095
-0.00098558771 0.031538814 0.71576947
-0.00098559423 0.030553401 0.71577042
-0.00098561379 0.029568434 0.71577311
-0.00098583603 0.028589219 0.71580386
-0.0009860975 0.027610779 0.71583998
-0.00098636572 0.026631892 0.715877
-0.00098688621 0.025659055 0.71594888
-0.00098741043 0.024685293 0.7160213
-0.00098798773 0.023711741 0.71610105
-0.00098875305 0.022741348 0.71620673
-0.00098952954 0.021769643 0.71631402
-0.00099061057 0.020802855 0.71646333
-0.00099350617 0.019870162 0.71686333
-0.00099761202 0.018954635 0.71743047
-0.001001752 0.018031567 0.71800232
-0.0010059265 0.017100751 0.71857899
-0.0010101359 0.016162187 0.71916044
-0.0010143806 0.015215695 0.71974683
-0.0010186612 0.014261276 0.72033811
-0.001022978 0.01329872 0.72093439
-0.0010273317 0.012327999 0.72153574
-0.0010317189 0.011348933 0.72214174
-0.0010361475 0.010361493 0.72275347
-0.0010406141 0.0093655288 0.72337043
-0.0010451195 0.0083609819 0.72399282
-0.001049664 0.0073476434 0.72462058
-0.0010542482 0.0063254833 0.72525382
-0.0010588727 0.0052943826 0.7258926
-0.0010635379 0.0042541325 0.72653699
-0.0010682442 0.0032047629 0.7271871
-0.0010729927 0.0021459758 0.72784305
-0.0010777834 0.001077801 0.72850478
-0.0010826171 2.9802322e-08 0.72917247
-0.0010874943 -0.0010874867 0.72984618
-0.0010924117 -0.0021848381 0.73052549
-0.0010973777 -0.0032921433 0.73121142
-0.0011023893 -0.0044095516 0.73190367
-0.0011074467 -0.0055372417 0.7326023
-0.0011125507 -0.006675303 0.7333073
-0.001117702 -0.0078239143 0.73401886
-0.0011229013 -0.0089831948 0.73473704
-0.0011281492 -0.010153323 0.73546195
-0.0011334463 -0.011334479 0.73619366
-0.0011387934 -0.012526691 0.73693228
-0.0011441913 -0.013730288 0.73767793
-0.0011496403 -0.014945298 0.73843062
-0.0011551417 -0.016171962 0.73919052
-0.001160696 -0.017410427 0.73995769
-0.0011663039 -0.018660903 0.74073243
-0.0011719617 -0.019923329 0.74151385
-0.0011776793 -0.021198183 0.74230367
-0.0011834529 -0.022485614 0.74310124
-0.0011892834 -0.023785651 0.74390662
-0.0011951718 -0.025098562 0.74471992
-0.0012011186 -0.026424587 0.74554145
-0.001207125 -0.027763844 0.74637109
-0.0012131918 -0.029116571 0.74720907
-0.0012193198 -0.030482978 0.74805564
-0.00122551 -0.031863272 0.74891067
-0.0012317634 -0.033257604 0.74977446
-0.0012380809 -0.03466627 0.75064713
-0.0012444636 -0.03608942 0.7515288
-0.0012509124 -0.037527353 0.75241959
-0.0012574286 -0.038980275 0.75331968
-0.0012640128 -0.040448397 0.75422919
-0.0012706665 -0.041931987 0.75514823
-0.0012773904 -0.043431222 0.75607705
-0.0012841859 -0.044946492 0.75701576
-0.0012910542 -0.046477914 0.75796443
-0.0012979964 -0.048025846 0.75892341
-0.0013050134 -0.049590498 0.7598927
-0.0013121068 -0.051172137 0.76087248
-0.001319272 -0.052770823 0.76186228
-0.0013265217 -0.054387361 0.7628637
-0.0013338516 -0.05602172 0.7638762
-0.0013412628 -0.057674289 0.76489991
-0.001348757 -0.059345305 0.76593512
0 0.065675288 0.75750816
0 0.064506233 0.75783598
0 0.063000768 0.75722897
0 0.060084999 0.75253814
0 0.05731979 0.74809015
0 0.054693043 0.7438646
0 0.052195072 0.73984641
0 0.049816012 0.73601902
0 0.047548324 0.73237133
0 0.04538402 0.72888994
0 0.043316007 0.72556317
0 0.041338354 0.72238195
0 0.037648499 0.71297354
0 0.036824703 0.71348798
0 0.036057234 0.71424073
0 0.035193115 0.7146641
0 0.034324586 0.71509475
0 0.03344956 0.71552408
0 0.03252247 0.71576142
0 0.031538725 0.71576905
0 0.030553401 0.71577042
0 0.029568523 0.71577358
0 0.028589219 0.71580386
0 0.027610779 0.71583998
0 0.026631802 0.71587652
0 0.025659055 0.71594888
0 0.024685293 0.7160213
0 0.023711652 0.71610057
0 0.022741258 0.71620631
0 0.021769643 0.71631402
0 0.020801097 0.716452
0 0.019870192 0.71686381
0 0.018954724 0.71743095
0 0.018031597 0.71800286
0 0.017100811 0.71857947
0 0.016162246 0.71916091
0 0.015215784 0.7197473
0 0.014261335 0.72033852
0 0.01329878 0.72093481
0 0.012328058 0.72153628
0 0.011348993 0.72214228
0 0.010361522 0.722754
0 0.0093655586 0.72337097
0 0.0083610117 0.72399336
0 0.007347703 0.72462112
0 0.0063255429 0.7252543
0 0.0052944124 0.72589314
0 0.0042541921 0.72653753
0 0.0032047629 0.72718769
0 0.0021460056 0.72784352
0 0.001077801 0.72850525
0 -0 0.729173
0 -0.0010874867 0.72984678
0 -0.0021847785 0.73052597
0 -0.0032921135 0.73121202
0 -0.0044095516 0.73190421
0 -0.0055372417 0.73260283
0 -0.006675303 0.7333079
0 -0.0078238845 0.7340194
0 -0.0089832246 0.73473763
0 -0.010153353 0.73546255
0 -0.011334479 0.73619425
0 -0.012526751 0.73693287
0 -0.013730347 0.73767847
0 -0.014945358 0.73843116
0 -0.016172051 0.73919111
0 -0.017410487 0.73995835
0 -0.018660903 0.74073303
0 -0.019923508 0.74151516
0 -0.021198392 0.74230504
0 -0.022485793 0.74310255
0 -0.02378583 0.74390793
0 -0.025098801 0.74472129
0 -0.026424825 0.74554282
0 -0.027764112 0.74637246
0 -0.029116958 0.74721122
0 -0.030483365 0.74805772
0 -0.03186366 0.74891281
0 -0.033258021 0.7497766
0 -0.034666687 0.75064921
0 -0.036089897 0.75153095
0 -0.037527859 0.75242174
0 -0.038980752 0.75332189
0 -0.040448874 0.75423133
0 -0.041932493 0.75515056
0 -0.043431818 0.75607932
0 -0.044947088 0.75701809
0 -0.04647854 0.75796688
0 -0.048026472 0.7589258
0 -0.049591154 0.75989509
0 -0.051172823 0.76087487
0 -0.052771777 0.76186556
0 -0.054388314 0.76286697
0 -0.056022763 0.76387948
0 -0.057675302 0.76490325
0 -0.059346646 0.76593935
0.0012873377 0.065654248 0.75745112
0.0012898056 0.064490288 0.757792
0.0012857293 0.063000768 0.75722897
0.0012517708 0.060084999 0.75253814
0.0012195698 0.05731979 0.74809015
0.0011889791 0.054693043 0.7438646
0.0011598902 0.052195072 0.73984641
0.001132182 0.049816012 0.73601902
0.001105775 0.047548324 0.73237133
0.0010805716 0.04538402 0.72888994
0.0010564878 0.043316007 0.72556317
0.0010334578 0.041338354 0.72238195
0.00096560654 0.037658662 0.71300948
0.00096938346 0.036836594 0.7135312
0.00097483612 0.036068916 0.71428436
0.00097789406 0.035204202 0.71470678
0.00098097126 0.034334034 0.71513188
0.00098398339 0.033455461 0.71554792
0.00098565302 0.032526582 0.71577853
0.00098576082 0.031544358 0.71579349
0.00098577386 0.030559003 0.71579528
0.00098578702 0.029573619 0.71579707
0.00098600273 0.028594106 0.71582687
0.00098625117 0.027615041 0.71586114
0.00098651613 0.026635945 0.7158978
0.00098703674 0.025662988 0.71596968
0.00098756119 0.024689049 0.71604216
0.00098813872 0.023715317 0.71612191
0.00098892732 0.022745341 0.71623081
0.00098972046 0.021773875 0.71634042
0.00099075248 0.020805836 0.71648294
0.00099374191 0.019874871 0.71689594
0.00099784974 0.018959135 0.71746331
0.0010019917 0.018035859 0.71803546
0.0010061681 0.017104894 0.71861237
0.0010103795 0.016166091 0.71919411
0.0010146264 0.01521942 0.71978068
0.001018909 0.014264733 0.72037232
0.0010232279 0.013301969 0.7209689
0.0010275837 0.012330979 0.72157055
0.0010319767 0.011351764 0.72217739
0.0010364074 0.010364115 0.72278935
0.0010408763 0.009367913 0.72340667
0.001045384 0.0083630681 0.72402942
0.0010499307 0.0073495507 0.72465742
0.0010545173 0.0063271224 0.72529095
0.0010591442 0.0052957237 0.72593009
0.0010638117 0.004255265 0.72657484
0.0010685207 0.0032055676 0.7272253
0.0010732714 0.0021465719 0.72788155
0.0010780647 0.0010780692 0.72854364
0.0010829008 5.9604645e-08 0.72921169
0.0010877807 -0.001087755 0.7298857
0.0010927047 -0.0021854341 0.73056597
0.0010976736 -0.0032929778 0.73125225
0.0011026877 -0.0044107437 0.73194492
0.0011077437 -0.0055386722 0.73264331
0.0011128547 -0.0066771209 0.73334926
0.0011180089 -0.0078260601 0.73406124
0.0011232151 -0.008985728 0.73478043
0.001128466 -0.010156214 0.7355057
0.0011337703 -0.011337698 0.73623842
0.0011391249 -0.012530357 0.73697805
0.0011445258 -0.013734281 0.73772413
0.0011499827 -0.014949739 0.73847783
0.0011554873 -0.01617682 0.73923826
0.0011610494 -0.017415702 0.74000651
0.0011666653 -0.018666655 0.74078232
0.0011723314 -0.019929618 0.74156493
0.0011780572 -0.021205008 0.74235588
0.0011838346 -0.022492856 0.74315393
0.0011896737 -0.023793459 0.7439605
0.0011955658 -0.025106847 0.74477434
0.0012015215 -0.026433468 0.74559706
0.0012075367 -0.027773321 0.74642795
0.0012136076 -0.029126555 0.74726653
0.0012197448 -0.030493587 0.74811435
0.0012259394 -0.031874388 0.74896997
0.0012322023 -0.033269465 0.74983513
0.0012385243 -0.034678668 0.7507084
0.0012449168 -0.036102593 0.75159144
0.0012513758 -0.03754124 0.75248361
0.0012578965 -0.038994789 0.75338435
0.0012644911 -0.040463656 0.75429523
0.0012711497 -0.041947931 0.75521499
0.0012778844 -0.043448061 0.75614524
0.0012846852 -0.044963956 0.75708473
0.0012915644 -0.046496302 0.75803494
0.0012985176 -0.048045158 0.75899541
0.0013055404 -0.049610525 0.75996554
0.0013126455 -0.051193178 0.76094699
0.0013198224 -0.052792877 0.76193833
0.001327084 -0.054410398 0.76294136
0.0013344261 -0.05604586 0.76395559
0.0013418439 -0.057699263 0.7649802
0.0013493506 -0.059371442 0.7660172
0.0025730049 0.065611631 0.75733578
0.0025781016 0.064452559 0.75768775
0.0025714475 0.06300047 0.75722814
0.0025035415 0.060084999 0.75253814
0.0024391396 0.05731979 0.74809015
0.0023779583 0.054693043 0.7438646
0.0023197804 0.052195072 0.73984641
0.0022643725 0.049816221 0.73601955
0.00221155 0.047548324 0.73237133
0.0021611431 0.04538402 0.72888994
0.0021129756 0.043316007 0.72556317
0.0020669156 0.041338354 0.72238195
0.0019322294 0.03767851 0.71307969
0.0019395762 0.036851972 0.71358705
0.0019503499 0.036081523 0.71433115
0.0019565858 0.035218596 0.71476191
0.0019628557 0.034349978 0.71519488
0.0019690155 0.033473283 0.7156204
0.0019722604 0.032542318 0.71584451
0.0019723652 0.031557858 0.71585166
0.0019724111 0.030572385 0.71585482
