# .PCD v0.7 - Point Cloud Data file format
VERSION 0.7
FIELDS x y z
SIZE 4 4 4
TYPE F F F
COUNT 1 1 1
WIDTH 1314
HEIGHT 1
VIEWPOINT 0 0 0 1 0 0 0
POINTS 1314
DATA ascii
-0.011661369 -0.0026910603 0.70353657
-0.011672565 -0.0035915673 0.7036556
-0.011688057 -0.0044953823 0.70382017
-0.011706318 -0.0054029226 0.70401424
-0.011725384 -0.0063136518 0.70421678
-0.011750436 -0.0072310269 0.70448297
-0.011777748 -0.0081537962 0.70477313
-0.011808145 -0.0090831518 0.70509619
-0.011837538 -0.010016352 0.70540845
-0.011865803 -0.010953039 0.70570886
-0.0118934 -0.011893362 0.70600206
-0.011922669 -0.012839764 0.70631301
-0.011954188 -0.01379326 0.70664793
-0.011987993 -0.014754415 0.70700717
-0.012024083 -0.015723795 0.70739061
-0.012062612 -0.016702056 0.70780003
-0.012103509 -0.017689705 0.70823461
-0.012147089 -0.018687814 0.70869768
-0.012193137 -0.019696563 0.70918691
-0.012241823 -0.020716906 0.70970422
-0.012293007 -0.021749139 0.71024811
-0.012346515 -0.022793561 0.71081674
-0.012402958 -0.023851842 0.71141636
-0.01246265 -0.024925292 0.71205062
-0.012541199 -0.026047081 0.71288532
-0.012692215 -0.027337044 0.71448994
-0.011949499 0.028877944 0.71717906
-0.011607479 0.027084172 0.71324205
-0.011503947 0.025883883 0.71205032
-0.01144213 0.02479133 0.71133864
-0.011391254 0.023731768 0.71075302
-0.011343027 0.022686094 0.71019787
-0.011297354 0.021653235 0.70967215
-0.011253997 0.020632327 0.70917302
-0.011212733 0.019622296 0.70869803
-0.011173589 0.018622667 0.70824748
-0.011136908 0.017633438 0.70782518
-0.011102331 0.016653508 0.70742726
-0.011069787 0.01568222 0.70705259
-0.011039174 0.01471895 0.70670021
-0.011010667 0.013763368 0.70637208
-0.010984099 0.01281479 0.70606625
-0.010959608 0.011872917 0.70578432
-0.010937072 0.010937095 0.70552486
-0.010916631 0.010006964 0.7052896
-0.010897796 0.0090815127 0.70507282
-0.010877931 0.0081584454 0.70484412
-0.010860552 0.0072404146 0.70464402
-0.010842372 0.0063247383 0.70443475
-0.010827108 0.0054135621 0.7042591
-0.010813789 0.0045057535 0.70410573
-0.010803314 0.003601104 0.70398521
-0.010794914 0.0026987791 0.70388854
-0.010790313 0.0017984211 0.70383561
-0.010787084 0.00089895725 0.70379841
-0.010787052 2.9802322e-08 0.70379806
-0.010790084 -0.00089913607 0.70383292
-0.01079472 -0.001799047 0.70388627
-0.01080315 -0.0027007461 0.70398331
-0.010813592 -0.0036045015 0.70410347
-0.010827536 -0.0045114458 0.70426404
-0.010843392 -0.0054216683 0.70444655
-0.010860255 -0.0063351095 0.70464063
-0.010879058 -0.0072526932 0.70485711
-0.010897762 -0.0081733167 0.7050724
-0.010917131 -0.0090975761 0.70529532
-0.010937574 -0.010026127 0.7055307
-0.010959911 -0.010959923 0.70578784
-0.010984234 -0.011899561 0.7060678
-0.011010566 -0.012845635 0.70637089
-0.011038901 -0.013798624 0.70669711
-0.011069409 -0.014759213 0.7070483
-0.01110195 -0.015727758 0.70742285
-0.01113663 -0.016704947 0.70782202
-0.011173449 -0.017691255 0.70824587
-0.011212521 -0.018687516 0.70869565
-0.011253748 -0.01969403 0.70917016
-0.011297138 -0.020711422 0.70966965
-0.011343136 -0.021740973 0.71019912
-0.011391582 -0.02278313 0.71075678
-0.011442167 -0.023837835 0.71133912
-0.01150276 -0.024922609 0.71203661
-0.011609254 -0.026120812 0.71326244
-0.011948459 -0.027879715 0.71716702
-0.011259497 0.029684156 0.72101897
-0.010758002 0.027384043 0.71472144
-0.010568246 0.025940239 0.71233851
-0.010488619 0.02479133 0.71133864
-0.010437952 0.023722649 0.71070242
-0.010395001 0.022680044 0.71016306
-0.010354039 0.02164939 0.70964867
-0.010315188 0.020630419 0.7091608
-0.010278565 0.019622713 0.70870095
-0.010243837 0.01862523 0.70826477
-0.010210935 0.017637104 0.70785165
-0.01017986 0.016657978 0.70746136
-0.010150736 0.015687525 0.70709574
-0.010123533 0.014725149 0.70675415
-0.010098159 0.013770223 0.70643544
-0.010074524 0.012822121 0.70613861
-0.010052668 0.011880428 0.70586419
-0.010032536 0.010944605 0.70561135
-0.01001414 0.010014176 0.70538038
-0.0099975839 0.0090887249 0.70517254
-0.0099827871 0.0081677437 0.70498669
-0.0099696442 0.0072506368 0.70482159
-0.0099582644 0.0063371062 0.70467865
-0.0099482406 0.0054263175 0.70455283
-0.0099394741 0.0045179725 0.70444274
-0.0099324435 0.0036118329 0.70435447
-0.0099261738 0.0027071536 0.70427573
-0.0099228323 0.001804173 0.70423377
-0.0099204546 0.00090190768 0.70420396
-0.0099208467 -0 0.70420885
-0.0099222902 -0.00090196729 0.70422697
-0.0099263852 -0.001804769 0.70427841
-0.0099317795 -0.0027086437 0.70434612
-0.0099396864 -0.0036144257 0.70444542
-0.0099478159 -0.0045217276 0.70454752
-0.009958203 -0.0054317415 0.70467794
-0.0099697355 -0.0063443482 0.70482278
-0.0099829398 -0.0072603226 0.7049886
-0.0099977059 -0.0081799328 0.70517397
-0.010014354 -0.0091039538 0.70538306
-0.01003269 -0.010032684 0.70561332
-0.010052791 -0.010966659 0.70586574
-0.010074555 -0.011906266 0.70613903
-0.010098128 -0.012852162 0.70643508
-0.010123502 -0.013804764 0.70675373
-0.010150673 -0.014764577 0.70709491
-0.010179733 -0.015732318 0.70745987
-0.010210648 -0.016708344 0.70784801
-0.010243451 -0.017693192 0.70826
-0.010278243 -0.018687665 0.70869684
-0.010315156 -0.01969257 0.70916039
-0.010354171 -0.020708323 0.7096504
-0.010395099 -0.021735191 0.71016431
-0.010437919 -0.022773623 0.710702
-0.010490099 -0.023841143 0.71135724
-0.010565924 -0.024973989 0.71230948
-0.010757967 -0.026405871 0.71472096
-0.011260622 -0.028663397 0.72103316
-0.010673778 0.030953974 0.72706747
-0.0099847959 0.027957439 0.71755034
-0.0096775256 0.026129335 0.71330595
-0.009553425 0.024838924 0.71159166
-0.0094920462 0.023730129 0.71074384
-0.009447718 0.022674561 0.71013153
-0.0094117792 0.021647125 0.70963508
-0.009377473 0.020630479 0.70916116
-0.0093447668 0.019623995 0.70870942
-0.0093139205 0.018627852 0.70828331
-0.0092848707 0.017641246 0.70788211
-0.0092575289 0.016663581 0.70750439
-0.009231695 0.015693903 0.70714748
-0.0092073437 0.014731765 0.70681119
-0.0091847656 0.013777167 0.70649934
-0.0091639077 0.012829483 0.70621121
-0.0091446051 0.011887997 0.7059446
-0.0091268122 0.010952175 0.70569873
-0.0091105131 0.010021567 0.7054736
-0.009095828 0.0090958178 0.70527083
-0.009082689 0.0081743896 0.70508933
-0.009071026 0.0072568357 0.70492816
-0.0090609379 0.0063426495 0.7047888
-0.0090522785 0.0054313838 0.70466924
-0.0090450924 0.0045225918 0.70456994
-0.0090393191 0.003615737 0.70449018
-0.0090350071 0.002710551 0.70443064
-0.0090320436 0.0018064082 0.70438969
-0.0090305908 0.00090304017 0.70436966
-0.0090305638 2.9802322e-08 0.70436919
-0.0090319617 -0.00090321898 0.70438856
-0.0090348152 -0.0018069446 0.70442802
-0.0090390444 -0.0027116537 0.70448637
-0.0090448176 -0.0036179125 0.70456618
-0.0090520848 -0.0045259893 0.7046665
-0.0090607451 -0.0054364502 0.70478618
-0.0090709152 -0.0063496232 0.70492661
-0.009082689 -0.007266134 0.70508927
-0.0090959128 -0.0081863105 0.7052719
-0.0091106528 -0.0091106296 0.70547557
-0.0091268979 -0.010039568 0.70569998
-0.0091447188 -0.010973662 0.70594615
-0.0091639925 -0.011913151 0.70621234
-0.0091848504 -0.012858808 0.70650053
-0.0092073716 -0.013811052 0.70681155
-0.0092314659 -0.014770299 0.70714432
-0.0092571834 -0.015737206 0.70749962
-0.0092845811 -0.016712219 0.70787805
-0.0093138032 -0.017696232 0.70828176
-0.0093447668 -0.018689513 0.70870948
-0.0093773846 -0.01969251 0.70915997
-0.0094116312 -0.020705581 0.70963299
-0.0094478987 -0.021730155 0.71013403
-0.0094915004 -0.022779584 0.71073633
-0.0095545305 -0.023886323 0.71160692
-0.009679826 -0.025167525 0.71333772
-0.009982584 -0.026952952 0.71751976
-0.010674736 -0.029889226 0.7270807
-0.0091943732 0.028604716 0.7207436
-0.0088715833 0.026614755 0.71578938
-0.008658831 0.02501443 0.71252406
-0.0085613681 0.023781627 0.71102822
-0.0085073253 0.022686243 0.71019876
-0.0084699318 0.021645427 0.70962483
-0.0084398855 0.020630866 0.70916367
-0.0084114261 0.019626677 0.70872688
-0.0083843395 0.018631876 0.70831114
-0.0083586276 0.017646015 0.7079165
-0.008334578 0.016669214 0.70754743
-0.0083120083 0.015700459 0.707201
-0.0082907677 0.014739156 0.70687491
-0.0082709379 0.013784915 0.70657063
-0.0082523981 0.012837112 0.70628607
-0.0082353866 0.011895567 0.706025
-0.0082198326 0.010959804 0.70578623
-0.0082055442 0.010029018 0.705567
-0.0081926603 0.0091029406 0.70536923
-0.0081811156 0.0081811547 0.70519209
-0.0081708757 0.0072630048 0.70503485
-0.0081620067 0.0063482225 0.70489872
-0.008154422 0.0054363012 0.70478231
-0.008148117 0.0045267344 0.70468557
-0.0081430841 0.0036191642 0.70460832
-0.0081392461 0.002713114 0.70454943
-0.0081366487 0.0018081665 0.7045095
-0.0081353867 0.00090393424 0.70449018
-0.0081353374 -0 0.70448947
-0.00813655 -0.00090405345 0.70450807
-0.0081390971 -0.0018086731 0.70454717
-0.0081428122 -0.0027142465 0.70460415
-0.0081478441 -0.0036212504 0.7046814
-0.0081541985 -0.004530102 0.70477891
-0.0081618568 -0.0054412484 0.70489645
-0.0081708757 -0.0063551068 0.70503485
-0.008181191 -0.0072721541 0.70519316
-0.0081927851 -0.0081927776 0.70537114
-0.0082056709 -0.0091173947 0.70556891
-0.008219908 -0.010046512 0.70578742
-0.0082354881 -0.010980636 0.70602661
-0.0082525266 -0.011920333 0.7062881
-0.0082708867 -0.012865812 0.70656991
-0.0082906131 -0.013817668 0.70687258
-0.0083117504 -0.014776438 0.70719701
-0.0083344225 -0.015742779 0.70754504
-0.0083586276 -0.016717255 0.70791656
-0.0083842082 -0.017699957 0.70830911
-0.0084112147 -0.01869157 0.70872366
-0.0084397793 -0.019692808 0.70916206
-0.0084701469 -0.020704776 0.70962811
-0.0085077845 -0.021742105 0.71020579
-0.0085619427 -0.022831827 0.71103704
-0.0086596152 -0.024054468 0.7125361
-0.0088720834 -0.025630474 0.71579707
-0.0091920365 -0.027576089 0.72070771
-0.00839346 0.029377103 0.72455406
-0.0080388468 0.02713114 0.71843106
-0.0078236414 0.025426835 0.71471518
-0.0076651969 0.023953766 0.71197939
-0.0075845825 0.022753745 0.7105875
-0.0075370325 0.021669 0.70976645
-0.0075038951 0.020635754 0.70919424
-0.0074778334 0.019629329 0.70874429
-0.007454521 0.018636316 0.70834184
-0.0074323746 0.017651916 0.70795935
-0.0074114217 0.01667574 0.70759755
-0.0073915739 0.015707135 0.70725495
-0.0073732939 0.014746636 0.70693922
-0.0073561501 0.013792783 0.70664328
-0.0073401504 0.012845308 0.70636696
-0.00732528 0.011903584 0.70611024
-0.0073116152 0.010967433 0.70587432
-0.0072992998 0.010036528 0.70566165
-0.0072881421 0.0091101825 0.70546901
-0.0072780875 0.0081878901 0.70529532
-0.0072691925 0.0072692335 0.70514172
-0.0072615165 0.0063538253 0.70500928
-0.0072549395 0.0054412484 0.70489568
-0.0072494796 0.0045309365 0.70480144
-0.0072451304 0.0036225915 0.70472628
-0.0072418004 0.002715677 0.70466882
-0.0072395308 0.001809895 0.7046296
-0.0072384295 0.00090485811 0.70461059
-0.0072384076 -0 0.70461029
-0.0072394423 -0.00090488791 0.70462811
-0.0072416682 -0.0018104315 0.70466655
-0.0072449101 -0.0027168095 0.70472246
-0.0072492366 -0.0036245584 0.70479715
-0.0072547626 -0.0045341849 0.70489264
-0.0072614942 -0.0054460764 0.70500886
-0.0072693033 -0.0063606501 0.70514369
-0.0072781988 -0.0072781742 0.70529735
-0.0072882315 -0.0081992149 0.7054705
-0.007299345 -0.0091241598 0.70566243
-0.007311705 -0.010053605 0.70587581
-0.0073253699 -0.010988027 0.70611179
-0.0073401053 -0.011927664 0.70636618
-0.007355968 -0.012872934 0.70664006
-0.0073731341 -0.013824582 0.70693648
-0.0073915967 -0.014783174 0.7072553
-0.0074113063 -0.015749007 0.70759559
-0.0074322121 -0.016722471 0.70795655
-0.0074542412 -0.017703831 0.70833695
-0.0074779042 -0.018694699 0.70874554
-0.0075040134 -0.019697994 0.70919633
-0.0075372476 -0.020727426 0.70977014
-0.007583519 -0.021802574 0.71056914
-0.0076660113 -0.022998005 0.71199346
-0.007824285 -0.024450868 0.71472627
-0.0080381408 -0.026123941 0.7184189
-0.0083903819 -0.028317541 0.72450089
-0.0076034241 0.030413717 0.7296679
-0.0071804328 0.027695954 0.72132087
-0.0069673914 0.025878906 0.71711683
-0.0068127988 0.02433145 0.71406627
-0.0066916971 0.02294299 0.71167654
-0.0066191647 0.021748722 0.71024525
-0.0065774214 0.020671904 0.70942152
-0.0065475907 0.01964277 0.70883286
-0.0065244026 0.018641174 0.70837528
-0.0065055229 0.017657876 0.70800269
-0.0064877225 0.016682714 0.7076515
-0.0064708637 0.015714973 0.70731878
-0.006454973 0.014754266 0.70700526
-0.0064403154 0.013800681 0.70671594
-0.0064267362 0.012853473 0.70644796
-0.0064141029 0.011911929 0.70619869
-0.006402405 0.010975569 0.70596778
-0.0063917311 0.010044187 0.7057572
-0.0063822074 0.0091174841 0.70556927
-0.0063736886 0.0081947446 0.70540118
-0.0063660676 0.0072755218 0.70525074
-0.0063594165 0.006359458 0.70511949
-0.0063538267 0.0054461062 0.70500922
-0.0063491757 0.0045351386 0.70491743
-0.0063454793 0.003625989 0.70484453
-0.0063426378 0.0027182996 0.70478845
-0.0063406862 0.0018116534 0.70474988
-0.0063397596 0.00090569258 0.70473164
-0.0063397209 -0 0.70473087
-0.0063406671 -0.00090581179 0.70474958
-0.006342541 -0.00181216 0.70478654
-0.0063453051 -0.0027193725 0.70484102
-0.0063490015 -0.0036279559 0.70491403
-0.0063537685 -0.0045384169 0.70500809
-0.0063595329 -0.0054510236 0.70512182
-0.0063661649 -0.0063661337 0.70525265
-0.0063737077 -0.0072841942 0.70540154
-0.0063822274 -0.0082057118 0.70556962
-0.0063918093 -0.0091311634 0.70575881
-0.0064024441 -0.010060966 0.70596862
-0.0064140628 -0.010995507 0.70619786
-0.006426597 -0.011935085 0.70644522
-0.0064401957 -0.012880385 0.70671362
-0.006454993 -0.013832122 0.70700562
-0.0064707631 -0.014790297 0.70731676
-0.0064874799 -0.015755296 0.70764667
-0.0065052789 -0.016727865 0.70799792
-0.0065244436 -0.017709196 0.70837605
-0.0065473849 -0.018706799 0.70882881
-0.0065768608 -0.019730568 0.70941043
-0.0066201328 -0.020806104 0.71026433
-0.0066916971 -0.021987021 0.7116766
-0.0068140477 -0.023362428 0.71409094
-0.0069681848 -0.0248864 0.71713257
-0.0071815723 -0.02667439 0.72134334
-0.0076044519 -0.029331446 0.72968817
-0.0062964503 0.028334051 0.72458529
-0.0060824873 0.026357442 0.71965939
-0.0059369793 0.024737448 0.71630943
-0.0058238371 0.023295343 0.71370471
-0.0057315212 0.021970868 0.71157938
-0.0056642946 0.020769089 0.71003169
-0.0056257211 0.019690037 0.7091437
-0.0055992063 0.018664062 0.70853317
-0.0055797021 0.017669082 0.70808423
-0.0055632456 0.016689748 0.70770532
-0.0055492315 0.015722841 0.70738268
-0.0055360268 0.014762729 0.7070787
-0.0055236025 0.013809025 0.70679265
-0.0055121533 0.012861729 0.70652908
-0.0055016503 0.011920303 0.70628726
-0.005491897 0.010983795 0.70606279
-0.0054829363 0.010052055 0.70585644
-0.0054748612 0.0091248155 0.70567048
-0.0054677483 0.0082016289 0.7055068
-0.0054614055 0.0072819293 0.70536071
-0.005455845 0.0063652098 0.70523274
-0.0054510618 0.0054510832 0.70512259
-0.005447201 0.0045393705 0.70503372
-0.005444143 0.0036294758 0.70496333
-0.005441736 0.0027208924 0.70490789
-0.0054401099 0.0018133819 0.70487046
-0.0054393304 0.00090655684 0.70485252
-0.0054393304 2.9802322e-08 0.70485252
-0.0054401262 -0.00090670586 0.70487094
-0.0054417024 -0.0018138885 0.70490712
-0.0054439935 -0.0027219951 0.70495993
-0.0054471181 -0.0036313534 0.70503175
-0.0054511116 -0.0045425892 0.70512378
-0.0054559284 -0.0054559112 0.70523465
-0.005461439 -0.0063716471 0.70536155
-0.0054677315 -0.0072902739 0.70550638
-0.0054749115 -0.0082123578 0.70567167
-0.0054830038 -0.0091383457 0.70585799
-0.005491863 -0.010068387 0.7060619
-0.0055015148 -0.011002988 0.70628411
-0.005512068 -0.011942774 0.70652717
-0.0055235852 -0.012888342 0.70679224
-0.0055359234 -0.013839811 0.70707631
-0.005549042 -0.014797419 0.70737839
-0.0055631069 -0.01576212 0.70770216
-0.0055794576 -0.016738385 0.70807856
-0.0055991188 -0.017730534 0.7085312
-0.0056260228 -0.01875338 0.70915055
-0.0056625507 -0.019818902 0.70999151
-0.0057314108 -0.021015137 0.71157682
-0.0058245594 -0.022327453 0.71372133
-0.0059369593 -0.023747802 0.71630907
-0.0060821557 -0.025342286 0.7196517
-0.0062968279 -0.027286232 0.724594
-0.0053836689 0.029071808 0.72835982
-0.0051678098 0.026872605 0.72239637
-0.0050322707 0.025161386 0.71865189
-0.0049300138 0.023664087 0.71582687
-0.0048474544 0.022298306 0.71354604
-0.004778232 0.021024227 0.71163368
-0.0047203354 0.019825399 0.71003419
-0.0046846895 0.018738776 0.70904934
-0.004660273 0.017709047 0.70837486
-0.0046410589 0.016707838 0.70784402
-0.0046277707 0.015734404 0.70747691
-0.0046160049 0.014771283 0.70715183
-0.0046059391 0.013817847 0.70687377
-0.0045965137 0.012870252 0.70661342
-0.0045879199 0.011928618 0.70637602
-0.0045800204 0.01099205 0.70615774
-0.0045727668 0.010060102 0.70595735
-0.0045661391 0.009132266 0.70577425
-0.0045602857 0.0082085133 0.70561254
-0.0045551728 0.0072882771 0.70547128
-0.0045506563 0.0063709617 0.70534652
-0.0045467597 0.0054561198 0.70523888
-0.0045435647 0.0045436025 0.7051506
-0.0045410669 0.0036328733 0.70508158
-0.00453914 0.002723515 0.70502836
-0.0045377966 0.0018151402 0.70499122
-0.00453716 0.00090745091 0.70497358
-0.0045372015 -0 0.70497477
-0.004537852 -0.00090754032 0.70499277
-0.0045391265 -0.0018156171 0.70502794
-0.0045409701 -0.0027245283 0.70507896
-0.0045435508 -0.0036348403 0.70515025
-0.0045468155 -0.0045467913 0.70524043
-0.0045507117 -0.0054608285 0.70534801
-0.0045551588 -0.0063771904 0.70547092
-0.0045602857 -0.007296443 0.70561254
-0.0045662229 -0.0082191825 0.70577657
-0.0045727813 -0.0091455877 0.70595777
-0.0045799213 -0.010075837 0.706155
-0.0045878063 -0.011010706 0.70637286
-0.0045965281 -0.01195097 0.70661378
-0.0046058535 -0.012896389 0.70687139
-0.0046158331 -0.01384747 0.70714712
-0.0046274969 -0.014807969 0.70746934
-0.0046414062 -0.015780777 0.70785367
-0.0046601123 -0.016776383 0.70837039
-0.0046839658 -0.01779905 0.70902944
-0.0047202306 -0.018880904 0.71003127
-0.0047781244 -0.020068109 0.7116307
-0.0048478502 -0.021330535 0.71355695
-0.0049301279 -0.022678584 0.71583009
-0.0050331391 -0.024159074 0.71867591
-0.0051686717 -0.025843382 0.72242022
-0.0053839218 -0.027996361 0.72836673
-0.0044471417 0.03001821 0.73320156
-0.0042214375 0.027439386 0.72540724
-0.0040981853 0.025613695 0.72115099
-0.0040087095 0.024052292 0.71806109
-0.0039371187 0.02263844 0.71558887
-0.003878166 0.02132991 0.71355307
-0.0038278133 0.020096034 0.71181417
-0.0037839799 0.018919915 0.71030045
-0.0037494169 0.017809749 0.70910692
-0.0037269336 0.016771227 0.70833045
-0.0037110748 0.015772134 0.70778286
-0.0036975557 0.014790237 0.70731604
-0.0036883156 0.013831198 0.70699686
-0.0036797817 0.012879282 0.70670217
-0.0036729532 0.011937112 0.70646638
-0.0036667832 0.011000395 0.70625329
-0.0036611406 0.010068148 0.7060585
-0.0036559873 0.0091399848 0.70588046
-0.0036513191 0.008215487 0.70571923
-0.0036473337 0.0072946846 0.70558161
-0.0036438257 0.0063767135 0.70546049
-0.0036407923 0.005461216 0.70535576
-0.0036382312 0.0045478046 0.70526731
-0.0036363073 0.0036363304 0.70520091
-0.0036348072 0.0027261078 0.70514905
-0.0036337746 0.0018169284 0.70511341
-0.003633253 0.00090834498 0.70509541
-0.0036332973 -0 0.70509696
-0.0036338079 -0.00090840459 0.7051146
-0.0036347962 -0.0018173456 0.7051487
-0.0036362405 -0.0027271807 0.70519859
-0.0036382868 -0.0036382973 0.70526922
-0.0036408368 -0.004551053 0.70535725
-0.0036438478 -0.0054657459 0.70546126
-0.0036473002 -0.0063827336 0.70558047
-0.0036514087 -0.0073027909 0.70572239
-0.0036560211 -0.0082260072 0.7058816
-0.0036611068 -0.00915277 0.70605731
-0.0036666475 -0.010083288 0.70624864
-0.0036729646 -0.011018872 0.70646673
-0.0036797361 -0.011959136 0.70670056
-0.0036880872 -0.01290828 0.70698893
-0.0036979583 -0.013867289 0.70732981
-0.003710577 -0.014842272 0.70776564
-0.0037269569 -0.015839547 0.70833135
-0.0037493696 -0.016872138 0.70910525
-0.0037837394 -0.017972767 0.71029216
-0.0038277516 -0.019138753 0.71181208
-0.0038784062 -0.020361602 0.7135613
-0.003937379 -0.02165556 0.71559787
-0.004009007 -0.023051769 0.7180714
-0.0040981006 -0.024588585 0.72114801
-0.0042214072 -0.026383758 0.72540629
-0.0044451142 -0.028893232 0.73313159
-0.0032381497 0.028064013 0.72872573
-0.0031309354 0.026091158 0.72378916
-0.0030567795 0.024454236 0.7203747
-0.0029995677 0.022996724 0.71774042
-0.0029518621 0.021646976 0.71554387
-0.0029117474 0.020382255 0.71369684
-0.0028771739 0.019181162 0.71210492
-0.0028468503 0.018030077 0.71070874
-0.0028200175 0.01692012 0.70947313
-0.002799287 0.015862644 0.70851868
-0.0027842876 0.014849544 0.70782799
-0.0027738223 0.013869107 0.7073462
-0.0027654995 0.012905717 0.70696294
-0.0027582748 0.011952549 0.70663029
-0.0027530575 0.011012256 0.70639008
-0.0027481562 0.010076612 0.70616436
-0.0027443015 0.0091476738 0.70598698
-0.002740887 0.0082226694 0.70582968
-0.0027379096 0.007301122 0.70569259
-0.0027353575 0.006382525 0.70557511
-0.0027331456 0.0054663122 0.70547324
-0.0027312462 0.0045520961 0.70538574
-0.0027298171 0.0036397576 0.70531994
-0.0027287318 0.0027287602 0.70526999
-0.0027279893 0.0018186867 0.70523578
-0.0027275805 0.00090923905 0.705217
-0.0027276308 -0 0.70521927
-0.0027280143 -0.00090932846 0.70523697
-0.0027287318 -0.0018191338 0.70526999
-0.0027297924 -0.0027297735 0.70531881
-0.002731313 -0.0036416948 0.7053889
-0.0027331708 -0.0045552552 0.70547438
-0.0027353575 -0.0054706931 0.70557505
-0.0027379347 -0.0063884854 0.70569372
-0.0027409459 -0.0073091686 0.70583236
-0.0027443015 -0.0082329214 0.70598692
-0.0027480798 -0.0091602206 0.7061609
-0.0027528962 -0.010093927 0.70638263
-0.0027583772 -0.011033505 0.70663494
-0.0027655081 -0.011983842 0.7069633
-0.0027731841 -0.012941509 0.70731676
-0.0027848524 -0.013924241 0.70785403
-0.0027987601 -0.014926702 0.70849442
-0.0028198839 -0.01597932 0.70946699
-0.0028467323 -0.017080396 0.71070325
-0.0028771646 -0.018222034 0.71210444
-0.0029119186 -0.019412786 0.71370476
-0.002951989 -0.020663887 0.71554971
-0.0029996182 -0.021997184 0.71774274
-0.003057345 -0.023439616 0.72040081
-0.0031315286 -0.02505222 0.72381645
-0.0032376093 -0.026980072 0.72870094
-0.0022139451 0.028781325 0.73253673
-0.0021288039 0.026610047 0.72665638
-0.0020737904 0.024885476 0.72285682
-0.0020318662 0.023366451 0.71996129
-0.0019981333 0.021979481 0.71763134
-0.0019695503 0.020680308 0.71565729
-0.00194498 0.01944983 0.71396035
-0.0019237491 0.018275648 0.7124939
-0.001905 0.017145038 0.71119905
-0.0018883439 0.016050965 0.71004868
-0.0018735686 0.014988571 0.70902812
-0.0018614199 0.01396066 0.70818913
-0.0018523246 0.012966305 0.7075609
-0.0018457201 0.011997193 0.7071048
-0.0018405 0.011043042 0.70674425
-0.0018361196 0.010098666 0.7064417
-0.0018325782 0.0091629028 0.70619714
-0.0018298381 0.0082342923 0.70600796
-0.0018274096 0.0073096454 0.70584011
-0.0018256539 0.0063898265 0.70571887
-0.0018238514 0.0054715574 0.70559442
-0.0018225604 0.0045564175 0.70550525
-0.001821606 0.0036432147 0.70543933
-0.0018209144 0.0027313828 0.70539153
-0.0018204296 0.0018204451 0.70535809
-0.0018201566 0.00091010332 0.70533919
-0.0018201956 -0 0.70534194
-0.0018204518 -0.00091019273 0.70535958
-0.0018209089 -0.0018209219 0.70539117
-0.0018216171 -0.0027323961 0.70544004
-0.0018226107 -0.0036452115 0.70550871
-0.0018238681 -0.0045596659 0.70559549
-0.0018254915 -0.005476445 0.70570767
-0.0018275556 -0.0063964427 0.70585024
-0.0018298044 -0.007319212 0.70600557
-0.0018324483 -0.0082460046 0.7061882
-0.001836369 -0.0091818273 0.70645893
-0.0018403007 -0.010121644 0.70673048
-0.0018457087 -0.011074245 0.70710397
-0.0018524112 -0.012040645 0.70756686
-0.0018610995 -0.013027668 0.70816696
-0.001873492 -0.014051169 0.70902288
-0.0018883439 -0.015106767 0.71004868
-0.001905 -0.016192496 0.71119905
-0.0019237801 -0.017313987 0.71249604
-0.0019450946 -0.018478394 0.71396822
-0.0019694783 -0.019694775 0.71565235
-0.0019980792 -0.020979822 0.71762776
-0.0020321575 -0.022353709 0.71998131
-0.0020738917 -0.023849696 0.72286379
-0.0021288418 -0.025546104 0.726659
-0.0022133191 -0.02766645 0.73249352
-0.0011405053 0.029653192 0.73716873
-0.0010866956 0.02716741 0.72973585
-0.0010555692 0.025333673 0.72543627
-0.0010328727 0.023756117 0.72230113
-0.0010146506 0.022322357 0.71978408
-0.00099953671 0.020990282 0.71769631
-0.00098655547 0.019731134 0.71590322
-0.00097530289 0.018530786 0.71434885
-0.00096544361 0.017377973 0.71298695
-0.00095674396 0.016264617 0.71178532
-0.00094903191 0.015184551 0.71072
-0.00094216486 0.0141325 0.70977145
-0.00093603251 0.013104469 0.70892429
-0.00093054393 0.01209709 0.70816624
-0.00092619401 0.011114329 0.70756537
-0.00092255377 0.010148108 0.70706248
-0.00092030986 0.0092031062 0.70675254
-0.00091818167 0.0082636476 0.70645857
-0.00091632019 0.0073305666 0.70620137
-0.00091521762 0.0064065754 0.70604908
-0.00091411767 0.00548473 0.70589721
-0.00091316615 0.004565835 0.70576572
-0.00091257767 0.0036503077 0.70568442
-0.0009119928 0.0027360022 0.7056036
-0.00091167126 0.0018233657 0.70555925
-0.00091159588 0.00091162324 0.70554882
-0.00091152318 -0 0.70553875
-0.00091169082 -0.00091165304 0.705562
-0.00091205712 -0.0018241405 0.70561254
-0.0009124573 -0.0027373731 0.70566779
-0.00091326429 -0.0036530197 0.70577931
-0.0009141654 -0.004570812 0.70590377
-0.00091506547 -0.0054903924 0.7060281
-0.00091647828 -0.0064153075 0.70622325
-0.00091817882 -0.0073454082 0.70645815
-0.00092017028 -0.0082814991 0.70673323
-0.00092275697 -0.0092275739 0.70709056
-0.00092611904 -0.010187298 0.70755494
-0.00093050319 -0.011166006 0.70816052
-0.00093594118 -0.012167215 0.70891166
-0.00094203063 -0.013188392 0.70975286
-0.00094888353 -0.014233202 0.71069944
-0.00095665472 -0.015306443 0.71177292
-0.00096537778 -0.016411394 0.71297789
-0.00097522937 -0.017554134 0.71433872
-0.00098644418 -0.018742442 0.71588784
-0.00099949632 -0.019989878 0.71769071
-0.0010147302 -0.021309346 0.71979511
-0.0010328476 -0.022722632 0.72229767
-0.0010557789 -0.024282902 0.72546524
-0.0010866242 -0.026078939 0.72972602
-0.0011404791 -0.028511971 0.73716515
0 0.031043321 0.74455428
0 0.027781576 0.73312926
0 0.025819123 0.72823012
0 0.024164647 0.72475475
0 0.022679508 0.72202665
0 0.021309733 0.71979743
0 0.020020962 0.71790498
0 0.018794656 0.71626723
0 0.017618835 0.71483529
0 0.016484737 0.71357358
0 0.015385717 0.712457
0 0.014316171 0.71146297
0 0.013271958 0.71057707
0 0.01224944 0.70978498
0 0.011245579 0.70907587
0 0.010259569 0.70846248
0 0.0092876852 0.70792133
0 0.0083277524 0.70744228
0 0.0073806942 0.70706677
0 0.0064441264 0.70679069
0 0.0055127442 0.70654124
0 0.0045875907 0.7063666
0 0.003666997 0.70626104
0 0.0027480125 0.70615578
0 0.0018311143 0.70609272
0 0.00091543794 0.70607638
0 -0 0.70605963
0 -0.00091558695 0.70609778
0 -0.0018321574 0.70616943
0 -0.0027498007 0.70624119
0 -0.0036705136 0.70638222
0 -0.004594326 0.7065534
0 -0.005522579 0.70676941
0 -0.0064586103 0.70707756
0 -0.0074027479 0.70744789
0 -0.008358717 0.70791811
0 -0.0093263984 0.70845604
0 -0.010308862 0.70908123
0 -0.011306971 0.70978254
0 -0.012323081 0.71056789
0 -0.013360351 0.71144897
0 -0.014422148 0.712439
0 -0.015512824 0.71355438
0 -0.016637743 0.71481705
0 -0.017803609 0.71625316
0 -0.019019037 0.71789896
0 -0.020295918 0.71980417
0 -0.02164942 0.72203207
0 -0.023116261 0.72476912
0 -0.0247446 0.72823817
0 -0.026673466 0.73314768
0 -0.029843897 0.74452448
0.0011392166 0.028480411 0.73699075
0.001097139 0.026331365 0.7311784
0.0010692391 0.024592519 0.72732455
0.001047981 0.023055613 0.72438806
0.0010304999 0.021640509 0.72197336
0.0010159712 0.020319432 0.71996647
0.0010034827 0.019066215 0.71824145
0.00099258439 0.017866552 0.71673602
0.00098299142 0.016710877 0.71541089
0.00097451673 0.015592247 0.71424025
0.00096698169 0.014504761 0.71319944
0.00096027186 0.013443828 0.71227258
0.00095428183 0.012405723 0.71144515
0.00094898947 0.011387885 0.7107141
0.00094436988 0.010388076 0.71007603
0.00094027631 0.0094027817 0.70951056
0.00093666045 0.0084299743 0.70901108
0.00093347061 0.0074678063 0.70857048
0.00093087013 0.0065160692 0.70821124
0.00092865527 0.0055719614 0.70790529
0.00092678278 0.0046339333 0.70764667
0.00092530355 0.0037012398 0.70744234
0.00092428271 0.0027728975 0.70730126
0.00092356512 0.0018471479 0.70720214
0.0009231494 0.00092315674 0.70714474
0.00092321244 2.9802322e-08 0.7071535
0.00092359091 -0.00092357397 0.70720577
0.00092426257 -0.001848489 0.70729852
0.00092535256 -0.0027760565 0.70744908
0.00092685502 -0.0037074089 0.70765662
0.00092867843 -0.0046433806 0.70790851
0.00093084393 -0.0055850446 0.70820761
0.00093357312 -0.0065349936 0.70858461
0.00093671062 -0.007493645 0.70901799
0.0009402674 -0.0084623992 0.70950931
0.00094429194 -0.0094428957 0.71006519
0.00094898045 -0.01043877 0.71071285
0.00095428491 -0.011451393 0.71144557
0.00096023164 -0.012482971 0.71226704
0.00096690946 -0.013536692 0.71318948
0.00097442413 -0.01461634 0.71422744
0.00098289724 -0.015726358 0.71539783
0.0009925015 -0.016872495 0.71672457
0.001003442 -0.018061936 0.71823579
0.001016006 -0.019304097 0.7199713
0.0010305748 -0.020611465 0.72198367
0.001048018 -0.022008359 0.72439325
0.0010692891 -0.023524374 0.72733146
0.0010971753 -0.025235057 0.73118347
0.0011392995 -0.027343154 0.73700219
0.0023448197 0.029310286 0.74157584
0.0022407686 0.026889265 0.73438936
0.0021781349 0.025048554 0.73006344
0.0021313287 0.023444653 0.72683072
0.0020941761 0.021988869 0.72426474
0.002062887 0.02062887 0.72210371
0.0020363878 0.019345701 0.72027349
0.002013467 0.018121213 0.71869045
0.0019933251 0.016943306 0.71729934
0.0019755554 0.01580444 0.71607208
0.0019597707 0.014698327 0.71498179
0.0019457372 0.013620168 0.71401262
0.0019332594 0.012566209 0.71315086
0.0019223562 0.011534154 0.71239775
0.0019127004 0.010519862 0.71173084
0.0019041401 0.0095207393 0.71113962
0.001896593 0.0085346997 0.71061838
0.0018900301 0.0075601339 0.71016514
0.0018846164 0.0065961778 0.70979124
0.0018799939 0.0056400001 0.709472
0.0018760922 0.0046902299 0.70920247
0.0018730613 0.0037461221 0.70899314
0.0018709286 0.0028064251 0.70884585
0.0018694291 0.0018694103 0.70874232
0.0018685716 0.00093430281 0.70868307
0.0018687007 5.9604645e-08 0.70869195
0.0018694878 -0.00093472004 0.70874631
0.0018708874 -0.0018708706 0.70884299
0.0018731203 -0.0028096735 0.70899725
0.0018762519 -0.00375247 0.70921355
0.0018800593 -0.0047001243 0.70947647
0.0018845865 -0.005653739 0.70978916
0.0018901803 -0.0066156089 0.71017551
0.00189672 -0.0075868368 0.7106272
0.0019041462 -0.0085686445 0.7111401
0.0019125773 -0.0095628798 0.71172237
0.0019221947 -0.010572076 0.71238661
0.001933272 -0.01159963 0.71315169
0.0019457116 -0.012647092 0.71401083
0.0019596994 -0.01371789 0.71497697
0.0019754504 -0.014815867 0.71606481
0.0019932317 -0.015945822 0.7172929
0.0020134193 -0.017114073 0.71868718
0.0020364437 -0.018327951 0.72027731
0.0020629298 -0.019597799 0.7221067
0.0020941098 -0.020941079 0.72426021
0.0021316649 -0.022382498 0.72685397
0.0021783581 -0.023961902 0.73007894
0.0022410979 -0.025772631 0.73441207
0.0023444777 -0.02813375 0.74155217
0.0036531813 0.030443192 0.74783564
0.0034379966 0.027503967 0.73792762
0.0033299786 0.025529832 0.73295397
0.0032532634 0.023857296 0.72942168
0.0031926571 0.022348642 0.72663105
0.0031429573 0.020953089 0.7243427
0.0031004488 0.019636214 0.72238541
0.0030639176 0.018383503 0.72070342
0.0030321584 0.017182231 0.71924108
0.0030042138 0.016022474 0.71795434
0.0029794239 0.014897138 0.71681291
0.0029574982 0.013801664 0.71580338
0.0029381844 0.012732178 0.71491408
0.0029210614 0.011684299 0.71412569
0.0029059055 0.010655016 0.71342778
0.0028924902 0.0096416473 0.71281016
0.0028806762 0.0086420476 0.71226621
0.002870583 0.0076549053 0.71180147
0.0028620926 0.0066782236 0.71141046
0.0028548576 0.0057097375 0.71107733
0.0028487593 0.0047479272 0.71079654
0.0028441006 0.0037921667 0.71058202
0.0028407502 0.0028407574 0.71042776
0.0028384184 0.0018922985 0.71032047
0.0028370826 0.00094568729 0.7102589
0.0028372812 2.9802322e-08 0.71026808
0.0028385087 -0.00094616413 0.71032459
0.002840705 -0.0018937886 0.71042573
0.0028441369 -0.002844125 0.71058375
0.002849014 -0.0037986934 0.71080834
0.0028549763 -0.0047582984 0.71108282
0.0028620739 -0.0057241619 0.71140969
0.0028706752 -0.006698221 0.71180564
0.0028809088 -0.0076823831 0.71227682
0.0028925466 -0.0086776316 0.71281266
0.002905773 -0.0096859038 0.7134217
0.002920765 -0.010709435 0.71411204
0.0029379427 -0.011751741 0.714903
0.0029574591 -0.012815654 0.7158016
0.0029794138 -0.013903946 0.71681249
0.0030041835 -0.015020877 0.71795297
0.0030321686 -0.016171545 0.7192415
0.0030639912 -0.017362595 0.72070682
0.0031003302 -0.018601924 0.72237992
0.003142758 -0.019904107 0.72433352
0.0031929086 -0.021286041 0.72664261
0.0032531922 -0.022772312 0.7294184
0.0033300407 -0.024420261 0.73295677
0.0034379701 -0.02635774 0.73792636
0.0036540939 -0.02923274 0.7478776
0.0046982337 0.028189421 0.74187255
0.0045297802 0.026046216 0.73605537
0.0044160723 0.024288446 0.73212862
0.0043284828 0.022724539 0.72910392
0.0042575011 0.021287501 0.72665268
0.0041975896 0.019938588 0.72458369
0.0041460777 0.018657357 0.72280484
0.0041012513 0.017430335 0.72125685
0.0040620114 0.016248047 0.7199018
0.0040274793 0.015103072 0.71870929
0.0039969916 0.013989508 0.71765649
0.0039700195 0.012902558 0.71672499
0.0039461041 0.011838347 0.71589911
0.0039249598 0.010793686 0.71516895
0.0039062588 0.0097656548 0.7145232
0.0038898329 0.0087521076 0.71395594
0.0038760304 0.0077520609 0.71347928
0.0038641952 0.0067623556 0.71307057
0.0038541171 0.0057812333 0.71272254
0.003845657 0.0048070848 0.71243042
0.00383929 0.003839314 0.71221048
0.0038346243 0.0028760135 0.71204937
0.0038313761 0.0019157231 0.71193719
0.0038295386 0.00095739961 0.71187377
0.0038297973 2.9802322e-08 0.71188271
0.0038315121 -0.00095784664 0.71194196
0.0038345752 -0.0019172728 0.7120477
0.0038392656 -0.0028794408 0.7122097
0.00384603 -0.0038459897 0.71244329
0.0038543169 -0.004817903 0.71272945
0.003864208 -0.0057962835 0.71307099
0.0038759676 -0.0067829192 0.71347708
0.0038902017 -0.0077803731 0.71396863
0.0039064125 -0.0087894201 0.71452844
0.003924856 -0.0098121464 0.71516538
0.0039457902 -0.010850906 0.71588832
0.0039695296 -0.011908561 0.71670806
0.0039965212 -0.012988687 0.71764022
0.0040271655 -0.014095068 0.7186985
0.0040617893 -0.015231699 0.71989411
0.0041009402 -0.016403764 0.72124612
0.0041455575 -0.017618626 0.7227869
0.004197293 -0.018887818 0.72457349
0.0042576226 -0.020223677 0.72665691
0.0043285773 -0.021642864 0.72910714
0.004416646 -0.023187369 0.73214841
0.0045303833 -0.024917096 0.73607618
0.0046976954 -0.027011752 0.74185401
0.0060395966 0.02899009 0.74648082
0.0057835937 0.026604533 0.73940837
0.00562402 0.024745703 0.73499978
0.0055048862 0.023120522 0.73170865
0.0054085176 0.021634072 0.72904629
0.0053290473 0.02025041 0.72685081
0.0052611143 0.018940002 0.72497404
0.0052020876 0.017687112 0.72334325
0.0051505007 0.016481608 0.72191817
0.005105162 0.015315503 0.72066563
0.005065165 0.014182478 0.71956062
0.0050298367 0.013077587 0.71858466
0.00499854 0.011996508 0.71772003
0.0049709021 0.010936022 0.71695644
0.0049464623 0.0098929405 0.71628124
0.0049252287 0.0088654459 0.71569467
0.0049073333 0.0078517497 0.7152003
0.0048918673 0.0068486035 0.71477306
0.0048787226 0.0058544874 0.71440989
0.0048677027 0.0048677027 0.71410537
0.004859542 0.0038876534 0.71387994
0.0048534353 0.0029120743 0.71371126
0.0048492095 0.0019396842 0.7135945
0.0048468541 0.00096938014 0.71352947
0.0048471703 -0 0.71353823
0.0048493994 -0.00096985698 0.71359974
0.0048533878 -0.0019413233 0.71370995
0.0048594307 -0.0029156506 0.71387684
0.0048682126 -0.0038945377 0.71411949
0.0048790108 -0.0048789978 0.71441782
0.0048919315 -0.0058703125 0.71477479
0.0049072038 -0.0068700612 0.71519667
0.0049255714 -0.0078809261 0.71570414
0.0049467259 -0.0089040697 0.71628857
0.0049708523 -0.0099416971 0.71695513
0.0049982546 -0.010996133 0.71771216
0.0050293603 -0.012070417 0.71857148
0.0050644921 -0.01316765 0.71954203
0.0051044258 -0.014292359 0.72064525
0.0051497691 -0.015449286 0.72189796
0.0052014692 -0.016644716 0.72332627
0.0052606859 -0.017886341 0.72496223
0.0053291046 -0.019184738 0.72685242
0.0054088915 -0.020553768 0.7290566
0.0055051511 -0.022020578 0.73171592
0.0056239134 -0.023620397 0.73499691
0.0057834587 -0.02544722 0.73940468
0.0060386155 -0.027777582 0.7464537
0.0075012785 0.030005127 0.75232297
0.0070984014 0.027210534 0.74304789
0.0068806862 0.025229186 0.73803562
0.0067232172 0.023531258 0.73441035
0.0065997797 0.0219993 0.73156852
0.0064967191 0.020572931 0.72919589
0.006410433 0.019231319 0.72720939
0.0063358434 0.017951578 0.72549218
0.0062707388 0.016721994 0.7239933
0.0062136156 0.015534073 0.72267824
0.0061632451 0.014380932 0.72151852
0.0061187996 0.013257414 0.72049534
0.0060794824 0.01215899 0.71959019
0.0060447799 0.011082143 0.71879131
0.0060141995 0.010023683 0.71808726
0.0059879823 0.0089820027 0.7174837
0.0059655015 0.0079540014 0.71696609
0.0059460998 0.006937176 0.71651942
0.00592964 0.0059296787 0.71614051
0.0059159184 0.0049299598 0.7158246
0.0059058145 0.0039372146 0.71559197
0.0058981627 0.0029491186 0.71541584
0.005892884 0.0019643307 0.7152943
0.0058899662 0.0009816885 0.71522713
0.0058903354 2.9802322e-08 0.71523565
0.0058931173 -0.00098219514 0.71529967
0.0058981231 -0.0019659996 0.71541494
0.0059056389 -0.0029528141 0.71558797
0.0059165261 -0.0039443374 0.71583855
0.0059300344 -0.0049417019 0.71614957
0.0059462385 -0.005946219 0.71652263
0.0059654014 -0.0069596469 0.71696389
0.0059880428 -0.0079840124 0.71748501
0.0060145641 -0.0090218484 0.71809566
0.0060448619 -0.010074764 0.71879315
0.0060792961 -0.011145353 0.7195859
0.006118401 -0.012236804 0.72048616
0.0061626276 -0.013352364 0.72150439
0.0062129665 -0.014496893 0.72266328
0.0062700994 -0.015675217 0.72397864
0.006335461 -0.016894549 0.72548336
0.0064103869 -0.018162757 0.72720832
0.0064970739 -0.019491196 0.72920406
0.006599511 -0.020898432 0.73156238
0.0067242812 -0.022414267 0.73443484
0.0068817209 -0.024085999 0.73805946
0.0070980066 -0.026026011 0.74303877
0.0075001749 -0.028750688 0.75229758
0.0084868027 0.027885258 0.74709988
0.0081927869 0.025748789 0.74129796
0.0079896655 0.023969024 0.73728967
0.0078321863 0.02237767 0.73418206
0.0077044442 0.020912081 0.73166132
0.0075960443 0.01953271 0.72952223
0.0075040446 0.01822412 0.72770679
0.0074241357 0.016969472 0.72612989
0.007354137 0.015758902 0.72474861
0.0072924639 0.014584959 0.7235316
0.0072381282 0.013442278 0.72245938
0.0071900804 0.012325853 0.72151124
0.007147742 0.011232197 0.72067583
0.0071108267 0.01015833 0.71994728
0.0070790541 0.0091016591 0.71932036
0.007051622 0.008058995 0.71877909
0.0070279357 0.0070279539 0.71831161
0.0070078974 0.0060068071 0.71791619
0.006991446 0.0049938858 0.71759152
0.0069791172 0.0039880872 0.71734828
0.0069697709 0.0029870868 0.7171638
0.0069633597 0.0019895732 0.71703732
0.0069598681 0.00099429488 0.71696842
0.0069602868 -0 0.71697664
0.0069636628 -0.00099477172 0.71704328
0.0069697709 -0.0019913316 0.7171638
0.0069789067 -0.0029909313 0.71734411
0.0069919862 -0.0039953887 0.71760225
0.0070084161 -0.0050059855 0.71792638
0.0070281727 -0.0060241222 0.71831626
0.0070515745 -0.0070515871 0.71877813
0.0070788371 -0.0080900788 0.71931607
0.0071109966 -0.0091426969 0.71995068
0.0071479874 -0.010211378 0.72068065
0.0071900552 -0.011298627 0.72151077
0.0072379019 -0.012407839 0.72245491
0.0072920299 -0.013542295 0.72352302
0.0073536956 -0.014707386 0.72473991
0.0074237655 -0.015908062 0.72612262
0.0075040446 -0.017152071 0.72770679
0.0075961831 -0.018447876 0.72952497
0.007703817 -0.019809812 0.73164892
0.0078328047 -0.02126047 0.73419428
0.0079896655 -0.022827566 0.73728961
0.0081928186 -0.024578422 0.74129856
0.0084866304 -0.026672244 0.74709642
0.0099688079 0.028660297 0.751755
0.00956468 0.026302904 0.74477702
0.0093051428 0.024426013 0.74029565
0.0091097541 0.022774398 0.73692203
0.0089528551 0.021263033 0.73421293
0.0088212723 0.01984787 0.73194087
0.0087089352 0.018506467 0.73000127
0.0086121857 0.017224371 0.72833073
0.0085281571 0.015990317 0.72687978
0.0084542148 0.014794916 0.7256031
0.0083891395 0.013632357 0.72447944
0.008331676 0.012497544 0.72348726
0.0082813315 0.011386842 0.72261798
0.0082376907 0.01029712 0.72186452
0.0081995912 0.0092245638 0.72120661
0.0081667732 0.0081668198 0.72063994
0.0081384731 0.0071212053 0.72015131
0.0081145745 0.0060859621 0.71973866
0.0080952477 0.0050595105 0.71940494
0.0080804834 0.0040402412 0.71915001
0.0080693569 0.0030260086 0.7189579
0.0080617005 0.0020154417 0.7188257
0.0080576325 0.0010072291 0.71875548
0.0080580683 -0 0.71876299
0.0080620833 -0.0010077655 0.71883231
0.0080693569 -0.002017349 0.7189579
0.0080803186 -0.0030301213 0.71914715
0.0080956602 -0.004047811 0.71941209
0.0081152394 -0.0050719976 0.71975005
0.0081388354 -0.0061041117 0.72015756
0.0081668291 -0.0071459413 0.72064096
0.0081993081 -0.0081992745 0.72120172
0.00823732 -0.0092670023 0.72185802
0.008281447 -0.010351807 0.72261995
0.0083317934 -0.011456162 0.72348928
0.0083891107 -0.012583673 0.72447896
0.0084540052 -0.013737738 0.72559947
0.0085280351 -0.014924049 0.72687769
0.0086122174 -0.016147882 0.72833127
0.008708776 -0.01741755 0.72999853
0.0088205524 -0.018743664 0.73192853
0.0089529557 -0.020144135 0.7342146
0.0091099283 -0.021636069 0.73692501
0.0093064168 -0.023265988 0.7403177
0.0095652565 -0.025108784 0.74478698
0.0099684736 -0.027413309 0.75174922
0.011588197 0.0296143 0.75748426
0.011008451 0.02690956 0.74858618
0.010678102 0.024915576 0.74351597
0.010436529 0.023192316 0.73980832
0.010244276 0.0216268 0.73685759
0.010087145 0.020174325 0.73444593
0.0099534178 0.018800914 0.7323935
0.0098378845 0.017489582 0.73062027
0.0097377747 0.016229659 0.72908378
0.0096502835 0.015011549 0.72774094
0.0095734494 0.013828367 0.72656167
0.0095060598 0.012674749 0.72552741
0.0094470428 0.011546403 0.72462159
0.0093957074 0.010439694 0.72383368
0.0093508037 0.0093508065 0.72314453
0.0093121547 0.0082775056 0.72255135
0.0092788711 0.0072169304 0.72204047
0.0092508104 0.006167233 0.72160983
0.0092284838 0.0051269829 0.7212671
0.0092110801 0.0040938258 0.72100002
0.0091979755 0.0030660033 0.72079885
0.0091890395 0.0020420253 0.72066176
0.0091843093 0.0010204911 0.72058916
0.0091847824 5.9604645e-08 0.72059643
0.0091894809 -0.0010210276 0.72066849
0.0091980388 -0.0020439923 0.72079992
0.0092109218 -0.0030702949 0.72099757
0.0092286747 -0.0041016042 0.72127008
0.009251642 -0.0051397979 0.72162259
0.0092794187 -0.0061862469 0.72204888
0.0093123494 -0.007242918 0.72255433
0.0093506398 -0.0083116591 0.72314197
0.009395048 -0.0093950331 0.72382355
0.0094465427 -0.01049611 0.72461385
0.0095058577 -0.011618227 0.72552431
0.0095734159 -0.012764513 0.72656119
0.009650005 -0.013938874 0.72773665
0.0097374925 -0.015147179 0.72907937
0.0098371981 -0.01639533 0.73060971
0.0099524176 -0.017693192 0.73237813
0.010086955 -0.019053102 0.73444301
0.010245061 -0.02049011 0.73686969
0.010437261 -0.022034198 0.73981953
0.010678315 -0.023729563 0.74351925
0.011009538 -0.025688916 0.74860293
0.011585941 -0.028321177 0.75744963
0.013546425 0.031156778 0.76674813
0.01253681 0.027581036 0.75280195
0.012110575 0.025432199 0.74691433
0.011814267 0.023628592 0.74282134
0.01158458 0.022010744 0.73964858
0.011395701 0.020512313 0.73703957
0.011238306 0.019105136 0.73486543
0.011102871 0.017764598 0.73299462
0.010985331 0.016478032 0.73137099
0.010882903 0.01523608 0.72995615
0.010793285 0.014031261 0.72871816
0.010714927 0.012857944 0.72763586
0.010646077 0.011710733 0.72668475
0.010586239 0.010586232 0.72585821
0.010533931 0.0094805658 0.72513568
0.010489014 0.0083912015 0.7245152
0.01045035 0.0073152781 0.72398114
0.010418025 0.0062508583 0.72353464
0.010392287 0.0051961541 0.7231791
0.010372062 0.0041488409 0.72289979
0.010356856 0.0031071007 0.72268963
0.010346478 0.0020693243 0.72254634
0.010341082 0.0010341108 0.72247183
0.010341586 -0 0.72247875
0.010347018 -0.0010347068 0.72255385
0.010356928 -0.0020713806 0.72269064
0.010371954 -0.0031115413 0.72289824
0.010392287 -0.0041568875 0.7231791
0.010418828 -0.0052093863 0.72354567
0.010451085 -0.006270647 0.72399133
0.010489384 -0.0073425472 0.72452039
0.010533931 -0.0084271431 0.72513574
0.010585674 -0.0095270872 0.7258504
0.010645277 -0.010645241 0.72667366
0.010713885 -0.011785239 0.72762144
0.010792227 -0.012950629 0.72870362
0.010881867 -0.014146358 0.72994184
0.010984113 -0.01537776 0.73135418
0.011101628 -0.016652405 0.73297739
0.011237754 -0.017980367 0.7348578
0.011396138 -0.019373417 0.73704559
0.011584173 -0.020851493 0.73964298
0.011815534 -0.022449493 0.74283886
0.012112302 -0.024224579 0.74693817
0.012536598 -0.026326835 0.75279903
0.013549758 -0.029809475 0.7667942
0.014169487 0.028338999 0.75756127
0.013615376 0.025993019 0.75060296
0.013251266 0.02409327 0.74603063
0.012974097 0.022409827 0.74255013
0.01275183 0.020866662 0.73975903
0.01256546 0.019419372 0.73741865
0.012408229 0.018048346 0.73544425
0.012271985 0.01673454 0.73373336
0.012153448 0.015468061 0.73224479
0.012049769 0.014240682 0.73094279
0.011959201 0.013046414 0.72980553
0.011879726 0.011879742 0.72880757
0.011810717 0.010737032 0.72794098
0.011750393 0.0096139908 0.72718346
0.011698666 0.0085081458 0.72653383
0.01165428 0.0074163377 0.72597647
0.011617445 0.0063367784 0.72551394
0.01158798 0.0052672625 0.72514397
0.011564671 0.0042053461 0.72485125
0.011547159 0.003149271 0.72463131
0.011535271 0.0020973682 0.72448206
0.011529213 0.0010481179 0.724406
0.011529701 2.9802322e-08 0.72441208
0.011535921 -0.0010486841 0.72449023
0.011547323 -0.0020994842 0.72463334
0.011564631 -0.0031540096 0.72485065
0.011587775 -0.0042137206 0.72514135
0.011618065 -0.0052809119 0.72552168
0.011655152 -0.0063573718 0.72598749
0.011699251 -0.0074449778 0.72654128
0.011750603 -0.0085458457 0.72718608
0.011810249 -0.0096628964 0.72793508
0.011878907 -0.010798961 0.7287972
0.011958065 -0.011958033 0.72979128
0.012048393 -0.013143688 0.73092562
0.012152047 -0.014361501 0.73222721
0.012270789 -0.015617341 0.73371834
0.012407664 -0.016919523 0.73543715
0.01256575 -0.018277466 0.73742229
0.012750885 -0.019705892 0.73974717
0.012975127 -0.021231979 0.74256301
0.013251643 -0.022889167 0.7460354
0.01361634 -0.024756968 0.75061512
0.014168811 -0.027049541 0.75755286
0.01594878 0.029239476 0.76321501
0.015198773 0.026597857 0.75458163
0.014749089 0.02458182 0.74940526
0.014418724 0.022829652 0.74560249
0.014157211 0.021235853 0.7425921
0.013939342 0.019747406 0.74008423
0.013756227 0.01834166 0.73797643
0.013599333 0.016999185 0.73617035
0.013463226 0.015707105 0.73460364
0.013344269 0.014456332 0.73323429
0.013240499 0.013240516 0.73203981
0.013149513 0.012053698 0.7309925
0.013070531 0.010892123 0.73008323
0.013001581 0.0097512007 0.72928959
0.012942499 0.0086283684 0.7286095
0.012892098 0.0075204074 0.72802937
0.012850459 0.0064252317 0.72755003
0.012816859 0.0053403974 0.72716331
0.012790218 0.0042634308 0.72685659
0.012770263 0.0031926036 0.72662687
0.012756705 0.0021260977 0.72647089
0.012749916 0.0010625124 0.72639263
0.012750416 2.9802322e-08 0.72639841
0.012757481 -0.0010631084 0.72647977
0.012770492 -0.0021283925 0.7266295
0.012790264 -0.0031975508 0.72685707
0.01281663 -0.0042721927 0.72716063
0.01285069 -0.0053544343 0.72755271
0.012892983 -0.0064464509 0.7280395
0.012943344 -0.0075502694 0.72861934
0.013002007 -0.0086679757 0.72929454
0.013070293 -0.0098027289 0.7300806
0.013148933 -0.01095745 0.73098576
0.013239664 -0.01213637 0.73203021
0.013343171 -0.013343155 0.73322165
0.013462311 -0.014584154 0.73459315
0.013598763 -0.015865207 0.73616385
0.013756281 -0.017195374 0.73797703
0.013938961 -0.018585265 0.74007988
0.014157099 -0.02005586 0.74259084
0.014419015 -0.021628499 0.74560577
0.014749882 -0.023353934 0.74941444
0.015198191 -0.025330305 0.75457495
0.015949421 -0.027911454 0.7632224
0.018013386 0.03048417 0.7710306
0.01687675 0.027262479 0.75895315
0.016318422 0.025105298 0.75302052
0.0159231 0.023272216 0.74882001
0.015613534 0.021618754 0.74553072
0.01536282 0.020089865 0.74286669
0.01515084 0.018647224 0.7406143
0.014969746 0.0172728 0.73869008
0.014814184 0.015953749 0.73703706
0.014678635 0.014678657 0.7355969
