# .PCD v0.7 - Point Cloud Data file format
VERSION 0.7
FIELDS x y z
SIZE 4 4 4
TYPE F F F
COUNT 1 1 1
WIDTH 1327
HEIGHT 1
VIEWPOINT 0 0 0 1 0 0 0
POINTS 1327
DATA ascii
0.0010789682 0.012947649 0.72866845
0.0010674314 0.011741757 0.72707486
0.0010562927 0.010562927 0.72553623
0.0010453876 0.0094085038 0.7240299
0.0010349072 0.008279264 0.72258216
0.001024691 0.0071728528 0.72117102
0.001014699 0.006088227 0.71979076
0.0010051071 0.0050255358 0.71846581
0.00099569815 0.003982842 0.71716613
0.00098649657 0.0029595494 0.71589506
0.00097765296 0.0019553304 0.71467352
0.00096896657 0.00096902251 0.71347356
0.00096045178 2.9802322e-08 0.71229744
0.00095227431 -0.0009522438 0.71116793
0.0009442349 -0.001888454 0.71005738
0.00093633309 -0.0028090179 0.70896584
0.000928719 -0.0037148297 0.70791411
0.00092226191 -0.0046112835 0.70702219
0.00091885397 -0.0055131316 0.70655143
0.00091721036 -0.0064204633 0.70632434
0.00091679749 -0.0073343515 0.70626736
0.00091676641 -0.0082508922 0.70626312
0.00091682014 -0.009168148 0.70627046
0.00091687951 -0.010085672 0.70627868
0.0009170124 -0.01100415 0.70629704
0.00091717642 -0.011923254 0.70631963
0.00091739424 -0.012843519 0.70634985
0.00091766886 -0.013765007 0.7063877
0.00091799459 -0.014687896 0.7064327
0.00091839145 -0.015612632 0.70648754
0.00091885967 -0.016539454 0.70655221
0.00091927999 -0.017466307 0.70661032
0.00091865816 -0.018373132 0.70652437
0.0009175273 -0.019268066 0.70636815
0.00091641897 -0.020161211 0.70621508
0.00091591658 -0.02106604 0.70614564
0.00091751316 -0.02202028 0.70636618
0.00092199317 -0.023049802 0.706985
0.00093520834 -0.024315387 0.70881045
0.00094944396 -0.025635004 0.71077693
0.00096063479 -0.026897758 0.71232271
0.0009701646 -0.028134733 0.71363914
0.00097878568 -0.029363543 0.71482992
0.0009860975 -0.030569047 0.71583998
0.00099238905 -0.031756431 0.71670902
0.00099800376 -0.032934099 0.71748459
0.0010029108 -0.034098983 0.71816242
0.0010070438 -0.035246521 0.71873331
0.0010107401 -0.036386609 0.71924388
0.0010141281 -0.037522733 0.7197119
0.0010168778 -0.038641334 0.7200917
0.0010195482 -0.039762348 0.72046053
0.0010215163 -0.040860623 0.72073245
0.0010231188 -0.041947871 0.72095382
0.0010243523 -0.043022811 0.72112423
0.0010254047 -0.044092387 0.72126961
0.0010267146 -0.045175433 0.72145057
0.0010320412 -0.046441853 0.72218621
0.0010939548 -0.050321877 0.73073852
0.0029925364 0.050873101 0.78631127
0.0029288922 0.048326731 0.78191561
0.0028702517 0.045924038 0.77786547
0.0028155246 0.043640673 0.7740857
0.0027643351 0.041465044 0.77055025
0.0027162754 0.039386034 0.76723093
0.0026708657 0.037392139 0.76409459
0.0026279355 0.035477132 0.76112962
0.0025872637 0.033634424 0.75832051
0.0025483884 0.031854838 0.7556355
0.0025113956 0.030136764 0.75308061
0.0024760796 0.028474927 0.75064147
0.0024420838 0.026862949 0.74829346
0.0024096728 0.025301576 0.74605495
0.0023784053 0.023784071 0.74389541
0.0023484766 0.022310555 0.74182838
0.002319491 0.020875454 0.73982644
0.0022916887 0.019479364 0.73790622
0.0022647348 0.018117905 0.73604465
0.0022387949 0.016790986 0.73425299
0.0022136897 0.015495867 0.73251915
0.0021893107 0.014230549 0.73083532
0.0021658887 0.012995332 0.72921765
0.00214297 0.011786342 0.72763473
0.0021208867 0.010604471 0.7261095
0.0020994393 0.009447515 0.72462827
0.0020784792 0.0083139241 0.72318065
0.0020583465 0.0072042644 0.72179013
0.0020386211 0.0061158836 0.72042781
0.002019339 0.0050483644 0.71909595
0.002000815 0.0040016472 0.71781659
0.0019826279 0.0029739439 0.71656054
0.0019648396 0.0019648671 0.71533197
0.0019477314 0.00097388029 0.71415031
0.0019309184 2.9802322e-08 0.71298915
0.0019144056 -0.00095719099 0.71184862
0.0018985545 -0.0018985271 0.71075392
0.0018829698 -0.0028244257 0.70967746
0.0018676446 -0.0037352741 0.70861906
0.0018528209 -0.004632026 0.70759517
0.0018428551 -0.0055285394 0.70690691
0.001837356 -0.0064307451 0.70652711
0.0018353717 -0.0073414743 0.70639008
0.0018352414 -0.0082585514 0.70638102
0.0018354 -0.0091769993 0.70639199
0.0018357115 -0.010096401 0.70641351
0.0018360459 -0.01101625 0.70643663
0.0018365447 -0.011937529 0.70647109
0.001837095 -0.012859613 0.70650905
0.0018378046 -0.013783544 0.70655811
0.0018385941 -0.014708757 0.70661265
0.0018395722 -0.015636325 0.70668018
0.0018406368 -0.016565681 0.70675373
0.0018418792 -0.017497808 0.7068395
0.0018429752 -0.018429726 0.7069152
0.0018422045 -0.019343108 0.70686197
0.0018405456 -0.020245969 0.70674735
0.0018388045 -0.021146238 0.70662719
0.0018377079 -0.022052467 0.70655143
0.0018408817 -0.023010999 0.7067706
0.0018484045 -0.024029255 0.70729017
0.0018665486 -0.0251984 0.7085433
0.001892857 -0.026499957 0.71036041
0.0019158979 -0.027780503 0.71195173
0.0019340515 -0.029010773 0.71320552
0.0019502284 -0.030228525 0.71432281
0.0019633286 -0.031413227 0.71522754
0.0019754111 -0.032594264 0.71606207
0.0019861099 -0.033763856 0.71680105
0.001995686 -0.034924477 0.71746242
0.0020037808 -0.036068022 0.71802151
0.0020110502 -0.037204444 0.71852362
0.0020177565 -0.03833738 0.71898675
0.0020224287 -0.039437324 0.71930939
0.0020268117 -0.040536195 0.71961212
0.002030368 -0.041622519 0.71985775
0.0020335056 -0.042703599 0.72007447
0.0020364644 -0.043783963 0.72027886
0.0020450207 -0.04499042 0.72086978
0.0021268094 -0.047853172 0.72651863
0.0022075935 -0.050774634 0.7320981
0.0044664228 0.050619483 0.7852807
0.0043763565 0.0481399 0.78113371
0.0042925756 0.045787513 0.77727604
0.0042142901 0.04354769 0.77367145
0.0041405563 0.041405588 0.77027643
0.0040710485 0.03935349 0.76707596
0.0040053092 0.037382901 0.76404911
0.0039426349 0.035483748 0.76116323
0.0038832095 0.033654481 0.75842708
0.0038263863 0.031886578 0.75581062
0.0037722855 0.030178279 0.75331968
0.0037202833 0.028522164 0.75092524
0.0036703742 0.026916087 0.74862725
0.0036226104 0.025358289 0.74642795
0.0035766182 0.023844153 0.74431032
0.0035322965 0.022371203 0.74226958
0.0034895921 0.020937562 0.74030328
0.0034482947 0.01954034 0.73840177
0.0034086141 0.018179297 0.73657465
0.0033699637 0.016849875 0.73479503
0.003332939 0.015553713 0.73309028
0.003296756 0.014285982 0.73142427
0.0032618269 0.013047308 0.72981596
0.0032280039 0.011836052 0.72825867
0.0031949782 0.010649949 0.72673798
0.0031632381 0.0094897151 0.72527653
0.0031321885 0.0083525181 0.72384691
0.0031018716 0.0072377026 0.72245097
0.0030727289 0.0061454773 0.72110909
0.0030441387 0.005073607 0.71979272
0.003016249 0.0040216446 0.71850854
0.0029893767 0.0029894114 0.71727115
0.0029629888 0.0019753575 0.71605617
0.0029371397 0.0009790659 0.71486604
0.0029122797 2.9802322e-08 0.71372133
0.0028878464 -0.00096261501 0.7125963
0.0028638197 -0.0019091964 0.71149004
0.0028407229 -0.0028407276 0.71042657
0.002818058 -0.0037574172 0.70938301
0.0027957433 -0.0046595335 0.70835549
0.0027753927 -0.005550772 0.70741844
0.0027632553 -0.0064475834 0.70685965
0.0027573032 -0.0073527694 0.70658553
0.002755634 -0.0082668662 0.70650864
0.0027561022 -0.0091870129 0.70653027
0.0027566811 -0.010107785 0.70655692
0.0027574564 -0.01102981 0.70659268
0.002758326 -0.011952728 0.70663261
0.0027594352 -0.012877375 0.70668375
0.0027606562 -0.013803244 0.7067399
0.002762143 -0.014731437 0.70680839
0.0027637861 -0.015661418 0.70688403
0.0027656623 -0.016593933 0.70697045
0.002767816 -0.017529488 0.70706958
0.002770162 -0.018467754 0.70717764
0.002772331 -0.019406289 0.70727742
0.0027722793 -0.020330042 0.70727515
0.0027702309 -0.021238416 0.7071808
0.0027690099 -0.022152036 0.70712453
0.0027679361 -0.023066133 0.70707512
0.0027708416 -0.024013937 0.70720887
0.0027806431 -0.025025755 0.7076602
0.0027966897 -0.026102394 0.70839906
0.002827991 -0.027337223 0.7098403
0.0028597165 -0.028597116 0.71130109
0.0028874634 -0.029837072 0.71257865
0.0029115195 -0.031056195 0.71368635
0.0029318121 -0.032249898 0.71462065
0.002948974 -0.033421725 0.71541095
0.002963973 -0.034579664 0.71610153
0.0029773756 -0.035728484 0.71671867
0.0029884854 -0.036857933 0.71723014
0.0029982876 -0.037978262 0.71768153
0.0030068867 -0.039089531 0.71807742
0.0030142618 -0.04019016 0.71841705
0.0030207015 -0.041282892 0.71871352
0.0030269837 -0.04237777 0.71900278
0.0030403936 -0.043578982 0.71962029
0.0030739568 -0.045084685 0.72116566
0.0032172021 -0.048258007 0.72776127
0.0033414522 -0.051235586 0.7334823
0.0059338724 0.050437927 0.78454316
0.0058197556 0.048013002 0.78060234
0.0057129073 0.045703292 0.77691251
0.0056123724 0.043495923 0.77344078
0.005517567 0.041381747 0.77016681
0.0054279156 0.039352417 0.76707089
0.0053425469 0.037397861 0.76412278
0.0052614734 0.035514981 0.76132303
0.0051841792 0.033697188 0.75865388
0.0051100003 0.03193754 0.75609219
0.005039217 0.030235291 0.75364786
0.0049712188 0.02858454 0.75129962
0.0049061235 0.026983708 0.74905169
0.0048433035 0.025427371 0.74688232
0.0047830129 0.023915082 0.74480027
0.0047246744 0.022442192 0.74278569
0.0046686395 0.021008879 0.74085063
0.0046142405 0.019610554 0.73897201
0.004562004 0.018247992 0.73716813
0.0045111934 0.01691699 0.73541349
0.0044619874 0.015616983 0.73371422
0.0044145477 0.014347285 0.73207599
0.0043682349 0.013104737 0.73047668
0.0043237004 0.011890233 0.72893876
0.004280203 0.010700524 0.72743666
0.0042377543 0.009534955 0.72597069
0.0041969521 0.0083939135 0.72456169
0.0041569727 0.0072747171 0.72318113
0.0041180612 0.0061771274 0.7218374
0.0040805009 0.0051006377 0.72054034
0.0040436201 0.0040436387 0.71926665
0.0040076561 0.0030057728 0.71802473
0.003972963 0.0019865036 0.71682668
0.0039388654 0.00098475814 0.71564919
0.0039054509 2.9802322e-08 0.71449524
0.0038733296 -0.00096830726 0.71338606
0.0038417201 -0.0019208491 0.71229446
0.0038106225 -0.0028579533 0.7112205
0.003780673 -0.0037806332 0.71018624
0.0037513205 -0.0046891272 0.70917261
0.0037224088 -0.0055836141 0.70817423
0.0036986135 -0.0064725578 0.70735246
0.0036856302 -0.0073712468 0.70690411
0.0036797589 -0.0082794428 0.7067014
0.003679099 -0.0091977417 0.70667863
0.0036801347 -0.010120392 0.70671439
0.0036814101 -0.011044174 0.70675838
0.0036828804 -0.011969358 0.70680916
0.0036846029 -0.012896091 0.70686871
0.0036865785 -0.013824612 0.70693684
0.0036888421 -0.014755309 0.7070151
0.0036913257 -0.015688151 0.70710087
0.0036942374 -0.016624033 0.70720142
0.003697372 -0.017562509 0.7073096
0.0037008917 -0.018504441 0.7074312
0.0037048913 -0.019450665 0.7075693
0.0037091309 -0.020400196 0.70771575
0.003710554 -0.021335661 0.70776486
0.0037097442 -0.022258431 0.70773685
0.0037089689 -0.023181051 0.70771015
0.0037085875 -0.024105787 0.70769691
0.0037113759 -0.025051773 0.70779318
0.0037207089 -0.026044935 0.70811552
0.0037368145 -0.027091891 0.70867169
0.0037594768 -0.028196067 0.7094543
0.0037938878 -0.029402614 0.7106427
0.0038286143 -0.03062889 0.71184182
0.0038590054 -0.031836778 0.71289134
0.003884333 -0.033016831 0.71376598
0.0039068619 -0.034185022 0.71454394
0.0039260481 -0.035334408 0.71520656
0.0039436189 -0.03647846 0.71581334
0.0039584739 -0.037605464 0.71632636
0.003971504 -0.038722157 0.71677631
0.0039828196 -0.039828181 0.71716708
0.0039971927 -0.04097122 0.71766347
0.0040194234 -0.042203903 0.71843112
0.004059766 -0.043642431 0.71982419
0.0042134384 -0.046347797 0.72513103
0.004326263 -0.048670471 0.72902727
0.0073994021 0.050315946 0.7840476
0.0072629335 0.047935337 0.78027749
0.0071345554 0.045661151 0.77673078
0.007013381 0.043482989 0.77338314
0.006898398 0.041390389 0.77020657
0.0067892936 0.039377928 0.76719236
0.0066855699 0.037439197 0.76432687
0.0065865717 0.035567492 0.76159191
0.0064919363 0.033758104 0.75897747
0.0064013046 0.032006532 0.75647354
0.0063145622 0.030309916 0.7540772
0.0062308963 0.028662145 0.75176579
0.0061508939 0.027063936 0.74955559
0.0060735154 0.025508791 0.74741787
0.0059992452 0.023997009 0.74536604
0.0059273364 0.02252385 0.74337947
0.0058581694 0.021089435 0.74146861
0.0057911621 0.019689947 0.73961747
0.005726221 0.018323958 0.73782337
0.0056636482 0.01699096 0.73609471
0.0056026815 0.015687555 0.73441041
0.005544005 0.01441443 0.7327894
0.0054868078 0.013168365 0.73120916
0.005431077 0.011948407 0.72966951
0.0053774384 0.010754913 0.72818768
0.0053249444 0.0095849037 0.7267375
0.0052739708 0.0084383786 0.72532922
0.0052247159 0.0073146224 0.72396851
0.0051763547 0.0062116385 0.72263241
0.0051293937 0.0051293969 0.72133505
0.00508392 0.0040671825 0.72007877
0.0050392631 0.0030235648 0.71884507
0.0049958024 0.0019983351 0.71764439
0.0049537458 0.00099077821 0.71648252
0.0049123913 2.9802322e-08 0.71534002
0.0048718653 -0.00097435713 0.7142204
0.0048328661 -0.0019331276 0.71314299
0.0047945012 -0.002876699 0.7120831
0.0047567412 -0.0038053691 0.7110399
0.0047202753 -0.0047202408 0.71003246
0.004684601 -0.0056214929 0.70904696
0.0046494608 -0.0065092146 0.70807618
0.0046236408 -0.0073978007 0.70736283
0.0046112956 -0.0083003044 0.70702177
0.0046062386 -0.0092124641 0.70688206
0.0046063103 -0.010133833 0.70688403
0.0046081515 -0.011059523 0.70693493
0.004610423 -0.01198706 0.70699763
0.0046128831 -0.012916058 0.7070657
0.0046157897 -0.013847321 0.70714593
0.0046188869 -0.014780432 0.70723146
0.0046225628 -0.015716702 0.70733303
0.0046265037 -0.016655385 0.70744193
0.0046309126 -0.017597437 0.70756376
0.0046358788 -0.018543512 0.70770097
0.0046412908 -0.019493401 0.70785046
0.0046472233 -0.020447761 0.70801431
0.0046538408 -0.021407664 0.70819718
0.0046588862 -0.02236262 0.70833653
0.0046603316 -0.023301661 0.70837653
0.0046617631 -0.024241149 0.70841604
0.004662801 -0.025179118 0.70844471
0.0046654493 -0.026126504 0.70851785
0.0046741897 -0.027110308 0.70875931
0.0046889288 -0.028133571 0.70916653
0.0047099148 -0.029201478 0.70974624
0.0047350056 -0.030304015 0.71043944
0.0047636447 -0.031440049 0.71123064
0.0047940067 -0.032599241 0.71206945
0.0048250719 -0.033775479 0.7129277
0.0048521841 -0.034935713 0.71367669
0.004875795 -0.036080867 0.714329
0.0048999595 -0.037239641 0.71499658
0.0049239732 -0.038406968 0.71565998
0.0049516675 -0.039613336 0.71642506
0.0049856692 -0.040882468 0.71736443
0.00504881 -0.042409986 0.71910882
0.0052022333 -0.044739217 0.72334731
0.005309335 -0.046722144 0.7263062
0.0054544648 -0.049090147 0.73031563
0.0088678971 0.050251454 0.7837854
0.0087099895 0.047904938 0.78015012
0.0085610971 0.045659214 0.77672225
0.0084198304 0.04350245 0.77347004
0.0082859965 0.041429996 0.77038884
0.0081585515 0.039433032 0.7674548
0.0080367392 0.037504822 0.7646504
0.0079202699 0.035641223 0.76196909
0.0078090746 0.033839345 0.75940907
0.0077024214 0.032093465 0.75695372
0.0075999694 0.030399889 0.75459504
0.007501184 0.028754562 0.75232083
0.007406563 0.027157426 0.75014246
0.0073151989 0.025603205 0.74803901
0.0072271149 0.024090409 0.74601108
0.0071421559 0.022616833 0.74405527
0.0070597297 0.021179199 0.74215758
0.0069803582 0.019777685 0.74033034
0.006903206 0.018408567 0.73855406
0.0068289428 0.01707238 0.73684442
0.0067566182 0.015765429 0.73517931
0.00668626 0.014486939 0.73355949
0.0066185063 0.013237029 0.7319997
0.0065522562 0.012012482 0.73047447
0.0064880969 0.010813534 0.72899735
0.0064259693 0.0096389651 0.72756708
0.0063650659 0.0084867775 0.72616494
0.0063060857 0.0073571205 0.72480708
0.0062488448 0.0062488616 0.72348928
0.0061926339 0.0051605701 0.72219515
0.0061382484 0.0040921867 0.72094309
0.0060853497 0.0030426681 0.71972531
0.0060333749 0.0020111501 0.71852869
0.0059828027 0.0009971559 0.71736443
0.0059338203 2.9802322e-08 0.71623671
0.0058856336 -0.00098091364 0.71512741
0.0058383956 -0.0019461215 0.71403986
0.0057929247 -0.0028964579 0.71299303
0.0057481565 -0.003832072 0.71196234
0.0057040751 -0.004753381 0.71094751
0.005661509 -0.0056614876 0.70996755
0.0056198565 -0.0065564811 0.70900863
0.0055792485 -0.0074389875 0.70807374
0.0055541373 -0.0083311498 0.70749563
0.0055408571 -0.0092347562 0.70718992
0.0055364044 -0.010150045 0.7070874
0.0055381227 -0.011076242 0.70712698
0.0055410811 -0.012005657 0.70719504
0.0055446448 -0.012937486 0.70727712
0.0055483687 -0.013870895 0.70736277
0.0055528237 -0.014807492 0.70746541
0.0055575795 -0.015746444 0.70757496
0.0055628465 -0.016688496 0.70769608
0.0055687665 -0.017634422 0.7078324
0.005575187 -0.018583924 0.70798028
0.0055823028 -0.019538075 0.70814407
0.0055902074 -0.020497441 0.70832604
0.0055988906 -0.021462381 0.70852596
0.0056084455 -0.022433758 0.7087459
0.0056182994 -0.023409545 0.70897275
0.0056250473 -0.0243752 0.70912814
0.0056290752 -0.025330842 0.70922083
0.0056348345 -0.026295871 0.70935345
0.0056403563 -0.027261734 0.70948058
0.0056489091 -0.028244555 0.70967746
0.0056611858 -0.02924943 0.7099601
0.005680813 -0.030297637 0.71041197
0.0057047866 -0.031376302 0.7109639
0.0057323682 -0.032483399 0.71159887
0.0057624499 -0.033614278 0.71229148
0.0057945047 -0.034767002 0.71302938
0.0058273179 -0.035935104 0.71378481
0.0058631427 -0.037133217 0.71460956
0.005903177 -0.038370639 0.71553129
0.0059565599 -0.039710373 0.71676028
0.0060615973 -0.041420907 0.71917844
0.0061859144 -0.043301374 0.72204053
0.0062896148 -0.045075566 0.72442794
0.0064230319 -0.047102243 0.72749943
0.0066024656 -0.049518496 0.73163044
0.010342231 0.050233722 0.78371346
0.010163986 0.047915965 0.78019607
0.0099953795 0.045693189 0.77686894
0.0098352488 0.043556124 0.77370906
0.0096824178 0.041496128 0.77069318
0.0095371474 0.039511055 0.76782656
0.0093981642 0.037592709 0.76508397
0.0092653604 0.035737813 0.76246327
0.0091377003 0.033940047 0.75994414
0.0090151886 0.032197118 0.75752664
0.0088974405 0.030505508 0.75520307
0.008784283 0.028862685 0.75297004
0.0086751264 0.027264684 0.75081605
0.0085702008 0.025710613 0.74874544
0.0084683327 0.024195254 0.74673533
0.0083703734 0.022719592 0.74480224
0.0082753124 0.021279395 0.74292636
0.0081837364 0.019874811 0.74111938
0.0080947643 0.018502325 0.73936361
0.0080082603 0.017160535 0.73765665
0.0079249414 0.015849888 0.73601252
0.0078435466 0.0145666 0.73440629
0.007764936 0.013311297 0.73285496
0.0076886807 0.012082249 0.73135024
0.0076139639 0.010877132 0.72987586
0.0075419145 0.0096967816 0.72845405
0.0074717524 0.0085391402 0.7270695
0.0074029625 0.0074029863 0.72571212
0.0073366687 0.0062886178 0.72440386
0.0072719324 0.0051942468 0.72312647
0.0072083287 0.0041190684 0.72187138
0.0071469322 0.0030629635 0.72065985
0.0070870309 0.002024889 0.71947777
0.0070281015 0.0010040402 0.71831489
0.0069709611 -0 0.71718729
0.0069154087 -0.00098788738 0.71609104
0.0068607344 -0.0019601882 0.71501213
0.0068072071 -0.0029173493 0.71395594
0.0067556049 -0.0038603246 0.71293759
0.0067047789 -0.004789114 0.71193463
0.0066547333 -0.0057040453 0.7109471
0.0066063725 -0.0066063702 0.70999277
0.0065590609 -0.0074960589 0.70905918
0.0065145209 -0.0083757937 0.70818031
0.0064873379 -0.0092676282 0.70764387
0.0064755334 -0.010175824 0.70741087
0.0064723929 -0.011095494 0.70734894
0.0064754328 -0.012025774 0.70740891
0.0064798263 -0.012959629 0.70749563
0.0064850342 -0.013896495 0.70759845
0.0064905742 -0.014835596 0.70770764
0.0064967321 -0.015777767 0.70782924
0.0065036123 -0.016723543 0.70796496
0.0065109553 -0.017672569 0.70810992
0.0065192948 -0.018626571 0.70827448
0.0065283515 -0.019585043 0.70845318
0.0065382752 -0.02054885 0.70864904
0.0065490943 -0.021518439 0.70886254
0.006561066 -0.022495061 0.70909876
0.0065742647 -0.023479491 0.70935917
0.0065887668 -0.024472535 0.70964539
0.0066029569 -0.025468558 0.70992541
0.006615988 -0.026463926 0.71018249
0.006626117 -0.027451038 0.7103824
0.0066383719 -0.028450131 0.71062428
0.0066525852 -0.029461443 0.71090472
0.0066703842 -0.0304932 0.71125597
0.0066911164 -0.031543821 0.71166503
0.0067167203 -0.032624036 0.7121703
0.0067469343 -0.033734649 0.71276653
0.00678522 -0.03489539 0.71352208
0.0068322285 -0.036113173 0.71444964
0.0068899123 -0.037402362 0.71558797
0.0069668321 -0.0388152 0.71710581
0.0070721041 -0.040412009 0.71918321
0.0071666646 -0.041976184 0.72104919
0.0072683524 -0.043610096 0.72305578
0.0073936549 -0.045418173 0.72552842
0.0075548603 -0.047487676 0.72870952
0.011825627 0.050258934 0.78381592
0.011628134 0.047966063 0.78040588
0.011440484 0.045761943 0.77716577
0.011261779 0.043639421 0.77408022
0.011091362 0.041592628 0.77113765
0.010928585 0.039616138 0.76832712
0.010772469 0.037703633 0.76563144
0.010623262 0.035853535 0.76305515
0.010479886 0.034059644 0.76057953
0.010342082 0.032319009 0.75820017
0.010209213 0.030627668 0.75590599
0.010082106 0.028986096 0.75371128
0.0099586258 0.027386278 0.75157917
0.009839965 0.025829941 0.74953032
0.0097250519 0.024312645 0.74754614
0.0096142683 0.022833914 0.74563324
0.0095068933 0.021390498 0.7437793
0.0094025563 0.01998046 0.74197769
0.0093020499 0.01860413 0.7402423
0.0092040608 0.017257661 0.73855042
0.0091094393 0.01594153 0.7369166
0.0090176333 0.014653683 0.73533142
0.0089278258 0.013391763 0.73378074
0.0088414 0.012156963 0.73228842
0.0087570501 0.010946333 0.73083204
0.0086746421 0.0097590089 0.7294091
0.0085952599 0.008595258 0.72803843
0.0085175009 0.0074528158 0.7266959
0.0084413774 0.0063310564 0.72538137
0.0083681308 0.005230099 0.72411674
0.0082962895 0.0041481853 0.72287625
0.0082257288 0.0030846596 0.72165793
0.0081578409 0.0020394623 0.72048569
0.008091283 0.0010114312 0.71933651
0.0080258027 -0 0.71820587
0.0079625202 -0.00099527836 0.7171132
0.0079007521 -0.0019751787 0.71604669
0.0078399349 -0.0029399395 0.71499658
0.0077805561 -0.003890276 0.71397126
0.0077231475 -0.0048269331 0.71298003
0.0076665799 -0.0057499409 0.71200335
0.0076108347 -0.0066594481 0.71104079
0.0075571188 -0.0075570941 0.71011329
0.0075044632 -0.0084425211 0.70920414
0.0074566705 -0.0093207955 0.70837891
0.0074291723 -0.010215074 0.7079041
0.0074162274 -0.011124313 0.70768052
0.0074143088 -0.012048244 0.7076475
0.0074191871 -0.012983531 0.70773172
0.0074255317 -0.01392284 0.70784122
0.0074325609 -0.0148651 0.70796257
0.0074403472 -0.015810728 0.7080971
0.007448663 -0.016759455 0.70824063
0.0074581434 -0.01771307 0.7084043
0.007468374 -0.018670917 0.70858097
0.0074794088 -0.019633412 0.70877147
0.0074916556 -0.020602047 0.70898294
0.0075051025 -0.02157715 0.70921516
0.0075198091 -0.022559404 0.70946908
0.0075359107 -0.023549706 0.70974708
0.0075535439 -0.024549007 0.71005154
0.0075728982 -0.025558501 0.71038574
0.0075940485 -0.026579142 0.71075094
0.0076172678 -0.027612567 0.71115184
0.0076397215 -0.028648943 0.71153957
0.0076632705 -0.029695153 0.71194625
0.0076879095 -0.030751586 0.71237159
0.0077167093 -0.031831414 0.71286887
0.0077509242 -0.032941371 0.71345967
0.0077927625 -0.03409332 0.71418202
0.0078437859 -0.035297006 0.71506304
0.0079088146 -0.036578268 0.71618593
0.007982878 -0.037918687 0.71746469
0.0080605261 -0.039295048 0.71880549
0.0081454674 -0.040727317 0.72027206
0.0082457988 -0.042259723 0.72200447
0.0083663659 -0.043923378 0.72408623
0.0085156728 -0.045771718 0.7266643
0.0087053338 -0.047879308 0.7299391
0.013321973 0.05032751 0.78409433
0.013105157 0.048052251 0.78076667
0.012898766 0.045862287 0.77759898
0.012702088 0.043751687 0.7745803
0.01251442 0.041714728 0.77170002
0.012334717 0.039745241 0.76894188
0.012162311 0.03783831 0.76629579
0.011996862 0.035990626 0.76375645
0.011837949 0.034198523 0.76131737
0.011685486 0.032459706 0.75897741
0.011537894 0.030767709 0.7567122
0.011396119 0.029123425 0.75453621
0.01125916 0.027522415 0.75243413
0.011127072 0.025963187 0.7504068
0.010999313 0.024442911 0.74844599
0.010875248 0.022958875 0.74654186
0.010755724 0.021511465 0.74470741
0.010639434 0.020096719 0.74292254
0.010527246 0.018715113 0.74120069
0.010418289 0.017363846 0.73952842
0.010312043 0.016040951 0.73789775
0.010209655 0.014747322 0.73632622
0.0101097 0.01347962 0.73479211
0.010012433 0.01223743 0.73329926
0.009918672 0.01102075 0.73186016
0.0098266881 0.00982669 0.73044842
0.0097371731 0.0086552501 0.7290746
0.0096506663 0.0075060725 0.72774684
0.009565752 0.0063772202 0.72644353
0.009482922 0.0052683353 0.72517228
0.0094030015 0.0041791499 0.72394562
0.0093244174 0.0031081736 0.72273952
0.0092475824 0.0020550191 0.72156024
0.0091734817 0.0010193288 0.72042286
0.0091006197 2.9802322e-08 0.71930468
0.0090289069 -0.0010032356 0.71820402
0.0089599639 -0.0019910932 0.71714592
0.0088923033 -0.0029640794 0.71610737
0.008825656 -0.0039225221 0.71508449
0.0087609179 -0.0048671961 0.71409088
0.0086979996 -0.0057986677 0.71312523
0.0086359782 -0.0067168474 0.71217328
0.008574862 -0.007622093 0.71123528
0.0085162576 -0.008516252 0.71033579
0.0084585026 -0.0093983114 0.70944941
0.0084060375 -0.010274053 0.70864409
0.0083767036 -0.011168897 0.7081939
0.0083653154 -0.012083232 0.70801914
0.0083640609 -0.01301074 0.70799989
0.008370338 -0.013950557 0.70809627
0.0083790636 -0.014896125 0.70823014
0.00838836 -0.015844673 0.70837283
0.0083989417 -0.016797841 0.70853525
0.0084102368 -0.017754912 0.70870858
0.0084224632 -0.018716544 0.70889628
0.008436135 -0.019684285 0.70910609
0.0084508909 -0.020657718 0.70933259
0.0084670112 -0.021637887 0.70958
0.0084846178 -0.022625655 0.70985025
0.0085039465 -0.023622066 0.71014684
0.0085251005 -0.024628073 0.71047157
0.008548215 -0.0256446 0.71082634
0.0085734883 -0.026673049 0.71121418
0.0086011495 -0.027714819 0.71163881
0.008631411 -0.028771341 0.71210319
0.0086650541 -0.029846311 0.71261954
0.0087020146 -0.030940473 0.71318686
0.0087427469 -0.032056719 0.71381199
0.008788188 -0.033199787 0.71450943
0.0088394713 -0.034375697 0.71529651
0.0088975355 -0.035590082 0.71618772
0.0089628445 -0.036847234 0.71719009
0.0090370458 -0.03815642 0.71832889
0.0091227042 -0.039531738 0.71964365
0.0092222523 -0.04098776 0.7211715
0.0093398076 -0.042548001 0.72297573
0.0094813108 -0.044246107 0.72514755
0.0096552968 -0.046130866 0.72781789
0.014844454 0.050471157 0.7846781
0.014598168 0.048173964 0.78127611
0.014374078 0.045997083 0.77818072
0.014159798 0.043895394 0.77522087
0.013954431 0.041863322 0.77238399
0.01375799 0.039898217 0.76967049
0.013569728 0.037995279 0.76707
0.013388958 0.036150157 0.76457298
0.013214351 0.034357339 0.76216108
0.013046814 0.032617033 0.75984681
0.012885313 0.030924827 0.75761598
0.012729452 0.029277742 0.755463
0.012579019 0.0276739 0.75338507
0.012433087 0.026109487 0.75136924
0.012292534 0.024585098 0.74942774
0.012156067 0.023096561 0.74754268
0.012024348 0.021643847 0.74572325
0.011896546 0.020224154 0.74395788
0.011772271 0.018835664 0.74224126
0.011652301 0.017478466 0.74058402
0.011535108 0.016149193 0.73896521
0.011421786 0.014848322 0.73739988
0.011312001 0.013574421 0.73588336
0.011204518 0.012324959 0.73439872
0.011100425 0.011100411 0.73296082
0.010999348 0.0098994076 0.73156458
0.010900054 0.0087200403 0.73019302
0.010804303 0.0075630546 0.72887039
0.010710952 0.0064265728 0.72758096
0.010619238 0.0053096116 0.72631407
0.010530536 0.0042122304 0.72508878
0.010444148 0.0031332672 0.72389549
0.010359164 0.0020718575 0.72272158
0.010276548 0.0010276437 0.72158039
0.01019646 2.9802322e-08 0.72047412
0.010117614 -0.0010117292 0.71938497
0.010040348 -0.0020080507 0.71831769
0.0099659907 -0.0029897988 0.71729064
0.0098927272 -0.003957063 0.71627855
0.0098205656 -0.0049102604 0.71528178
0.0097509502 -0.0058505833 0.71432012
0.0096828202 -0.0067779422 0.71337909
0.0096156355 -0.007692486 0.71245098
0.0095498357 -0.0085948408 0.71154213
0.0094864443 -0.0094864368 0.71066654
0.0094239181 -0.010366291 0.70980275
0.0093677854 -0.011241317 0.70902735
0.0093362881 -0.012137175 0.70859236
0.0093222698 -0.013051152 0.70839864
0.0093221823 -0.01398325 0.70839745
0.0093300492 -0.014928043 0.70850611
0.0093416544 -0.015880793 0.70866644
0.0093539655 -0.01683715 0.7088365
0.0093675777 -0.017798394 0.70902455
0.0093824724 -0.018764913 0.70923024
0.0093983952 -0.019736618 0.70945019
0.0094158323 -0.020714819 0.70969105
0.0094350101 -0.021700501 0.70995593
0.0094559193 -0.0226942 0.71024483
0.0094787646 -0.02369687 0.71056032
0.0095035722 -0.024709255 0.71090305
0.0095306775 -0.025732815 0.71127748
0.0095604574 -0.02676928 0.71168888
0.0095929001 -0.027819395 0.71213698
0.0096284607 -0.028885365 0.71262819
0.0096673965 -0.029968917 0.713166
0.0097106416 -0.031074047 0.71376336
0.0097584371 -0.03220281 0.71442354
0.009811461 -0.033358932 0.71515596
0.009871155 -0.034549028 0.71598059
0.0099379504 -0.035776645 0.71690327
0.010013641 -0.037050486 0.71794873
0.010099918 -0.038379639 0.71914053
0.010198909 -0.039775729 0.72050798
0.010314076 -0.041256309 0.72209883
0.010450057 -0.042845219 0.72397709
0.0106131 -0.044575006 0.72622925
0.010824201 -0.046544045 0.72914529
0.01770046 0.054710537 0.80190152
0.016110016 0.048330069 0.78192949
0.015867548 0.046160161 0.77888477
0.015636453 0.04406637 0.77598274
0.015414898 0.042040646 0.77320051
0.015202147 0.040078402 0.77052891
0.014997389 0.038175166 0.76795769
0.014801153 0.036330134 0.76549339
0.014612008 0.034537524 0.76311827
0.01442961 0.032794625 0.76082778
0.014254007 0.031099677 0.75862265
0.01408384 0.029448062 0.75648576
0.013919879 0.02783978 0.75442678
0.013761021 0.026271075 0.75243193
0.013607731 0.024741322 0.750507
0.013459035 0.023247421 0.74863976
0.013314801 0.021787852 0.74682856
0.013175429 0.02036202 0.74507838
0.013039672 0.018966824 0.74337363
0.012908467 0.017602473 0.74172598
0.012781075 0.016266853 0.74012625
0.012656417 0.014957607 0.7385608
0.01253652 0.013676226 0.73705524
0.012419346 0.012419343 0.73558378
0.012304943 0.011186332 0.73414725
0.012194538 0.0099773705 0.73276079
0.012086453 0.0087901652 0.73140347
0.011980793 0.0076241493 0.73007667
0.011878951 0.0064794421 0.72879779
0.011779078 0.0053541362 0.72754359
0.011681162 0.0042476952 0.72631407
0.01158679 0.0031600595 0.72512901
0.011494254 0.0020898879 0.72396696
0.011403303 0.001036644 0.72282487
0.011315737 2.9802322e-08 0.72172523
0.01122989 -0.0010208786 0.72064722
0.011145338 -0.0020264089 0.71958542
0.011063283 -0.0030172467 0.71855503
0.010983534 -0.0039940178 0.71755362
0.010904962 -0.0049567521 0.71656692
0.010827829 -0.0059060752 0.71559829
0.010753794 -0.0068433285 0.71466863
0.01068073 -0.0077677667 0.71375108
0.010608652 -0.0086797774 0.71284598
0.010539 -0.0095808804 0.71197128
0.010471061 -0.010471046 0.71111816
0.010403993 -0.011349767 0.71027595
0.010341078 -0.012221277 0.70948595
0.010306315 -0.013117105 0.7090494
0.010292211 -0.014034808 0.70887226
0.010290722 -0.014968276 0.7088536
0.010299566 -0.01591751 0.70896459
0.010314538 -0.016878307 0.70915264
0.010330562 -0.017843693 0.70935386
0.010347686 -0.018813938 0.70956886
0.010366704 -0.019790947 0.70980775
0.010387342 -0.020774662 0.71006691
0.010409653 -0.021765649 0.71034706
0.010433957 -0.022764981 0.71065223
0.010460547 -0.023773968 0.71098614
0.01048946 -0.024793267 0.71134919
0.010520969 -0.025824159 0.7117449
0.010555356 -0.026868194 0.71217668
0.010592782 -0.027926415 0.71264672
0.01063393 -0.029001623 0.71316344
0.010679161 -0.030095786 0.71373141
0.010728824 -0.031211108 0.71435499
0.010783926 -0.032351762 0.715047
0.010845094 -0.033521175 0.71581507
0.010913365 -0.034724295 0.71667242
0.010990323 -0.035968333 0.71763885
0.011076881 -0.037258565 0.71872574
0.011175646 -0.038606763 0.71996605
0.011288911 -0.04002431 0.72138834
0.011420661 -0.041529626 0.72304273
0.011575925 -0.04314661 0.72499251
0.011761884 -0.044908971 0.7273277
0.017644163 0.048521459 0.7827307
0.017384678 0.046359181 0.77974379
0.017136006 0.044268012 0.77688122
0.016897548 0.042243868 0.77413642
0.016668903 0.040283173 0.77150446
0.016448788 0.038380533 0.76897067
0.016236776 0.03653273 0.76653016
0.01603304 0.034738243 0.76418495
0.0158359 0.032991499 0.76191562
0.015645811 0.031291634 0.7597276
0.015462243 0.029635996 0.75761449
0.015285026 0.028022557 0.75557452
0.015113233 0.02644816 0.75359696
0.014947011 0.024911672 0.75168359
0.014786121 0.023411393 0.74983156
0.014629917 0.02194488 0.74803352
0.014478977 0.020511866 0.74629605
0.014332154 0.019109577 0.7446059
0.014189352 0.017736703 0.74296212
0.014051413 0.016393334 0.74137431
0.013916512 0.01507625 0.73982143
0.013785773 0.013785779 0.73831654
0.013659191 0.012520969 0.73685938
0.013535068 0.011279225 0.7354306
0.013414845 0.010061145 0.7340467
0.013297976 0.0088653266 0.73270142
0.013183224 0.0076902509 0.73138052
0.013072207 0.0065361261 0.7301026
0.012964268 0.0054017901 0.72886014
0.012858097 0.0042860508 0.72763795
0.012755247 0.0031888485 0.72645402
0.012655285 0.0021092296 0.72530341
0.012556878 0.0010464191 0.72417063
0.012460773 2.9802322e-08 0.7230643
0.012368099 -0.0010306537 0.72199762
0.012276793 -0.0020461082 0.72094655
0.012187033 -0.0030467808 0.7199133
0.012100915 -0.0040336549 0.71892202
0.012016127 -0.005006671 0.71794593
0.011932518 -0.0059662163 0.7169835
0.011851719 -0.0069134831 0.71605349
0.011772976 -0.0078486502 0.71514708
0.011695311 -0.0087714493 0.71425307
0.011619044 -0.0096825361 0.71337509
0.011545966 -0.010583788 0.71253395
0.011473804 -0.011473805 0.7117033
0.011402537 -0.012352765 0.7108829
0.011333914 -0.013222873 0.71009296
0.011291384 -0.014114201 0.70960343
0.011271806 -0.015029043 0.709378
0.011271128 -0.015967399 0.70937026
0.011281319 -0.016921967 0.70948756
0.011298998 -0.017890066 0.70969105
0.011319427 -0.018865675 0.70992619
0.011341333 -0.019847333 0.71017838
0.011364955 -0.020835727 0.71045029
0.011390855 -0.021832436 0.71074837
0.011419212 -0.022838414 0.71107483
0.01144984 -0.023853809 0.71142745
0.011483033 -0.024879873 0.71180952
0.011519283 -0.025918365 0.71222681
0.011558606 -0.026970059 0.71267945
0.011601631 -0.02803725 0.71317464
0.011648624 -0.029121548 0.71371567
0.011700259 -0.030225635 0.71431005
0.011756997 -0.031351984 0.71496314
0.011819767 -0.03250435 0.71568573
0.011889505 -0.033686906 0.71648842
0.01196741 -0.034904927 0.71738523
0.012054238 -0.036162734 0.71838474
0.012153085 -0.03747201 0.71952254
0.012264811 -0.038838565 0.72080863
0.01239387 -0.040280044 0.72229421
0.012543197 -0.041810632 0.72401315
0.012718745 -0.04345566 0.72603381
0.019202899 0.048745871 0.78366989
0.018926613 0.0465886 0.78073418
0.018661587 0.044500738 0.7779181
0.018406598 0.042476773 0.77520877
0.018161383 0.040513843 0.77260315
0.017926188 0.03861028 0.77010405
0.017698953 0.036759377 0.76768959
0.017479775 0.034959584 0.76536071
0.017268583 0.033208877 0.7631166
0.017064769 0.031504184 0.76095092
0.016867327 0.029842228 0.75885296
0.016676774 0.028222263 0.75682831
0.016492028 0.026641011 0.75486523
0.016313257 0.02509734 0.75296569
0.01614061 0.023590147 0.75113118
0.015972437 0.022115678 0.74934429
0.015809609 0.020674139 0.74761409
0.015651839 0.019263834 0.74593776
0.015497932 0.017882258 0.74430239
0.015349157 0.016529888 0.74272156
0.015204405 0.01520443 0.74118352
0.015062946 0.013904274 0.73968041
0.014926688 0.012630284 0.73823255
0.014793268 0.011379451 0.73681486
0.014663158 0.010151446 0.73543239
0.014537502 0.0089461803 0.73409724
0.014414305 0.007761538 0.73278821
0.014293918 0.0065971911 0.73150903
0.014178072 0.0054531097 0.73027807
0.014064141 0.0043274462 0.72906744
0.013952377 0.0032198131 0.72787994
0.013844806 0.002129972 0.72673696
0.013739223 0.00105685 0.72561502
0.013635429 2.9802322e-08 0.72451216
0.013535656 -0.0010411739 0.72345203
0.013437753 -0.0020673275 0.72241175
0.013341302 -0.0030787587 0.72138685
0.013247996 -0.0040763021 0.72039545
0.013157194 -0.0050604641 0.71943069
0.013067674 -0.0060312152 0.71847939
0.012980103 -0.0069892704 0.71754897
0.012895936 -0.0079359412 0.7166546
0.012812853 -0.008870393 0.71577173
0.012730875 -0.0097929239 0.71490073
0.012652589 -0.010706007 0.71406889
0.012575587 -0.011608243 0.7132507
0.012499517 -0.012499541 0.7124424
0.01242572 -0.013381541 0.71165824
0.012354525 -0.014255196 0.71090174
0.012298991 -0.015137225 0.71031177
0.012274353 -0.016051054 0.71004993
0.012268783 -0.016987532 0.70999074
0.012278407 -0.017945349 0.71009302
0.012296918 -0.018918306 0.71028972
0.012322276 -0.01990521 0.71055913
0.01234979 -0.020899624 0.71085149
0.012379487 -0.021902144 0.71116698
0.012411519 -0.022913545 0.71150738
0.012446241 -0.02393508 0.71187627
0.01248426 -0.024968535 0.71228033
0.012525597 -0.026014715 0.71271956
0.012570394 -0.027074665 0.7131955
0.012619179 -0.028150469 0.71371388
0.012672454 -0.029244125 0.71428001
0.012731084 -0.030358702 0.714903
0.012795255 -0.031495988 0.71558475
0.012866495 -0.03266108 0.71634179
0.012945377 -0.033857137 0.71718001
0.013032698 -0.035088032 0.71810782
0.01313132 -0.036363602 0.71915567
0.013242278 -0.037689567 0.72033471
0.013368427 -0.039076924 0.7216751
0.013513137 -0.040539354 0.72321272
0.013681704 -0.042097539 0.72500384
0.022414822 0.052834958 0.80078626
0.020497905 0.04685235 0.78187275
0.02021526 0.044762403 0.77908397
0.019944793 0.042738855 0.77641547
0.019683888 0.040773749 0.77384114
0.019432168 0.038864344 0.77135754
0.019190254 0.037009776 0.76897067
0.018956877 0.035205662 0.76666796
0.018730627 0.033447564 0.76443571
0.018513253 0.03173703 0.76229095
0.018302232 0.03006801 0.76020885
0.018098172 0.028439999 0.75819552
0.017901536 0.02685234 0.75625539
0.017709652 0.025299519 0.75436211
0.017524865 0.023783743 0.75253892
0.017345119 0.022300899 0.75076532
0.017170584 0.020850003 0.74904335
0.017001886 0.019430727 0.74737883
0.016837286 0.018040001 0.74575472
0.01667778 0.016677797 0.74418098
0.016522972 0.015342772 0.74265361
0.016371399 0.014032662 0.74115807
0.016225111 0.012748331 0.73971474
0.016082656 0.011487633 0.73830914
0.015943045 0.010249138 0.73693168
0.015808541 0.0090334415 0.73560458
0.015676992 0.0078384876 0.73430663
0.015547617 0.0066632628 0.73303014
0.015423274 0.0055083334 0.7318033
0.015301633 0.0043719411 0.73060304
0.015182117 0.0032533109 0.72942388
0.015066853 0.0021524429 0.72828656
0.014954238 0.0010681748 0.72717547
0.014843401 2.9802322e-08 0.72608185
0.014736125 -0.0010525882 0.72502339
0.014631826 -0.0020902455 0.72399437
0.014529046 -0.0031133294 0.72298026
0.014428898 -0.0041225255 0.72199208
0.014332342 -0.0051186383 0.72103941
0.014237069 -0.0061015785 0.72009945
0.014143439 -0.0070717037 0.71917564
0.014054068 -0.0080308914 0.71829385
0.013965867 -0.008978039 0.71742356
0.013878765 -0.0099133849 0.71656412
0.013795439 -0.010839224 0.71574199
0.013713967 -0.011754811 0.71493816
0.01363345 -0.012659609 0.71414369
0.013555462 -0.013555408 0.71337426
0.013480413 -0.014443278 0.71263373
0.013406189 -0.015321344 0.71190149
0.013335641 -0.016193271 0.71120536
0.013300197 -0.017100215 0.71085566
0.013289118 -0.018035233 0.71074635
0.01329404 -0.01899147 0.71079493
0.01331402 -0.019971013 0.71099204
0.01334111 -0.020964593 0.71125937
0.01337501 -0.021973252 0.71159381
0.013411675 -0.022991389 0.71195555
0.013451234 -0.024020076 0.7123459
0.013494176 -0.025060564 0.71276957
0.01354065 -0.026114047 0.71322811
0.013591172 -0.027182341 0.71372658
0.013646185 -0.028267056 0.7142694
0.013706382 -0.029370815 0.7148633
0.013772259 -0.030495733 0.71551329
0.013844567 -0.031644702 0.71622682
0.013924112 -0.032821089 0.71701157
0.014012021 -0.034029186 0.71787894
0.014110845 -0.035277069 0.71885401
0.014221022 -0.036568344 0.71994108
0.014344687 -0.037910938 0.72116125
0.014486532 -0.039320588 0.72256082
0.01466073 -0.040840596 0.72427952
0.022101752 0.047150433 0.78315938
0.02180307 0.045059681 0.78040886
0.021515051 0.043030113 0.77775651
0.021238584 0.041061312 0.77521056
0.020972289 0.039148301 0.77275825
0.02071451 0.037286162 0.77038449
0.020466467 0.035475254 0.7681002
0.020226676 0.033711135 0.76589209
0.019994769 0.031991661 0.76375639
0.019771188 0.030315846 0.76169747
0.019553751 0.028678864 0.75969517
0.019343978 0.027081609 0.75776339
0.019140221 0.025520295 0.75588703
0.018942801 0.023994267 0.75406903
0.018751856 0.022502244 0.75231063
0.018565495 0.021040887 0.75059444
0.018385984 0.019611716 0.74894142
0.018210728 0.018210739 0.74732745
0.01804046 0.016837746 0.74575955
0.017875711 0.01549229 0.74424237
0.017714646 0.01417172 0.74275911
0.017558459 0.012876213 0.74132085
0.017407043 0.011604726 0.73992646
0.017258216 0.010354906 0.73855591
0.017114339 0.0091276467 0.73723102
0.016974589 0.0079214871 0.73594403
0.01683729 0.0067349374 0.73467964
0.016704571 0.0055682063 0.73345751
0.016575469 0.0044201314 0.73226863
0.016448408 0.0032896698 0.73109853
0.016325368 0.0021767318 0.72996551
0.016205983 0.0010804236 0.72886604
0.016088272 -0 0.72778207
0.01597409 -0.0010649264 0.72673059
0.015863661 -0.0021151602 0.72571361
0.015754746 -0.0031509399 0.7247107
0.015648635 -0.0041729808 0.72373354
0.015546544 -0.005182147 0.7227934
0.015445884 -0.0061783791 0.72186643
0.015346834 -0.0071618259 0.72095436
0.015252595 -0.0081346929 0.72008646
0.015159659 -0.009095788 0.71923059
0.0150679 -0.01004523 0.71838558
0.014980814 -0.010985881 0.71758372
0.014895278 -0.01191619 0.71679598
0.014810713 -0.01283595 0.71601719
0.014729971 -0.01374796 0.71527368
0.014651597 -0.014651597 0.71455199
0.014574101 -0.015545666 0.71383828
0.014499775 -0.01643309 0.71315384
0.014428491 -0.017314136 0.71249735
0.014366643 -0.018197715 0.71192789
0.014342438 -0.019123226 0.71170491
0.014342024 -0.020078838 0.71170115
0.014355962 -0.0210554 0.71182954
0.014385127 -0.022057176 0.71209812
0.014419583 -0.023071289 0.71241534
0.014463576 -0.024105966 0.71282053
0.014511946 -0.025154024 0.7132659
0.014564394 -0.026215881 0.71374893
0.014621056 -0.027292609 0.71427071
0.014682703 -0.028386563 0.71483839
0.014749989 -0.029499978 0.7154581
0.014823411 -0.030634999 0.71613413
0.014903887 -0.031794935 0.71687531
0.0149931 -0.032984793 0.71769679
0.015091807 -0.034208089 0.71860576
0.015201295 -0.035469681 0.71961403
0.015323272 -0.036775827 0.72073734
0.015468004 -0.038154393 0.72207016
0.015697202 -0.039766222 0.72418076
0.025588013 0.051176041 0.80053651
0.023426408 0.045388699 0.78187472
0.023123249 0.043356121 0.77925748
0.02283036 0.041380048 0.77672887
0.022547998 0.03945902 0.77429122
0.022276396 0.037591428 0.77194637
0.022013396 0.035771817 0.76967573
0.021759618 0.033999413 0.76748484
0.021514252 0.032271415 0.76536649
0.021276545 0.030585051 0.76331437
0.021046638 0.028939128 0.76132953
0.020824017 0.027331531 0.75940752
0.020608198 0.025760263 0.75754434
0.020399081 0.024223924 0.75573897
0.020196307 0.022720844 0.75398833
0.019999038 0.021248996 0.75228524
0.019808142 0.019808143 0.75063717
0.019622471 0.018396109 0.74903423
0.019441601 0.017011434 0.74747276
0.019267702 0.015655041 0.74597144
0.019096656 0.014322549 0.74449468
0.018930804 0.013014972 0.74306285
0.018770248 0.011731416 0.74167675
0.018612761 0.010469705 0.74031705
0.018460399 0.0092302263 0.73900169
0.018312555 0.0080117285 0.73772532
0.018167267 0.0068127513 0.73647106
0.018026521 0.0056332946 0.73525596
0.017890025 0.0044725239 0.73407745
0.017755577 0.0033291578 0.73291677
0.017625749 0.0022032261 0.73179591
0.017499736 0.001093775 0.73070794
0.017375512 2.9802322e-08 0.72963554
0.017255414 -0.0010784268 0.72859871
0.017139129 -0.0021423995 0.72759479
0.017024398 -0.0031920373 0.72660434
0.016912997 -0.0042282343 0.7256425
0.016805893 -0.0052518249 0.72471786
0.01670008 -0.006262511 0.72380435
0.016597209 -0.0072612464 0.72291625
0.016498746 -0.0082493424 0.72206616
0.016401501 -0.0092258155 0.72122657
0.016306343 -0.010191441 0.7204051
0.016216317 -0.011148721 0.71962786
0.016127281 -0.012095451 0.7188592
0.016040133 -0.013032615 0.71810681
0.015958313 -0.013963491 0.71740049
0.015877375 -0.014885038 0.71670169
0.015798094 -0.015798062 0.71601719
0.015724484 -0.016707242 0.71538174
0.015651554 -0.017607987 0.71475214
0.015581086 -0.018502533 0.71414375
0.015515699 -0.019394606 0.71357924
0.015457233 -0.020287573 0.71307445
0.015436874 -0.021225691 0.71289867
0.015443637 -0.022200227 0.71295708
0.015466125 -0.023199171 0.71315128
0.015500233 -0.024219126 0.71344572
0.015548349 -0.025266021 0.71386111
0.015601724 -0.026327908 0.71432197
0.015660672 -0.027406156 0.71483082
0.015729006 -0.028508842 0.71542084
0.015803918 -0.02963233 0.71606749
0.015885752 -0.030778617 0.71677393
0.015975511 -0.03195101 0.71754897
0.016074108 -0.033152848 0.71840018
0.016187906 -0.034399241 0.71938258
0.016321668 -0.035703599 0.72053736
0.016510883 -0.037149489 0.72217095
0.025091792 0.045755625 0.78350985
0.024771044 0.043713629 0.7809037
0.0244636 0.041732043 0.77840555
0.024166469 0.039803594 0.7759912
0.023878722 0.037925035 0.77365315
0.023602042 0.036097229 0.77140498
0.023333749 0.034314364 0.76922494
0.023074538 0.032575816 0.76711875
0.022824218 0.030879855 0.7650848
0.022580683 0.029222101 0.76310599
0.022346437 0.027604431 0.76120257
0.022117872 0.026021063 0.75934541
0.021897255 0.024473459 0.75755274
0.021683319 0.022958815 0.75581443
0.021475166 0.021475196 0.75412309
0.021274013 0.020022631 0.75248867
0.021077912 0.018598169 0.75089526
0.020887034 0.017201126 0.74934429
0.020702548 0.015831381 0.74784523
0.020522291 0.014486343 0.74638057
0.020347439 0.013165981 0.74495983
0.020178441 0.011869669 0.74358666
0.020012625 0.010594934 0.74223924
0.019851847 0.0093420744 0.74093288
0.01969601 0.0081101358 0.7396667
0.019542752 0.0068974793 0.73842138
0.019395135 0.0057044625 0.7372219
0.019251565 0.004529804 0.73605531
0.019110464 0.0033724606 0.73490882
0.01897455 0.0022323132 0.73380446
0.018842239 0.0011083782 0.73272938
0.018711763 2.9802322e-08 0.73166919
0.01858677 -0.0010932982 0.73065352
0.018465055 -0.0021723509 0.72966456
0.018345119 -0.0032373369 0.72869003
0.018230351 -0.0042894781 0.72775751
0.018118631 -0.0053290129 0.72684973
0.018008273 -0.0063558519 0.72595304
0.017903242 -0.0073719323 0.72509956
0.017801188 -0.0083769858 0.72427034
0.017700288 -0.0093707144 0.72345048
0.017605428 -0.010356098 0.72267973
0.017512733 -0.011331767 0.72192651
0.017420949 -0.012297124 0.72118068
0.017335886 -0.013256818 0.72048956
0.017252473 -0.0142079 0.7198118
0.017170794 -0.015150696 0.71914816
0.017096067 -0.016090423 0.71854091
0.017021986 -0.017021954 0.71793902
0.016952012 -0.017949194 0.71737039
0.016887067 -0.018873781 0.71684271
0.01682256 -0.019791186 0.71631855
0.016766604 -0.02071166 0.71586382
0.016711736 -0.021626949 0.7154181
0.016662717 -0.022543669 0.71501976
0.016628738 -0.023475856 0.71474367
0.016629176 -0.024454653 0.71474719
0.016656075 -0.025473982 0.71496576
0.016700806 -0.026524812 0.71532923
0.016755769 -0.027597725 0.71577585
0.01682945 -0.028709024 0.71637452
0.016907454 -0.029836684 0.71700841
0.017005268 -0.031009614 0.71780318
0.017109778 -0.032206625 0.71865237
0.017261487 -0.033507586 0.71988499
0.026467422 0.044112414 0.7827397
0.026142729 0.042118847 0.78024805
0.025830394 0.040180624 0.77785116
0.02552872 0.038293093 0.77553606
0.025236627 0.036452949 0.77329457
0.02495533 0.03466022 0.77113587
0.024682742 0.032910347 0.76904398
0.024418712 0.03120169 0.76701784
0.024163438 0.029533118 0.76505882
0.023916008 0.027902067 0.76315999
0.023676526 0.026307285 0.76132226
0.023444051 0.024746537 0.75953823
0.02321922 0.023219228 0.75781292
0.022999646 0.0217219 0.75612783
0.022787873 0.020255893 0.75450271
0.022581583 0.018818051 0.75291961
0.022381334 0.017407715 0.75138295
0.022188101 0.016024739 0.74989998
0.021998806 0.014665902 0.74844736
0.02181538 0.013331652 0.74703974
0.021637525 0.012020856 0.74567497
0.021463407 0.010731727 0.74433869
0.021295374 0.0094646215 0.7430492
0.021131951 0.0082179904 0.74179506
0.020971922 0.0069906712 0.74056703
0.020818103 0.0057828128 0.73938656
0.020667801 0.0045928657 0.73823315
0.020520596 0.0034200847 0.73710346
0.020379586 0.0022644401 0.7360214
0.020241342 0.001124531 0.73496056
0.020106319 2.9802322e-08 0.73392439
0.019977858 -0.0011098683 0.73293853
0.019851174 -0.0022056699 0.73196638
0.019727832 -0.0032879412 0.73101979
0.019610466 -0.0043578744 0.73011911
0.019494843 -0.005415231 0.72923183
0.019383732 -0.0064612031 0.72837919
0.019277632 -0.0074968338 0.72756493
0.019172614 -0.0085211396 0.72675908
0.019073289 -0.0095366538 0.72599685
0.018977948 -0.010543287 0.72526515
0.01888402 -0.011540204 0.72454435
0.018798012 -0.012531996 0.72388428
0.018713504 -0.013515294 0.72323579
0.018632932 -0.014492273 0.72261751
0.018558837 -0.015465677 0.72204888
0.018485393 -0.016431451 0.72148526
0.018421652 -0.017398208 0.72099614
