# .PCD v0.7 - Point Cloud Data file format
VERSION 0.7
FIELDS x y z
SIZE 4 4 4
TYPE F F F
COUNT 1 1 1
WIDTH 1334
HEIGHT 1
VIEWPOINT 0 0 0 1 0 0 0
POINTS 1334
DATA ascii
0 -0.020321071 0.7273649
0 -0.021420419 0.72757083
0 -0.022529542 0.72782159
0 -0.02365002 0.72812057
0 -0.024784863 0.72847992
0 -0.02593559 0.72890079
0 -0.027104378 0.72938788
0 -0.02829659 0.72996163
0 -0.029516011 0.73063248
0 -0.030768812 0.7314198
0 -0.032063872 0.73235428
0 -0.033416003 0.73348922
0 -0.034850866 0.73491943
0 -0.036414027 0.73681432
0 -0.038258135 0.73977017
0.0013541491 0.037916183 0.76668
0.0013119738 0.035423309 0.76085418
0.0012853848 0.033420056 0.75718135
0.0012645556 0.031613886 0.75430417
0.00124712 0.02993089 0.75189573
0.0012320594 0.028337359 0.74981534
0.0012186702 0.026810765 0.74796581
0.0012066107 0.025338858 0.74630004
0.0011956859 0.023913771 0.74479097
0.0011856705 0.022527754 0.74340749
0.0011764262 0.021175683 0.74213064
0.0011678474 0.019853443 0.74094558
0.0011599219 0.018558741 0.73985082
0.0011524471 0.017286718 0.73881829
0.0011454868 0.016036838 0.73785686
0.0011389548 0.014806449 0.73695457
0.0011327728 0.013593286 0.73610067
0.0011270161 0.0123972 0.73530543
0.0011215378 0.011215389 0.73454869
0.0011164097 0.010047704 0.73384035
0.001111561 0.0088925064 0.73317063
0.0011069891 0.0077489614 0.73253906
0.0011026835 0.0066161156 0.73194432
0.0010986264 0.0054931641 0.73138386
0.0010948044 0.0043792427 0.73085594
0.0010912132 0.0032736659 0.73035991
0.0010878404 0.0021756887 0.72989398
0.0010846741 0.0010847151 0.72945666
0.0010817152 -2.9802322e-08 0.72904795
0.0010789564 -0.0010789335 0.72866678
0.0010763947 -0.002152741 0.72831297
0.0010740389 -0.0032220781 0.72798753
0.0010718441 -0.0042873621 0.72768438
0.0010698737 -0.0053493381 0.72741222
0.0010680717 -0.0064083934 0.72716326
0.0010664668 -0.0074652433 0.72694159
0.0010650576 -0.0085204542 0.72674692
0.0010638345 -0.0095745027 0.726578
0.0010628119 -0.010628104 0.72643673
0.0010619769 -0.011681736 0.7263214
0.0010613402 -0.012736082 0.72623348
0.0010609048 -0.01379177 0.72617328
0.0010606815 -0.014849544 0.72614247
0.0010606741 -0.015910089 0.72614145
0.0010608708 -0.016973913 0.72616857
0.0010613024 -0.018042117 0.72622818
0.0010619883 -0.019115746 0.72632295
0.0010629183 -0.020195425 0.7264514
0.0010641277 -0.021282524 0.72661853
0.0010656377 -0.022378355 0.72682703
0.0010674697 -0.02348429 0.72708011
0.0010696851 -0.024602771 0.72738624
0.0010723078 -0.025735378 0.72774839
0.0010753709 -0.026884258 0.72817159
0.0010789055 -0.028051555 0.72865987
0.001083102 -0.029243737 0.72923946
0.0010879518 -0.030462652 0.72990936
0.0010937053 -0.031717449 0.73070413
0.001100521 -0.033015639 0.73164558
0.0011087927 -0.034372568 0.73278821
0.0011192205 -0.03581506 0.73422861
0.0011331396 -0.0373936 0.73615134
0.001155079 -0.039272666 0.73918182
0.0026549855 0.035842299 0.76299787
0.0025883222 0.033648223 0.75839365
0.0025409095 0.031761378 0.75511903
0.0025024987 0.030030012 0.75246614
0.002470023 0.028405279 0.75022316
0.0024414123 0.026855558 0.74824715
0.0024159465 0.025367439 0.74648833
0.0023929593 0.023929596 0.74490058
0.0023720409 0.0225344 0.74345589
0.0023527034 0.021174371 0.74212027
0.0023348881 0.019846588 0.74088985
0.0023183248 0.018546611 0.73974591
0.0023028951 0.017271698 0.73868024
0.0022884966 0.016019523 0.7376858
0.0022749123 0.014786959 0.73674762
0.0022622626 0.013573587 0.73587388
0.0022502802 0.012376577 0.73504627
0.0022390478 0.011195272 0.73427051
0.0022284028 0.010027826 0.73353529
0.0022184125 0.0088736415 0.73284531
0.0022089626 0.0077313781 0.73219264
0.0022000649 0.0066002309 0.73157811
0.0021916744 0.0054792464 0.73099858
0.0021837726 0.0043675601 0.7304529
0.0021763335 0.0032645166 0.7299391
0.0021693483 0.0021693707 0.72945666
0.0021627857 0.0010814071 0.72900337
0.002156622 2.9802322e-08 0.72857761
0.0021508664 -0.0010754466 0.72818017
0.0021454978 -0.002145499 0.72780937
0.0021405253 -0.003210783 0.72746587
0.002135921 -0.0042718053 0.72714794
0.0021316954 -0.0053292215 0.72685611
0.0021278441 -0.0063835084 0.7265901
0.0021243484 -0.0074352026 0.7263487
0.0021212648 -0.0084850192 0.72613567
0.0021185223 -0.0095333457 0.72594631
0.0021161933 -0.010580957 0.72578537
0.0021142373 -0.0116283 0.72565037
0.0021126529 -0.012675911 0.72554088
0.002111468 -0.013724506 0.72545904
0.0021106813 -0.01477474 0.72540468
0.0021103143 -0.015827358 0.72537941
0.0021103593 -0.016882867 0.72538251
0.0021108161 -0.017941892 0.72541404
0.0021117528 -0.019005746 0.72547871
0.0021131707 -0.020075113 0.7255767
0.0021150871 -0.021150857 0.72570902
0.002117557 -0.022234321 0.72587961
0.0021206145 -0.023326725 0.72609079
0.0021243712 -0.024430275 0.72635025
0.0021288572 -0.025546283 0.72666001
0.0021341275 -0.026676565 0.72702408
0.002140271 -0.027823478 0.72744834
0.0021474187 -0.02899009 0.72794199
0.0021558481 -0.030181825 0.72852421
0.0021655574 -0.031400591 0.72919476
0.0021771381 -0.032657057 0.72999465
0.0021908672 -0.033958435 0.73094285
0.0022075363 -0.03532058 0.73209411
0.002228528 -0.036770701 0.73354399
0.0022568291 -0.038366079 0.73549867
0.0023022443 -0.040289283 0.7386353
0.004073353 0.036660165 0.76718211
0.0039185481 0.03396076 0.76005423
0.0038335545 0.031946331 0.75614071
0.0037691463 0.030153185 0.75317514
0.0037158981 0.028488547 0.75072336
0.0036698156 0.026911974 0.74860156
0.0036292414 0.025404721 0.74673325
0.0035928793 0.023952544 0.74505901
0.0035597507 0.022545129 0.74353367
0.0035295857 0.02117753 0.7421447
0.0035016446 0.019842684 0.7408582
0.0034759154 0.018538207 0.73967355
0.0034519236 0.017259628 0.73856878
0.0034294203 0.016003996 0.73753262
0.0034085228 0.014770269 0.73657048
0.0033887797 0.013555139 0.73566139
0.00337032 0.012357861 0.73481143
0.003352829 0.011176109 0.73400611
0.0033364166 0.010009259 0.73325044
0.003320955 0.0088558495 0.73253846
0.0033062852 0.0077146888 0.73186302
0.0032925098 0.0065850317 0.73122877
0.0032795118 0.0054658353 0.73063028
0.0032672619 0.0043563843 0.73006624
0.0032557088 0.0032557249 0.72953427
0.0032448391 0.0021632314 0.72903383
0.0032346279 0.0010782182 0.72856367
0.0032250518 2.9802322e-08 0.72812271
0.0032160538 -0.0010719895 0.7277084
0.0032076712 -0.0021384358 0.72732246
0.0031998595 -0.0031998456 0.72696269
0.0031926001 -0.0042567551 0.72662842
0.0031859081 -0.0053098202 0.72632033
0.0031797767 -0.0063595474 0.72603804
0.0031741769 -0.0074064136 0.72578019
0.0031691145 -0.008450985 0.72554713
0.0031646069 -0.009493798 0.72533959
0.0031606718 -0.010535538 0.72515833
0.0031573051 -0.011576772 0.72500336
0.0031544585 -0.012617797 0.72487235
0.0031522296 -0.013659656 0.72476965
0.0031505711 -0.014702648 0.7246933
0.0031495143 -0.015747577 0.7246446
0.0031490587 -0.01679498 0.72462368
0.0031492366 -0.01784566 0.72463185
0.0031500258 -0.018900156 0.7246682
0.0031515169 -0.019959599 0.72473687
0.0031537225 -0.021024793 0.72483838
0.0031566797 -0.022096723 0.72497451
0.0031604816 -0.023176879 0.72514963
0.003165202 -0.024266511 0.72536689
0.003170894 -0.025367111 0.72562897
0.0031776703 -0.026480585 0.725941
0.0031856124 -0.027608603 0.72630674
0.0031948523 -0.028753668 0.72673219
0.0032057348 -0.029920191 0.72723329
0.0032183859 -0.031111062 0.72781575
0.0032330924 -0.032330871 0.72849286
0.0032504424 -0.033587873 0.7292918
0.003271203 -0.034892827 0.73024774
0.0032963662 -0.036260039 0.73140633
0.0033280656 -0.037718028 0.73286587
0.0033711859 -0.039330482 0.73485136
0.0034415908 -0.041299075 0.73809302
0.0052982173 0.034438431 0.76259202
0.0051503768 0.032189906 0.75748658
0.0050509204 0.030305564 0.75405198
0.0049722162 0.028590262 0.75133407
0.0049058404 0.026982129 0.74904191
0.0048479415 0.02545172 0.74704248
0.0047964356 0.023982167 0.74526381
0.0047500301 0.022562683 0.74366122
0.0047077532 0.021184891 0.74220133
0.0046690241 0.01984337 0.74086398
0.0046331822 0.018532723 0.73962611
0.0045998949 0.017249614 0.73847663
0.0045691007 0.015991837 0.73741317
0.0045400658 0.014755249 0.73641056
0.0045129904 0.013538986 0.73547554
0.0044874707 0.012340546 0.73459429
0.0044633942 0.011158496 0.73376286
0.0044409325 0.0099921525 0.73298717
0.0044195335 0.0088391006 0.73224819
0.0043995115 0.007699132 0.73155677
0.0043805237 0.006570816 0.73090106
0.0043626279 0.0054532886 0.73028302
0.0043457663 0.0043457448 0.72970074
0.0043298379 0.0032473803 0.72915077
0.004314824 0.0021574199 0.72863221
0.0043007061 0.0010751784 0.72814471
0.0042874073 2.9802322e-08 0.72768545
0.0042749271 -0.0010687411 0.72725451
0.0042632227 -0.0021315813 0.72685027
0.0042523569 -0.0031892657 0.72647506
0.0042422274 -0.0042422414 0.72612524
0.0042328378 -0.0052910447 0.72580105
0.0042241807 -0.0063362718 0.72550201
0.0042162603 -0.007378459 0.72522855
0.0042090253 -0.0084180236 0.72497863
0.0042025275 -0.009455651 0.72475427
0.0041967453 -0.010491848 0.72455454
0.0041916878 -0.011527151 0.72437996
0.004187379 -0.012562096 0.72423112
0.0041838009 -0.013597339 0.72410756
0.0041809627 -0.014633358 0.72400951
0.004178877 -0.015670776 0.72393757
0.0041776001 -0.016710371 0.72389346
0.0041771163 -0.017752737 0.72387671
0.0041774679 -0.01879862 0.72388893
0.0041786572 -0.019848585 0.72392994
0.0041807713 -0.020903856 0.72400296
0.0041838298 -0.021965086 0.72410858
0.0041879099 -0.0230335 0.72424948
0.0041931206 -0.024110466 0.72442943
0.0041995156 -0.025197059 0.72465026
0.0042071794 -0.026294887 0.72491491
0.0042162756 -0.027405769 0.72522902
0.0042269123 -0.028531641 0.72559637
0.0042393547 -0.029675454 0.726026
0.0042539686 -0.030841231 0.72653067
0.0042708605 -0.032031447 0.72711402
0.0042906548 -0.033252567 0.72779757
0.0043137912 -0.034510344 0.72859657
0.0043416265 -0.035818428 0.72955781
0.0043754005 -0.037190884 0.7307241
0.0044179414 -0.03865698 0.73219323
0.0044763261 -0.040286928 0.73420942
0.0045734919 -0.042304784 0.7375648
0.0065056263 0.032528132 0.75935566
0.0063543366 0.030500829 0.75517595
0.0062427986 0.028716892 0.75209463
0.0061516576 0.027067304 0.74957669
0.0060737636 0.025509834 0.74742472
0.0060052052 0.024020821 0.74553078
0.0059439694 0.022587091 0.74383903
0.0058884663 0.021198541 0.74230564
0.0058379071 0.019848913 0.74090886
0.0057910942 0.018531561 0.7396155
0.0057479353 0.017243832 0.73842323
0.005707758 0.015981734 0.73731327
0.0056703216 0.014742851 0.73627901
0.0056352094 0.013524532 0.735309
0.0056021954 0.01232484 0.73439693
0.0055713826 0.01114279 0.73354572
0.0055421866 0.00997594 0.73273915
0.0055147875 0.008823663 0.73198211
0.0054888129 0.00768435 0.73126453
0.0054643867 0.006557256 0.73058981
0.0054413117 0.0054413378 0.72995228
0.0054195365 0.0043356419 0.72935069
0.0053989738 0.003239423 0.72878265
0.0053795781 0.0021518469 0.72824675
0.005361327 0.0010722876 0.72774255
0.0053441203 2.9802322e-08 0.72726721
0.0053279591 -0.0010656118 0.72682071
0.0053127683 -0.0021250844 0.72640109
0.0052985516 -0.0031791031 0.7260083
0.0052852556 -0.0042282045 0.72564101
0.0052728672 -0.0052728653 0.7252987
0.005261505 -0.006313771 0.72498488
0.0052509331 -0.0073513091 0.72469282
0.005241327 -0.0083861053 0.7244274
0.0052326033 -0.0094186664 0.72418642
0.0052247527 -0.010449469 0.72396946
0.0052178046 -0.011479139 0.72377747
0.005211751 -0.012508184 0.72361028
0.005206605 -0.013537139 0.72346807
0.0052023423 -0.014566511 0.72335035
0.0051990137 -0.015597016 0.72325844
0.0051966156 -0.016629159 0.72319221
0.0051952177 -0.017663717 0.72315353
0.0051947818 -0.018701196 0.72314149
0.0051953625 -0.01974234 0.72315753
0.0051969788 -0.020787895 0.72320223
0.0051997956 -0.021839112 0.72327995
0.0052037444 -0.022896469 0.72338909
0.0052089943 -0.023961335 0.72353417
0.005215608 -0.025034875 0.7237168
0.0052237064 -0.026118517 0.72394055
0.0052333768 -0.027213514 0.7242077
0.0052448213 -0.028322011 0.7245239
0.0052581746 -0.029445767 0.72489274
0.0052739708 -0.030589014 0.72532916
0.0052922904 -0.031753719 0.72583532
0.0053134137 -0.03294313 0.72641885
0.0053383643 -0.034165531 0.72710818
0.0053674225 -0.035424978 0.727911
0.005402544 -0.036737293 0.72888124
0.005446374 -0.038124621 0.73009217
0.0055012 -0.039608598 0.73160672
0.0055739302 -0.04124704 0.73361605
0.0056997067 -0.043317735 0.73709083
0.0079460163 0.033108443 0.7625618
0.0076894104 0.030757636 0.75665414
0.007532787 0.028875679 0.75304836
0.0074105002 0.02717188 0.75023305
0.0073089362 0.0255813 0.74789488
0.0072207977 0.024069339 0.7458657
0.0071427277 0.022618622 0.74406838
0.0070725735 0.021217734 0.74245322
0.0070087081 0.019858003 0.74098301
0.0069503146 0.018534213 0.73963863
0.006896216 0.017240554 0.73839319
0.0068462878 0.0159747 0.73724371
0.0067996667 0.014732659 0.73617041
0.0067559527 0.013511956 0.73516399
0.0067152982 0.012311399 0.73422807
0.0066768527 0.011128128 0.73334289
0.0066408473 0.009961307 0.73251396
0.006606719 0.0088090003 0.73172832
0.0065747327 0.0076705217 0.7309919
0.0065443735 0.0065443814 0.73029298
0.0065158405 0.0054299235 0.72963607
0.0064888522 0.0043258965 0.72901475
0.0064634206 0.003231734 0.72842932
0.0064393962 0.0021464825 0.72787613
0.0064167264 0.0010694563 0.72735429
0.0063953842 2.9802322e-08 0.72686291
0.0063752993 -0.0010625422 0.72640049
0.006356427 -0.0021187961 0.7259661
0.0063386564 -0.0031692982 0.72555697
0.0063220826 -0.0042147338 0.72517538
0.0063065537 -0.0052554607 0.72481787
0.0062921434 -0.0062921345 0.72448611
0.0062787924 -0.0073252618 0.72417879
0.0062664882 -0.0083552897 0.72389555
0.0062552635 -0.0093829036 0.72363704
0.0062450832 -0.010408461 0.72340262
0.0062359823 -0.011432618 0.72319317
0.0062279725 -0.01245591 0.72300875
0.0062210024 -0.013478845 0.7228483
0.0062151304 -0.014501989 0.72271311
0.0062102852 -0.015525728 0.72260159
0.0062065264 -0.01655072 0.72251505
0.006203894 -0.017577708 0.72245443
0.0062024491 -0.018607348 0.72242117
0.0062021045 -0.019639999 0.72241324
0.0062029883 -0.020676583 0.72243357
0.0062051457 -0.021717995 0.72248328
0.0062086862 -0.022765189 0.7225647
0.0062135942 -0.023818761 0.72267771
0.006220005 -0.024880022 0.72282535
0.0062280814 -0.025950313 0.72301126
0.0062379222 -0.027030975 0.72323781
0.0062496327 -0.028123319 0.7235074
0.006263453 -0.029229432 0.72382557
0.0062796762 -0.030351758 0.72419906
0.0062988284 -0.031494141 0.72464001
0.0063231806 -0.032669723 0.72520065
0.0063525802 -0.033880413 0.72587752
0.0063888123 -0.035138458 0.72671163
0.0064324327 -0.036450446 0.72771585
0.006483736 -0.0378218 0.72889698
0.006544854 -0.03926909 0.73030406
0.0066196602 -0.040821195 0.73202622
0.006715829 -0.042533576 0.73424023
0.006865887 -0.044628233 0.73769486
0.0090808216 0.031134248 0.75882173
0.0088497065 0.029077649 0.75426114
0.0086869998 0.027302027 0.75105035
0.008556216 0.025668681 0.74846953
0.0084452815 0.024129391 0.74628049
0.0083478857 0.022658587 0.74435854
0.0082612243 0.021243185 0.74264836
0.0081829326 0.019872874 0.74110347
0.0081113856 0.018540353 0.73969162
0.0080458345 0.017241061 0.73839802
0.0079850685 0.015970141 0.73719895
0.0079285037 0.014724374 0.73608273
0.0078761298 0.013501972 0.73504925
0.0078267679 0.01229924 0.73407519
0.0077806078 0.011115164 0.73316425
0.0077370014 0.0099475682 0.73230374
0.0076960991 0.0087955594 0.73149663
0.0076575987 0.0076576173 0.73073691
0.0076210154 0.0065323412 0.73001498
0.0075867982 0.0054191649 0.72933978
0.0075542568 0.0043167174 0.72869766
0.0075235981 0.0032244325 0.72809267
0.0074946703 0.0021413565 0.72752178
0.00746733 0.0010667741 0.7269823
0.0074415444 2.9802322e-08 0.72647345
0.0074172583 -0.0010595918 0.72599423
0.0073944428 -0.0021126866 0.72554398
0.007372994 -0.003159821 0.72512072
0.0073528639 -0.0042016208 0.72472346
0.0073340321 -0.0052385926 0.72435188
0.0073164273 -0.0062712133 0.72400451
0.0073000849 -0.0073000193 0.72368199
0.0072849616 -0.0083256364 0.72338355
0.0072710691 -0.0093485117 0.72310936
0.0072583426 -0.010369033 0.72285831
0.007246796 -0.011387795 0.72263038
0.0072364928 -0.012405396 0.72242713
0.0072274487 -0.0134224 0.72224867
0.0072196783 -0.014439344 0.72209525
0.0072130994 -0.015456617 0.72196549
0.0072077797 -0.016474903 0.72186053
0.0072036898 -0.017494649 0.72177976
0.0072008739 -0.018516511 0.72172421
0.0071994294 -0.019541293 0.72169578
0.00719928 -0.020569324 0.7216928
0.0072005251 -0.021601588 0.72171742
0.007203266 -0.022638828 0.72177142
0.0072075552 -0.023681939 0.72185612
0.0072134743 -0.024731904 0.72197294
0.0072211311 -0.025789768 0.72212398
0.0072307116 -0.026856899 0.72231299
0.007242308 -0.027934611 0.72254187
0.0072571281 -0.029028505 0.72283435
0.007278543 -0.03015396 0.72325689
0.0073055411 -0.031309456 0.72378969
0.0073384531 -0.032498837 0.72443914
0.0073774881 -0.033725649 0.72520947
0.0074211187 -0.034985244 0.7260704
0.00747076 -0.036286533 0.72704995
0.0075279782 -0.037639886 0.7281791
0.007595296 -0.039061517 0.72950745
0.0076758098 -0.040572107 0.73109627
0.0077779335 -0.042223096 0.7331115
0.0079190033 -0.044120133 0.73589528
0.0082115298 -0.046923012 0.74166781
0.010651131 0.031953454 0.76353633
0.01021079 0.029356062 0.75593317
0.0099876393 0.027466059 0.75208008
0.0098192934 0.025775671 0.7491734
0.0096809305 0.024202377 0.74678433
0.009561182 0.02270782 0.74471664
0.0094559593 0.021275908 0.74289984
0.0093617123 0.019893646 0.74127245
0.0092759021 0.018551826 0.7397908
0.0091976924 0.01724568 0.73844039
0.0091251265 0.015969008 0.73718745
0.0090581449 0.014719486 0.73603094
0.0089957779 0.013493687 0.73495406
0.0089375526 0.012289137 0.73394871
0.0088828271 0.01110357 0.73300374
0.0088313567 0.0099352896 0.73211503
0.0087833656 0.0087833703 0.73128641
0.0087377848 0.0076455772 0.73049939
0.0086949943 0.0065212548 0.72976053
0.0086544156 0.0054090321 0.72905988
0.00861621 0.0043081641 0.72840017
0.0085800719 0.0032175481 0.72777623
0.008545924 0.0021364987 0.72718662
0.0085136918 0.0010642409 0.72663003
0.0084832739 2.9802322e-08 0.72610486
0.0084545454 -0.0010568202 0.72560883
0.0084274728 -0.0021068454 0.72514135
0.0084019685 -0.0031507015 0.72470099
0.0083780028 -0.0041889846 0.72428715
0.0083555235 -0.0052222013 0.72389901
0.0083345948 -0.0062509179 0.72353768
0.0083150789 -0.0072756708 0.72320068
0.0082969265 -0.0082968771 0.72288728
0.0082801497 -0.0093151629 0.7225976
0.0082647614 -0.010330915 0.72233188
0.0082506891 -0.011344671 0.72208887
0.0082379188 -0.012356877 0.7218684
0.0082265539 -0.01336816 0.72167218
0.0082165534 -0.014378965 0.72149944
0.0082079079 -0.0153898 0.72135019
0.0082007218 -0.01640144 0.7212261
0.0081949588 -0.017414272 0.72112668
0.008190643 -0.018428922 0.72105211
0.0081877112 -0.019445807 0.72100151
0.008186331 -0.020465791 0.72097766
0.0081864158 -0.021489322 0.72097909
0.0081881341 -0.022517323 0.72100878
0.0081914887 -0.02355051 0.72106671
0.0081966249 -0.024589866 0.72115541
0.0082035484 -0.025636047 0.72127491
0.0082150772 -0.026698977 0.72147405
0.008232275 -0.0277839 0.72177094
0.0082567595 -0.028898627 0.72219372
0.0082866102 -0.030038953 0.72270912
0.0083205756 -0.031202108 0.72329557
0.0083584003 -0.032388777 0.72394872
0.008400959 -0.033603817 0.72468352
0.0084485412 -0.03485021 0.72550511
0.0085024647 -0.036135465 0.7264362
0.0085641658 -0.037468225 0.72750157
0.008635724 -0.038860738 0.72873718
0.0087219924 -0.040339202 0.7302267
0.008828178 -0.041933835 0.73206019
0.0089705428 -0.043731391 0.73451835
0.0092032785 -0.046016365 0.73853683
0.011656631 0.02978918 0.75853455
0.011323655 0.027680069 0.75342405
0.011104544 0.025910616 0.75006104
0.010931033 0.024291188 0.74739802
0.010785196 0.022768766 0.74515969
0.010658585 0.021317184 0.7432164
0.010545993 0.01992026 0.7414884
0.01044443 0.01856786 0.73992962
0.010352006 0.017253339 0.73851109
0.010267108 0.015971124 0.73720801
0.010188552 0.014716834 0.73600233
0.010115852 0.013487816 0.73488653
0.010047839 0.012280732 0.73384267
0.0099841217 0.011093497 0.73286474
0.0099247405 0.0099247396 0.73195332
0.0098686432 0.0087721646 0.73109239
0.0098160207 0.0076346993 0.73028469
0.0097660935 0.0065107346 0.72951847
0.0097192116 0.0053995848 0.72879887
0.0096747354 0.0042998791 0.72811627
0.0096328836 0.0032109618 0.72747391
0.0095932828 0.0021318495 0.72686613
0.0095558818 0.0010617971 0.72629207
0.0095205661 -0 0.72575003
0.0094871912 -0.0010541081 0.72523779
0.00945572 -0.0021012723 0.72475481
0.0094260164 -0.0031419992 0.72429889
0.0093981149 -0.0041769147 0.72387069
0.0093718236 -0.0052065551 0.72346711
0.009347178 -0.006231457 0.72308886
0.0093241576 -0.0072520971 0.72273552
0.0093026394 -0.0082689822 0.72240531
0.0092828302 -0.0092827976 0.72210121
0.0092645148 -0.010293901 0.72182012
0.0092477426 -0.011302799 0.72156268
0.0092323991 -0.012309849 0.72132719
0.0092185671 -0.013315678 0.72111493
0.0092062326 -0.014320821 0.72092563
0.009195447 -0.015325725 0.72076005
0.0091861058 -0.016330808 0.7206167
0.0091783572 -0.017336845 0.72049773
0.0091721294 -0.018344253 0.72040224
0.009167511 -0.019353628 0.72033131
0.0091645606 -0.020365655 0.72028601
0.0091633052 -0.02138105 0.72026676
0.0091637131 -0.0224002 0.72027302
0.0091658784 -0.02342388 0.72030622
0.0091723176 -0.024459451 0.7204051
0.0091865472 -0.025518179 0.72062349
0.0092062959 -0.02659595 0.72092658
0.0092330361 -0.027699053 0.72133696
0.0092626875 -0.028817236 0.7217921
0.0092954673 -0.029952049 0.72229522
0.0093320897 -0.031106919 0.7228573
0.0093728406 -0.03228423 0.72348273
0.0094180563 -0.033486396 0.7241767
0.0094687995 -0.034718901 0.7249555
0.0095271068 -0.035991251 0.7258504
0.0095940735 -0.037310272 0.72687829
0.0096714851 -0.038685948 0.72806638
0.0097622825 -0.040133804 0.72945988
0.009873922 -0.041689873 0.7311734
0.010017341 -0.043408453 0.7333746
0.010230649 -0.045469522 0.73664844
0.012719272 0.027982414 0.75532246
0.012418861 0.026079625 0.75117278
0.012200651 0.024401337 0.74815857
0.012022743 0.022843212 0.74570107
0.011871235 0.021368235 0.74360824
0.01173761 0.019953966 0.74176246
0.011618205 0.018589109 0.74011314
0.011510464 0.017265737 0.73862487
0.011411574 0.01597622 0.73725879
0.011320915 0.014717162 0.7360065
0.011236735 0.013484091 0.73484373
0.011158275 0.012274116 0.73375988
0.01108553 0.01108551 0.73275506
0.011016991 0.0099153221 0.73180836
0.010952762 0.0087622702 0.73092109
0.01089207 0.0076244771 0.73008275
0.010835084 0.0065010488 0.72929561
0.010781194 0.0053905845 0.72855121
0.010730391 0.0042921901 0.72784948
0.010682404 0.0032047331 0.72718662
0.010636938 0.002127409 0.72655851
0.01059412 0.0010594428 0.72596711
0.01055363 2.9802322e-08 0.72540784
0.01051542 -0.0010515153 0.72487998
0.010479257 -0.0020958483 0.72438049
0.010445211 -0.0031335652 0.72391021
0.010413137 -0.004165262 0.72346711
0.010382926 -0.0051914454 0.72304976
0.010354476 -0.0062126815 0.72265679
0.010327831 -0.0072294772 0.72228873
0.010302928 -0.0082423091 0.72194475
0.010279709 -0.0092517138 0.72162402
0.01025815 -0.010258138 0.72132623
0.010238233 -0.011262029 0.72105116
0.010220149 -0.012264132 0.72080135
0.010203702 -0.013264775 0.72057414
0.010188846 -0.014264375 0.72036892
0.010175703 -0.015263528 0.72018737
0.010164157 -0.01626265 0.72002792
0.0101543 -0.01726234 0.71989179
0.010146091 -0.018262923 0.71977836
0.010139552 -0.019265145 0.71968806
0.01013468 -0.020269334 0.71962076
0.010131711 -0.021276534 0.7195797
0.01013285 -0.022292286 0.71959549
0.010140589 -0.023323357 0.71970236
0.010157005 -0.02437681 0.71992916
0.010179673 -0.025449157 0.72024226
0.010205278 -0.026533723 0.72059596
0.010233301 -0.027629912 0.72098303
0.010264771 -0.02874136 0.72141767
0.010299752 -0.029869258 0.72190088
0.010338278 -0.03101483 0.72243309
0.010381549 -0.032182783 0.72303081
0.010430411 -0.03337726 0.72370577
0.010485685 -0.034602761 0.7244693
0.010547754 -0.035862356 0.72532666
0.010618177 -0.037163585 0.72629941
0.010699661 -0.038518786 0.72742498
0.010795832 -0.039944559 0.72875339
0.010910691 -0.041460603 0.73033994
0.011057872 -0.043125689 0.73237306
0.01126329 -0.045053124 0.73521054
0.011739973 -0.04813385 0.74179506
0.014258294 0.028516591 0.75867641
0.013779628 0.026306599 0.75266558
0.013495904 0.02453801 0.74910271
0.013277728 0.022934288 0.74636292
0.013096154 0.021430075 0.74408293
0.012938436 0.019995779 0.74210232
0.012798976 0.018616706 0.74035108
0.012674216 0.017283022 0.73878431
0.012560153 0.015985638 0.73735201
0.012456136 0.014720917 0.73604584
0.012359427 0.013483047 0.73483139
0.012270098 0.012270123 0.73370957
0.01218686 0.011078984 0.73266435
0.012108956 0.0099073648 0.73168612
0.012035627 0.0087531805 0.73076522
0.011966945 0.0076153576 0.7299028
0.011902418 0.0064922571 0.72909248
0.011841283 0.0053824186 0.72832483
0.011783787 0.0042850375 0.72760278
0.011729285 0.0031988919 0.72691834
0.011677869 0.0021232665 0.7262727
0.011629256 0.0010572076 0.72566223
0.011583262 -0 0.72508466
0.011539828 -0.0010490417 0.72453928
0.011498739 -0.0020906329 0.72402328
0.011459948 -0.0031253994 0.72353613
0.011423293 -0.0041539073 0.72307587
0.011388852 -0.005176723 0.72264338
0.011356591 -0.0061944723 0.72223818
0.011326119 -0.0072075129 0.72185558
0.011297644 -0.0082164407 0.72149801
0.01127098 -0.0092217028 0.72116315
0.011246183 -0.010223776 0.72085178
0.011223149 -0.011223137 0.72056258
0.011201897 -0.012220263 0.72029567
0.011182406 -0.013215601 0.72005093
0.011164737 -0.014209628 0.71982902
0.011148946 -0.015203089 0.71963072
0.011135058 -0.01619643 0.71945632
0.011122867 -0.01718986 0.71930325
0.011112514 -0.018184096 0.71917319
0.011103951 -0.019179553 0.71906573
0.011097999 -0.020178169 0.71899098
0.011099995 -0.021190882 0.71901608
0.01111074 -0.022221476 0.71915096
0.011128541 -0.023268729 0.71937448
0.01114982 -0.024326861 0.71964175
0.011173698 -0.025394738 0.71994156
0.011199903 -0.026472479 0.72027063
0.011229776 -0.027563959 0.72064579
0.011262716 -0.028668731 0.72105944
0.011299985 -0.029790878 0.72152746
0.011341511 -0.030931383 0.72204888
0.011388376 -0.032094508 0.72263741
0.01144019 -0.033280551 0.72328806
0.011498011 -0.034494013 0.7240141
0.011563078 -0.035740405 0.72483122
0.011636951 -0.037026644 0.72575885
0.011721972 -0.038362771 0.72682649
0.011821558 -0.039763421 0.72807711
0.011942481 -0.041255802 0.72959554
0.012090785 -0.042867333 0.73145795
0.012292783 -0.04470104 0.73399454
0.012647315 -0.047140002 0.73844659
0.015224124 0.026642203 0.75487345
0.014829006 0.024715006 0.75032526
0.014555392 0.023046046 0.74717557
0.014336472 0.02150476 0.74465561
0.014150868 0.020047039 0.74251914
0.01398868 0.018651575 0.7406522
0.013844171 0.017305225 0.73898876
0.013713358 0.01599893 0.73748296
0.013594361 0.014727265 0.73611307
0.013484643 0.013484657 0.73485017
0.013383202 0.012267947 0.73368245
0.013289063 0.011074245 0.73259884
0.013200877 0.0099006891 0.73158365
0.01311824 0.0087454915 0.73063248
0.013041205 0.0076073706 0.72974575
0.012968273 0.0064841509 0.72890621
0.012899835 0.0053749382 0.72811842
0.01283493 0.004278332 0.72737134
0.012773783 0.0031934679 0.72666746
0.012715934 0.0021193326 0.72600156
0.012661302 0.0010551214 0.72537267
0.012609631 -0 0.72477782
0.012560767 -0.001046747 0.72421533
0.012514562 -0.0020857453 0.72368348
0.012470875 -0.0031177104 0.72318059
0.012429612 -0.0041431785 0.72270566
0.012390686 -0.0051627755 0.72225755
0.01235397 -0.0061770082 0.7218349
0.012319341 -0.0071862638 0.72143626
0.012286979 -0.0081912875 0.72106373
0.012256723 -0.0091925263 0.72071552
0.012228416 -0.010190278 0.72038966
0.01220216 -0.011185318 0.72008741
0.01217776 -0.012177736 0.71980655
0.012155361 -0.013168275 0.7195487
0.012134737 -0.014157176 0.71931136
0.012115993 -0.015144974 0.71909553
0.012099192 -0.016132265 0.71890211
0.012084483 -0.017119676 0.71873283
0.012071812 -0.018107682 0.71858698
0.012066098 -0.01910463 0.71852118
0.012068831 -0.02011469 0.71855271
0.012081497 -0.021142572 0.7186985
0.012098372 -0.022180319 0.71889269
0.012117762 -0.023225695 0.71911591
0.012139773 -0.024279505 0.71936929
0.01216373 -0.025341094 0.71964502
0.012191571 -0.02641505 0.71996558
0.012223599 -0.027503073 0.72033423
0.012258617 -0.028603405 0.72073728
0.012298115 -0.029720426 0.721192
0.012342093 -0.030855209 0.72169822
0.012390514 -0.032008827 0.72225559
0.012444087 -0.03318423 0.72287226
0.012504477 -0.03438729 0.72356743
0.012573779 -0.035625666 0.72436512
0.012652369 -0.036902726 0.72526985
0.01274245 -0.03822732 0.72630674
0.012846758 -0.039610833 0.72750747
0.012969309 -0.041069418 0.72891814
0.013123016 -0.042649776 0.73068744
0.013324241 -0.044414103 0.73300374
0.013640397 -0.046604663 0.73664308
0.017053327 0.027547717 0.76082933
0.016222423 0.024957567 0.75200051
0.015865533 0.023188084 0.74820834
0.015597974 0.021597236 0.74536538
0.015377546 0.020109117 0.74302316
0.015189054 0.018694252 0.74102032
0.015022328 0.017333478 0.73924875
0.014872483 0.016016543 0.73765659
0.014737329 0.014737368 0.73622054
0.014613056 0.013489008 0.73490006
0.014498794 0.012268245 0.73368591
0.014392626 0.011071265 0.73255789
0.014293601 0.0098955631 0.73150563
0.01420156 0.0087394118 0.73052764
0.014114871 0.0076003373 0.72960645
0.014033562 0.0064770579 0.72874254
0.01395671 0.0053679943 0.72792596
0.013884434 0.0042721629 0.72715801
0.013815963 0.0031883121 0.72643042
0.01375144 0.0021156371 0.72574484
0.013690377 0.0010531247 0.72509605
0.013632737 2.9802322e-08 0.72448361
0.013578203 -0.0010444522 0.72390413
0.013526611 -0.0020810068 0.72335589
0.013477853 -0.00311023 0.72283781
0.013431731 -0.0041328371 0.72234774
0.013388194 -0.0051492751 0.72188514
0.013347105 -0.0061601698 0.72144854
0.013308374 -0.007166028 0.72103703
0.013271825 -0.0081672668 0.72064865
0.013237563 -0.0091644526 0.72028458
0.013205415 -0.010157973 0.71994299
0.013175533 -0.011148512 0.71962547
0.013147888 -0.012136489 0.71933174
0.013122273 -0.013122231 0.71905959
0.013098665 -0.014106244 0.71880877
0.013077089 -0.015088916 0.71857941
0.013057479 -0.016070724 0.71837103
0.013041358 -0.017054051 0.71819979
0.013036476 -0.018050492 0.71814799
0.013040346 -0.019058943 0.71818906
0.013052938 -0.020081431 0.71832287
0.013067895 -0.021109641 0.71848178
0.013084612 -0.022143185 0.7186594
0.01310457 -0.023184985 0.71887147
0.013126104 -0.024232775 0.7191003
0.013152674 -0.025293618 0.71938264
0.013182451 -0.026364863 0.71969897
0.013214985 -0.027446508 0.72004467
0.013252038 -0.028542817 0.72043842
0.013292909 -0.02965337 0.7208727
0.013337757 -0.030779421 0.72134918
0.013388566 -0.031926572 0.72188914
0.013446026 -0.033097893 0.72249961
0.013510398 -0.034295619 0.72318363
0.0135824 -0.035523176 0.72394872
0.01366362 -0.036786646 0.72481173
0.013755941 -0.038093358 0.72579265
0.013864169 -0.039459556 0.72694266
0.013991561 -0.040898353 0.72829628
0.014146117 -0.042438328 0.72993851
0.014346428 -0.044142842 0.73206699
0.01464505 -0.046188205 0.73523998
0.017743994 0.025348574 0.75470096
0.017222717 0.023373693 0.74955773
0.016887344 0.021712333 0.74624866
0.016623512 0.020185739 0.74364555
0.016402811 0.018746108 0.74146801
0.016210519 0.017368466 0.73957074
0.016039595 0.01603964 0.73788428
0.015886292 0.014751554 0.7363717
0.015745945 0.013496548 0.7349869
0.015617777 0.012271106 0.73372239
0.015498483 0.011070371 0.73254538
0.015388102 0.0098923743 0.73145622
0.015285118 0.0087343752 0.73044014
0.015188763 0.0075943768 0.72948945
0.015097995 0.0064705908 0.72859389
0.015012744 0.005361706 0.72775275
0.014932464 0.0042664409 0.7269606
0.014856536 0.0031835735 0.72621143
0.014785052 0.0021121502 0.72550613
0.014717216 0.0010512173 0.72483683
0.0146533 -0 0.72420621
0.014592647 -0.0010423064 0.72360778
0.014535335 -0.002076447 0.72304225
0.01448109 -0.0031030774 0.72250712
0.014429899 -0.0041227937 0.72200203
0.014381452 -0.0051361918 0.721524
0.014335796 -0.0061439276 0.72107357
0.014292687 -0.0071463287 0.72064817
0.01425208 -0.008144021 0.72024751
0.014213789 -0.009137392 0.71986973
0.014177875 -0.010127038 0.71951538
0.014144208 -0.011113286 0.71918321
0.014112758 -0.012096614 0.7188729
0.014083543 -0.013077557 0.71858466
0.014056678 -0.014056653 0.71831954
0.014032091 -0.015034378 0.71807694
0.014015606 -0.016017824 0.71791428
0.014010229 -0.017012417 0.71786129
0.0140157 -0.018020153 0.71791524
0.014025474 -0.019034535 0.71801174
0.014037862 -0.020054072 0.71813393
0.014051839 -0.021077752 0.71827185
0.014069218 -0.022108763 0.71844327
0.014088832 -0.023145914 0.71863681
0.014113284 -0.024194181 0.71887803
0.014140557 -0.025250971 0.71914721
0.014169961 -0.026315629 0.7194373
0.014204333 -0.027394056 0.71977639
0.014242036 -0.028484076 0.72014844
0.014284743 -0.029589802 0.72056985
0.014332736 -0.030713022 0.72104335
0.014386719 -0.031856269 0.72157598
0.01444627 -0.03302002 0.7221635
0.014512486 -0.034208 0.72281688
0.014586666 -0.035424769 0.72354877
0.014670442 -0.036676079 0.72437537
0.014767746 -0.037974179 0.72533536
0.014879154 -0.039323479 0.72643465
0.015010795 -0.04074353 0.72773349
0.015169505 -0.042257905 0.72929937
0.015372308 -0.043920845 0.73130035
0.015658833 -0.045858026 0.7341274
0.018661177 0.023637533 0.75147557
0.018214595 0.02185753 0.74736303
0.017893348 0.020279109 0.74440479
0.01763314 0.018808722 0.74200851
0.017411256 0.017411262 0.7399652
0.017216055 0.016068339 0.7381677
0.01704216 0.014769882 0.73656631
0.016883872 0.013507098 0.73510867
0.016740302 0.012276232 0.73378652
0.016607372 0.011071593 0.73256242
0.016484451 0.0098906755 0.73143041
0.016370241 0.0087308288 0.73037869
0.016263055 0.0075894594 0.72939163
0.016162591 0.0064650476 0.72846651
0.016068511 0.0053561926 0.7276001
0.015979754 0.0042613149 0.7267828
0.015896278 0.0031792819 0.72601402
0.015817145 0.0021089911 0.72528529
0.015742404 0.0010495186 0.72459704
0.015671726 -2.9802322e-08 0.72394621
0.015604897 -0.0010403395 0.72333074
0.015541615 -0.0020721853 0.72274804
0.015481692 -0.0030963421 0.72219616
0.015425054 -0.0041133165 0.72167456
0.015371425 -0.0051237643 0.72118074
0.015320745 -0.0061283112 0.72071403
0.015272751 -0.0071272552 0.720272
0.015227708 -0.0081214011 0.71985728
0.015185358 -0.0091112256 0.71946728
0.015145401 -0.010096908 0.71909934
0.015107959 -0.011079162 0.71875453
0.015072889 -0.012058318 0.71843159
0.015040111 -0.013034731 0.71812969
0.015010808 -0.014010072 0.71785986
0.014993957 -0.014993936 0.71770465
0.014988163 -0.015987337 0.71765137
0.014992999 -0.016992033 0.71769589
0.014999806 -0.017999768 0.7177586
0.015009243 -0.019011706 0.71784544
0.015020158 -0.020026863 0.71794599
0.015034839 -0.021048784 0.71808118
0.015052951 -0.02207765 0.71824801
0.015074263 -0.023113877 0.71844423
0.015098652 -0.024157822 0.71866882
0.015125118 -0.025208503 0.7189126
0.015156259 -0.026270837 0.71919936
0.015191821 -0.02734527 0.71952683
0.015231555 -0.02843219 0.71989268
0.015276518 -0.029534608 0.72030675
0.015326326 -0.030652642 0.72076541
0.015381125 -0.031787634 0.72127008
0.015441874 -0.032942653 0.72182953
0.015510653 -0.034123391 0.72246289
0.015588758 -0.035334468 0.72318208
0.015676793 -0.036579192 0.72399282
0.015777368 -0.037865698 0.72491908
0.015892087 -0.039200455 0.72597539
0.016026312 -0.040600002 0.72721159
0.016187811 -0.0420883 0.72869873
0.016391475 -0.043710589 0.73057425
0.016674725 -0.045577556 0.73318267
0.017211737 -0.048192859 0.73812795
0.020321805 0.024132162 0.75507182
0.019603556 0.022054017 0.74887097
0.019196346 0.020396113 0.74535537
0.018884821 0.018884838 0.74266589
0.018626969 0.01746279 0.74043977
0.018403921 0.016103417 0.73851413
0.018206751 0.014793009 0.73681188
0.018028844 0.013521671 0.73527592
0.017868124 0.012284368 0.73388839
0.017720137 0.011075109 0.73261082
0.017583737 0.0098908544 0.73143321
0.017456979 0.0087284744 0.73033887
0.017338471 0.0075856149 0.72931582
0.017228177 0.0064606071 0.72836351
0.017124387 0.0053513944 0.72746754
0.017026896 0.0042567253 0.72662586
0.016934667 0.0031752586 0.7258296
0.016847964 0.0021060407 0.72508109
0.016765688 0.0010478795 0.72437072
0.016688013 -0 0.72370017
0.016614538 -0.0010384023 0.72306585
0.016545042 -0.0020681024 0.72246587
0.016479319 -0.0030898452 0.72189844
0.016417062 -0.0041042566 0.72136104
0.016358141 -0.0051119328 0.72085232
0.016302377 -0.0061133504 0.72037089
0.016249655 -0.0071092248 0.71991569
0.016199809 -0.008099854 0.71948534
0.016152792 -0.0090858936 0.71907938
0.016108392 -0.010067731 0.71869612
0.016066782 -0.011045903 0.71833688
0.01602798 -0.012020946 0.7180019
0.01599592 -0.012996644 0.7177251
0.015977228 -0.013980061 0.71756375
0.01597267 -0.014974385 0.71752441
0.015974009 -0.015974015 0.71753597
0.015977176 -0.016975731 0.71756327
0.015983399 -0.017981321 0.71761703
0.015991082 -0.018989414 0.71768337
0.01600345 -0.020004332 0.71779019
0.016018752 -0.021024585 0.71792221
0.016036674 -0.022050381 0.71807694
0.016057944 -0.02308327 0.71826059
0.016081063 -0.024121612 0.7184602
0.016109644 -0.02517128 0.71870697
0.016142653 -0.026231796 0.71899194
0.016178714 -0.02730155 0.71930325
0.016220298 -0.02838549 0.71966225
0.016265931 -0.029482007 0.72005624
0.016316071 -0.03059262 0.72048908
0.016372886 -0.031722486 0.72097957
0.016437363 -0.032874703 0.72153628
0.016509507 -0.034050822 0.72215909
0.016590035 -0.035253793 0.72285426
0.016680118 -0.036487728 0.72363198
0.016782718 -0.037761092 0.72451782
0.016900023 -0.039081305 0.72553051
0.017035857 -0.04046014 0.72670323
0.017199282 -0.041923195 0.72811413
0.017395837 -0.043489605 0.72981101
0.017675443 -0.045293331 0.73222494
0.018159779 -0.047669411 0.73640639
0.021106336 0.022347897 0.75112617
0.020546813 0.020546854 0.74657983
0.020166529 0.018980265 0.74348986
0.01986222 0.017525524 0.74101722
0.019606112 0.016146243 0.73893619
0.019382197 0.014821738 0.73711681
0.019182248 0.013540447 0.73549211
0.019002507 0.012295753 0.73403168
0.018837538 0.011080921 0.73269117
0.018686933 0.0098931193 0.73146749
0.018546337 0.0087276995 0.73032504
0.018416222 0.0075831711 0.72926784
0.018294737 0.006457001 0.72828066
0.018180855 0.0053473115 0.72735536
0.018073551 0.0042526126 0.72648346
0.017972678 0.0031716824 0.72566378
0.01787735 0.0021032095 0.72488928
0.017787471 0.0010463297 0.72415894
0.017702457 2.9802322e-08 0.72346812
0.017621998 -0.0010365844 0.72281438
0.017545979 -0.0020642281 0.7221967
0.017474055 -0.0030836463 0.72161227
0.017405953 -0.0040954947 0.72105896
0.017341476 -0.0051004291 0.72053498
0.017280424 -0.0060989261 0.72003895
0.017222736 -0.007091701 0.71957016
0.01716811 -0.0080790818 0.71912634
0.017116554 -0.0090616941 0.71870738
0.0170679 -0.010039955 0.71831208
0.01702193 -0.011014193 0.71793854
0.016987441 -0.011991113 0.71765828
0.016967317 -0.012975007 0.71749479
0.01696134 -0.01396811 0.71744621
0.016959064 -0.014963865 0.71742773
0.016958553 -0.015960932 0.7174235
0.016961168 -0.016961187 0.71744478
0.016965553 -0.017963499 0.71748042
0.016975064 -0.018972099 0.71755773
0.016987212 -0.019984961 0.71765643
0.017001381 -0.021001697 0.71777153
0.017019408 -0.022025079 0.71791804
0.017038967 -0.023052692 0.718077
0.017065655 -0.024092644 0.71829379
0.017095026 -0.025139749 0.71853244
0.017127225 -0.026194572 0.71879411
0.017165022 -0.027262092 0.71910119
0.017206442 -0.028339982 0.71943778
0.017253121 -0.02943179 0.71981704
0.017306391 -0.030540705 0.72024995
0.017366076 -0.031667531 0.72073489
0.017432243 -0.032813609 0.72127247
0.017505275 -0.033980817 0.72186595
0.017587667 -0.035175294 0.72253537
0.017678626 -0.036397189 0.72327453
0.017779527 -0.037650764 0.72409439
0.017885508 -0.038927287 0.72495556
0.018002372 -0.040240586 0.72590512
0.018135075 -0.041603982 0.72698331
0.018304074 -0.043068379 0.72835654
0.018537905 -0.044709027 0.73025656
0.018953139 -0.046825379 0.73363048
0.02197668 0.020755798 0.74827754
0.021486066 0.019098729 0.74451262
0.02112353 0.01760295 0.74173045
0.020825878 0.01619792 0.73944628
0.020570908 0.014856786 0.73748958
0.020345351 0.013563573 0.73575872
0.020144226 0.012310386 0.73421526
0.019960949 0.011089444 0.73280871
0.019794067 0.0098970234 0.7315281
0.019639315 0.0087286234 0.73034048
0.019496333 0.0075819194 0.72924328
0.019363118 0.0064544082 0.72822094
0.01923814 0.0053439438 0.72726184
0.019120775 0.0042490661 0.72636122
0.019010635 0.0031684637 0.72551602
0.018906832 0.0021007657 0.72471941
0.018808911 0.0010449588 0.72396797
0.018716253 -0 0.72325695
0.018628586 -0.0010349154 0.72258419
0.018545657 -0.0020605922 0.72194773
0.018467154 -0.0030778646 0.72134531
0.018392729 -0.0040872395 0.72077417
0.018322283 -0.0050894916 0.72023356
0.018255487 -0.0060851574 0.71972096
0.018192332 -0.0070747733 0.71923625
0.018132683 -0.0080589354 0.71877861
0.018076289 -0.0090381205 0.71834582
0.018024007 -0.010013312 0.71794462
0.017986158 -0.010991544 0.71765411
0.017965393 -0.011976898 0.71749479
0.017956354 -0.012968451 0.71742541
0.017949551 -0.013960719 0.71737313
0.0179454 -0.014954478 0.71734136
0.017943535 -0.015949786 0.717327
0.01794534 -0.016948372 0.71734095
0.017950756 -0.017950743 0.71738243
0.017959427 -0.018957168 0.71744901
0.017969554 -0.019966155 0.71752673
0.017984044 -0.020981371 0.7176379
0.01800134 -0.022001624 0.71777058
0.018024189 -0.023030877 0.71794593
0.018049959 -0.024066597 0.71814376
0.01807818 -0.025108546 0.7183603
0.018111944 -0.0261617 0.71861947
0.01814965 -0.027224451 0.71890879
0.018192951 -0.028300107 0.71924108
0.018242177 -0.029390156 0.71961886
0.018296357 -0.030493885 0.7200346
0.018356398 -0.031613767 0.72049534
0.018423619 -0.03275308 0.72101128
0.018497018 -0.033911198 0.72157449
0.018570812 -0.035078168 0.72214079
0.018647015 -0.036258072 0.72272557
0.018722015 -0.037443995 0.72330111
0.018804288 -0.038653255 0.7239325
0.018901624 -0.039903432 0.72467947
0.019020632 -0.041211337 0.72559273
0.019168222 -0.042596012 0.72672534
0.019354999 -0.044086397 0.72815865
0.019625347 -0.04579246 0.73023337
0.020219019 -0.048300982 0.73478925
0.023584608 0.021102041 0.75109112
0.022865489 0.019255161 0.74586302
0.022417186 0.017697811 0.74260378
0.022068039 0.016260654 0.74006546
0.021775488 0.014899015 0.73793858
0.021520389 0.013591856 0.73608392
0.021295404 0.012328923 0.73444825
0.021091832 0.011100978 0.73296821
0.020907035 0.0099033415 0.73162478
0.020736855 0.0087313354 0.73038757
0.020579837 0.0075820684 0.72924602
0.020433526 0.0064527094 0.72818232
0.02029686 0.0053412914 0.72718871
0.02016928 0.0042461753 0.7262612
0.020049337 0.0031656921 0.72538918
0.019936439 0.0020985901 0.72456837
0.019829674 0.0010436773 0.7237922
0.019729074 2.9802322e-08 0.72306079
0.019633718 -0.0010333359 0.72236758
0.01954354 -0.0020572245 0.72171193
0.019458203 -0.0030723512 0.72109151
0.019377463 -0.0040794313 0.72050452
0.01930088 -0.00507918 0.71994781
0.019228371 -0.006072104 0.71942061
0.019159717 -0.0070588291 0.71892148
0.019094583 -0.0080398023 0.71844798
0.019035853 -0.0090169907 0.71802104
0.018993558 -0.0099966228 0.71771348
0.018971683 -0.010983586 0.71755445
0.01895819 -0.01197359 0.7174564
0.018946812 -0.012963593 0.71737367
0.01893843 -0.01395461 0.71731269
0.01893164 -0.014946014 0.7172634
0.018930562 -0.01594153 0.71725553
0.018931387 -0.016938597 0.71726155
0.018936463 -0.017939776 0.71729839
0.018942175 -0.018942147 0.71733987
0.01895285 -0.01995033 0.71741754
0.018967737 -0.020964295 0.71752572
0.01898641 -0.021984249 0.7176615
0.019008189 -0.023009896 0.71781987
0.019032327 -0.024040818 0.71799541
0.019061927 -0.025081456 0.71821058
0.019096842 -0.026132494 0.71846443
0.019136034 -0.027193278 0.71874934
0.019180464 -0.028265923 0.71907234
0.01922968 -0.029350579 0.71943015
0.019284084 -0.030448526 0.71982569
0.019343235 -0.031560004 0.72025573
0.01940248 -0.032677859 0.72068644
0.019454652 -0.033789635 0.7210657
0.019505287 -0.034904182 0.72143388
0.019561874 -0.036034971 0.72184527
0.019626424 -0.037186861 0.72231448
0.019703621 -0.038370192 0.72287571
0.019794317 -0.03958863 0.72353512
0.019903503 -0.040854543 0.72432894
0.020030929 -0.042170346 0.72525531
0.020201007 -0.043591619 0.72649187
0.020310942 -0.044897884 0.72729111
0.020580214 -0.046576262 0.72924876
0.024352349 0.019481897 0.7478205
0.023760017 0.01782003 0.74372941
0.023338985 0.016337305 0.74082148
0.022999743 0.014949858 0.73847848
0.022710646 0.013626397 0.73648179
0.02245811 0.01235199 0.73473763
0.022231387 0.0111157 0.73317176
0.022026964 0.009912163 0.73175985
0.021839328 0.0087357759 0.73046398
0.021667486 0.0075836182 0.72927713
0.02150703 0.0064521432 0.72816885
0.021358365 0.0053395927 0.7271421
0.021219384 0.0042438805 0.72618222
0.021088926 0.0031633675 0.72528112
0.020966047 0.0020965934 0.72443247
0.020850366 0.0010425448 0.72363353
0.02074087 -2.9802322e-08 0.72287726
0.020637672 -0.0010318756 0.72216451
0.020539895 -0.0020540059 0.72148919
0.020447394 -0.003067106 0.72085029
0.020359835 -0.0040719509 0.72024566
0.020276962 -0.005069226 0.71967322
0.020198464 -0.0060595572 0.71913111
0.020124042 -0.0070433915 0.71861702
0.020057606 -0.0080230236 0.71815819
0.020012593 -0.009005636 0.71784729
0.01998724 -0.0099936128 0.71767223
0.019968584 -0.010982722 0.71754342
0.019951774 -0.011971056 0.71742725
0.019938866 -0.012960255 0.71733809
0.01992684 -0.013948768 0.71725512
0.019922435 -0.014941782 0.71722466
0.019918365 -0.015934646 0.71719652
0.019919233 -0.016931325 0.71720254
0.0199209 -0.017928779 0.71721405
0.019928109 -0.018931717 0.71726382
0.019938998 -0.019939005 0.71733904
0.019953312 -0.020950943 0.71743786
0.019970933 -0.021968007 0.71755958
0.019990666 -0.022989213 0.71769583
0.020017374 -0.024020821 0.71788031
0.020048007 -0.025059968 0.71809191
0.020082731 -0.02610755 0.71833175
0.020122068 -0.027164757 0.71860343
0.020165937 -0.028232306 0.7189064
0.020214871 -0.029311508 0.71924436
0.020259282 -0.030388892 0.71955109
0.020302223 -0.031468421 0.71984768
0.020333944 -0.032534301 0.72006679
0.020370781 -0.033611774 0.72032124
0.02041504 -0.034705549 0.72062689
0.02046477 -0.035813332 0.72097039
0.020528764 -0.03695178 0.72141236
0.02059594 -0.038102478 0.7218762
0.020684393 -0.039300323 0.72248721
0.020714073 -0.040392429 0.72269219
0.020819567 -0.041639149 0.7234208
0.020938886 -0.042924702 0.72424489
0.021097153 -0.044304013 0.72533804
0.02130199 -0.045799285 0.7267527
0.021604838 -0.047530621 0.7288444
0.026166694 0.019936562 0.75174558
0.025178138 0.01798442 0.74524313
0.024651121 0.016434073 0.74177647
0.024250628 0.015012324 0.73914212
0.023919424 0.013668269 0.73696351
0.02363456 0.012380004 0.73508984
0.023381496 0.011134028 0.73342526
0.023154808 0.0099234879 0.73193407
0.022948401 0.0087423027 0.7305764
0.022759732 0.0075865984 0.72933543
0.022584505 0.0064527392 0.72818279
0.02242266 0.0053387582 0.72711825
0.022271534 0.0042422116 0.72612417
0.022129642 0.0031613708 0.72519088
0.021996439 0.0020949244 0.72431463
0.021870958 0.0010415018 0.72348928
0.021752805 2.9802322e-08 0.7227121
0.021641323 -0.0010305345 0.72197878
0.021535803 -0.0020509958 0.72128469
0.021435719 -0.0030622184 0.72062635
0.021341082 -0.0040649474 0.72000396
0.021251325 -0.0050598085 0.71941352
0.021166338 -0.0060474873 0.71885443
0.021091497 -0.0070304871 0.71836221
0.021043669 -0.0080166161 0.71804756
0.021012798 -0.0090054572 0.71784449
0.020988859 -0.0099946856 0.71768707
0.020966593 -0.010982454 0.71754062
0.020948097 -0.011970311 0.71741897
0.020931808 -0.012957752 0.7173118
0.020922272 -0.013948172 0.7172491
0.020913515 -0.014938205 0.71719146
0.020909173 -0.015930772 0.71716291
0.020906234 -0.016924113 0.7171436
0.020909874 -0.017922759 0.71716756
0.020916386 -0.018924356 0.71721041
0.020925917 -0.019929469 0.71727306
0.020939108 -0.020939082 0.71735978
0.020954283 -0.021952093 0.71745962
0.020978002 -0.022975892 0.71761566
0.021004176 -0.024004757 0.71778786
0.021034028 -0.025040478 0.7179842
0.021068513 -0.02608481 0.71821105
0.021107536 -0.027138233 0.71846771
0.021145986 -0.028194636 0.71872061
0.021176241 -0.02924335 0.71891963
0.021197302 -0.030281842 0.71905816
0.02121797 -0.031321764 0.71919417
0.021245616 -0.032374233 0.71937597
0.021276593 -0.033434629 0.7195797
0.021318717 -0.034516037 0.7198568
0.021366343 -0.035610527 0.72017014
0.021367148 -0.036629379 0.72017527
0.021426011 -0.037750602 0.72056258
0.02148764 -0.038882405 0.72096789
0.021565398 -0.04005 0.72147942
0.021657081 -0.04125157 0.7220825
0.021772448 -0.042508096 0.72284132
