# .PCD v0.7 - Point Cloud Data file format
VERSION 0.7
FIELDS x y z
SIZE 4 4 4
TYPE F F F
COUNT 1 1 1
WIDTH 1292
HEIGHT 1
VIEWPOINT 0 0 0 1 0 0 0
POINTS 1292
DATA ascii
-0.018543985 -0.011332393 0.72193491
-0.018449524 -0.012299687 0.72121006
-0.018356904 -0.013257742 0.72049928
-0.018269319 -0.014209419 0.71982706
-0.018183311 -0.015152723 0.71916705
-0.018138088 -0.016122729 0.71882004
-0.018133111 -0.017125696 0.71878189
-0.018149033 -0.018149018 0.71890396
-0.018170657 -0.019180149 0.71906996
-0.018199073 -0.020221174 0.71928805
-0.018232856 -0.021271646 0.71954727
-0.018274371 -0.022335321 0.71986592
-0.018325794 -0.023416251 0.7202605
-0.018386159 -0.024514884 0.72072375
-0.018457605 -0.02563557 0.72127199
-0.018543215 -0.026784599 0.72192901
-0.018648056 -0.027972072 0.72273356
-0.01877507 -0.02920565 0.72370827
-0.018932575 -0.030502498 0.72491699
-0.019135537 -0.031892538 0.72647452
-0.019405376 -0.033420354 0.72854531
-0.025571907 0.049639583 0.78741109
-0.025224367 0.047481149 0.78458709
-0.024887618 0.045383304 0.78185087
-0.024565946 0.04335168 0.77923715
-0.024254346 0.041375071 0.77670527
-0.023955317 0.039455831 0.77427548
-0.023666121 0.037587374 0.77192569
-0.023386745 0.035768002 0.76965559
-0.023119383 0.033999115 0.76748312
-0.022858169 0.032270402 0.76536059
-0.022604508 0.030582577 0.76329958
-0.022362053 0.028939128 0.76132953
-0.022126099 0.027332276 0.75941229
-0.021895736 0.025759727 0.75754046
-0.021673465 0.024223328 0.75573438
-0.021459397 0.022721738 0.75399494
-0.021249961 0.02125001 0.75229323
-0.021045625 0.019807667 0.75063294
-0.020848792 0.01839602 0.74903357
-0.020658305 0.017012715 0.74748576
-0.020471603 0.015654773 0.7459687
-0.020289626 0.014322102 0.74449003
-0.020113738 0.013014793 0.74306095
-0.01994339 0.011731416 0.74167675
-0.019776367 0.010469854 0.74031961
-0.019613566 0.0092299283 0.73899674
-0.019456116 0.0080113709 0.73771739
-0.019302132 0.0068125129 0.73646623
-0.019153034 0.0056332946 0.7352547
-0.01900672 0.0044721663 0.73406589
-0.018865513 0.0033292472 0.7329185
-0.018726595 0.0022031665 0.73178971
-0.018592922 0.0010937154 0.73070359
-0.018461211 2.9802322e-08 0.72963333
-0.018334344 -0.0010784566 0.72860253
-0.01820947 -0.0021423101 0.72758788
-0.018089069 -0.0031921864 0.72660953
-0.01797089 -0.0042284131 0.7256493
-0.017856577 -0.0052519143 0.72472036
-0.017744768 -0.0062628388 0.72381192
-0.017636135 -0.0072619319 0.72292924
-0.017530587 -0.0082497001 0.72207165
-0.017427735 -0.0092264414 0.72123593
-0.017328162 -0.01019302 0.7204268
-0.017230719 -0.011149257 0.71963501
-0.017137095 -0.012096763 0.71887428
-0.017045172 -0.013034552 0.71812737
-0.016992465 -0.01399377 0.71769911
-0.01697991 -0.014982253 0.71759713
-0.016982533 -0.015983522 0.71761847
-0.016988527 -0.016988516 0.7176671
-0.016999379 -0.017999321 0.71775532
-0.017014368 -0.019016057 0.71787709
-0.017033858 -0.020039827 0.71803546
-0.017062314 -0.021077007 0.71826673
-0.017095951 -0.022124171 0.71854001
-0.017136978 -0.023185283 0.71887332
-0.017187137 -0.024264187 0.7192809
-0.017245529 -0.025361061 0.71975541
-0.017314393 -0.026480824 0.72031498
-0.017396012 -0.027628958 0.72097814
-0.01749419 -0.028813958 0.72177589
-0.017613219 -0.030046046 0.72274303
-0.017760228 -0.031341583 0.72393757
-0.01794512 -0.032723427 0.72543991
-0.018194923 -0.034249276 0.72746962
-0.018596821 -0.036099672 0.73073518
-0.024253156 0.051537961 0.78901231
-0.023905892 0.049305916 0.78601432
-0.023574619 0.047149271 0.78315431
-0.023254221 0.045055091 0.78038824
-0.022948613 0.043028653 0.77774978
-0.022652332 0.041057408 0.77519196
-0.022368338 0.039144605 0.77274013
-0.022093734 0.037283182 0.77036941
-0.021828894 0.035471976 0.76808292
-0.021573752 0.033709019 0.76588023
-0.021325748 0.031988621 0.76373911
-0.021088613 0.030314893 0.76169187
-0.020857608 0.028679222 0.75969756
-0.020632146 0.027079731 0.75775099
-0.020415446 0.025519341 0.75588024
-0.020206427 0.023995161 0.75407571
-0.020001898 0.022502154 0.75230992
-0.019803112 0.021040827 0.75059378
-0.019611472 0.019611508 0.74893928
-0.019425569 0.018211484 0.74733436
-0.019243546 0.016838133 0.74576283
-0.019066736 0.015491724 0.74423641
-0.018895546 0.01417166 0.74275845
-0.018729245 0.012876362 0.74132276
-0.018566499 0.011604071 0.73991776
-0.018408336 0.010354698 0.73855221
-0.018254526 0.0091272891 0.73722434
-0.018105399 0.0079211295 0.73593688
-0.017959505 0.0067348182 0.73467731
-0.017817143 0.0055679083 0.73344827
-0.017678989 0.004419744 0.73225552
-0.017544063 0.0032895207 0.73109066
-0.017413152 0.0021766722 0.7299605
-0.017284561 0.0010803342 0.72885031
-0.017160391 -0 0.72777838
-0.017038176 -0.0010648966 0.72672319
-0.016920274 -0.0021150112 0.72570533
-0.016804291 -0.0031507611 0.72470403
-0.016692113 -0.0041730106 0.72373557
-0.016582172 -0.0051818788 0.72278643
-0.01647521 -0.0061781704 0.72186303
-0.016371084 -0.0071623623 0.72096401
-0.016269213 -0.0081346035 0.72008455
-0.016170634 -0.009095937 0.71923345
-0.016073566 -0.010045975 0.71839547
-0.015980395 -0.010986477 0.71759105
-0.015907684 -0.011930764 0.71696335
-0.015879018 -0.012901694 0.71671593
-0.015871815 -0.013887852 0.7166537
-0.015867846 -0.014876068 0.71661937
-0.015865676 -0.015865654 0.71660066
-0.01586864 -0.016860425 0.71662629
-0.015874092 -0.017858326 0.71667337
-0.015887715 -0.018866628 0.71679091
-0.015903963 -0.019879937 0.71693122
-0.01592488 -0.020901412 0.71711189
-0.01595184 -0.021933764 0.71734458
-0.015983079 -0.022975653 0.71761429
-0.016021179 -0.024031729 0.71794319
-0.016069116 -0.02510798 0.71835703
-0.01612575 -0.026204318 0.71884596
-0.016191926 -0.027323872 0.71941733
-0.016270045 -0.028472573 0.7200917
-0.016363034 -0.02965799 0.72089452
-0.016474811 -0.030890256 0.72185957
-0.016612275 -0.03218627 0.7230463
-0.016789291 -0.033578575 0.72457451
-0.017027505 -0.035119206 0.72663116
-0.017404428 -0.036984354 0.72988522
-0.022606783 0.051242054 0.78781009
-0.022276912 0.049009204 0.78477234
-0.021962581 0.046853513 0.78187776
-0.021658681 0.0447613 0.77907914
-0.021368807 0.042737633 0.77640975
-0.021087885 0.040769905 0.77382278
-0.020819889 0.038863808 0.77135491
-0.020559661 0.037007391 0.76895845
-0.020309277 0.035202801 0.7666527
-0.020067716 0.033446193 0.76442826
-0.019833688 0.03173393 0.76227307
-0.019608932 0.030067027 0.7602033
-0.019389549 0.028437972 0.75818312
-0.019179309 0.026851058 0.75624698
-0.018975435 0.025300592 0.75436962
-0.018776167 0.023783147 0.75253451
-0.018583359 0.022300035 0.75075901
-0.018397432 0.02085042 0.74904686
-0.018216304 0.019430727 0.74737883
-0.018039512 0.018039495 0.74575073
-0.017868621 0.016677409 0.74417704
-0.017703045 0.015342653 0.7426523
-0.017541407 0.014033169 0.74116379
-0.017383303 0.012747765 0.73970783
-0.017230552 0.011487067 0.73830116
-0.017081834 0.010249138 0.73693168
-0.016937079 0.0090330839 0.73559868
-0.016795261 0.007837832 0.73429263
-0.01665785 0.0066631436 0.73302728
-0.01652359 0.0055078864 0.73179084
-0.016393341 0.0043715835 0.73059142
-0.016265782 0.0032531619 0.72941679
-0.016141597 0.0021522343 0.72827315
-0.016020672 0.0010680556 0.72715956
-0.015902454 -0 0.72607088
-0.0157877 -0.0010525286 0.72501415
-0.015674809 -0.0020899475 0.72397453
-0.015565857 -0.0031131804 0.7229712
-0.015458516 -0.0041222572 0.72198272
-0.015354812 -0.0051182508 0.72102773
-0.015252856 -0.0061011314 0.7200889
-0.015153788 -0.0070717633 0.71917659
-0.015057118 -0.0080304444 0.71828634
-0.014962374 -0.0089774132 0.71741384
-0.014872088 -0.0099146962 0.71658242
-0.014822179 -0.010869563 0.71612281
-0.014803096 -0.01184243 0.71594709
-0.014791267 -0.012819111 0.71583813
-0.014782102 -0.013796568 0.71575367
-0.014774512 -0.014774501 0.71568382
-0.014771773 -0.015756547 0.71565861
-0.014772703 -0.016742408 0.71566719
-0.014778085 -0.017733693 0.71571678
-0.014784648 -0.018727243 0.71577722
-0.014797203 -0.019729584 0.71589279
-0.01481209 -0.020736873 0.71602988
-0.014834107 -0.021756649 0.71623266
-0.014861585 -0.02278775 0.71648568
-0.014893289 -0.023829222 0.71677768
-0.014930825 -0.024884701 0.71712333
-0.014976892 -0.025959939 0.71754754
-0.015030635 -0.027055115 0.71804249
-0.015093594 -0.028174669 0.71862221
-0.015168215 -0.029325187 0.71930945
-0.01525729 -0.030514568 0.72012967
-0.015364597 -0.03175351 0.72111785
-0.015495674 -0.033057421 0.72232497
-0.015659347 -0.034450561 0.72383213
-0.015883712 -0.036003083 0.72589833
-0.016244816 -0.037904531 0.72922367
-0.021319635 0.053299099 0.78998053
-0.020994019 0.050985456 0.78676778
-0.020681484 0.048749268 0.78368407
-0.020384004 0.046592027 0.78074896
-0.020096608 0.044499665 0.77791333
-0.019823056 0.042477995 0.77521431
-0.019557677 0.040512353 0.77259588
-0.01930459 0.038609207 0.77009875
-0.019059014 0.036756665 0.76767576
-0.018824203 0.034959227 0.76535904
-0.018596189 0.033207476 0.76310921
-0.018376146 0.031501979 0.76093817
-0.018164098 0.029841036 0.75884598
-0.017958287 0.028220206 0.75681525
-0.017760342 0.026640564 0.75486219
-0.017567456 0.025096357 0.75295913
-0.017381107 0.023588657 0.75112045
-0.017201371 0.022116065 0.74934709
-0.017025732 0.020674139 0.74761409
-0.016854804 0.019262642 0.74592769
-0.016689882 0.017882049 0.74430037
-0.016530059 0.016530097 0.74272346
-0.016373845 0.01520431 0.74118221
-0.016221572 0.013904214 0.73967975
-0.016074086 0.012629628 0.73822463
-0.015931152 0.011379451 0.73681432
-0.015791273 0.010151535 0.73543417
-0.015654653 0.0089454949 0.73408622
-0.015522288 0.0077611506 0.73278022
-0.01539328 0.0065971613 0.7315073
-0.015267518 0.0054526925 0.73026651
-0.015144015 0.0043268502 0.72904789
-0.015024933 0.0032196641 0.72787297
-0.01490803 0.0021297336 0.7267195
-0.014794613 0.0010567605 0.72560054
-0.014683273 2.9802322e-08 0.72450197
-0.014575126 -0.0010410547 0.72343493
-0.014469465 -0.0020670593 0.72239238
-0.014366168 -0.0030784309 0.7213732
-0.014265801 -0.0040759444 0.72038293
-0.014166924 -0.0050595999 0.71940726
-0.014071595 -0.0060306489 0.71846676
-0.013977494 -0.006988734 0.7175383
-0.013886449 -0.0079351068 0.71664
-0.013806281 -0.0088754296 0.71584892
-0.013767066 -0.0098336041 0.71546209
-0.013749518 -0.010803163 0.71528894
-0.013734097 -0.011772037 0.71513677
-0.013721152 -0.012741029 0.71500903
-0.013709586 -0.013709575 0.71489495
-0.013703721 -0.014682531 0.71483707
-0.013699797 -0.015656888 0.71479833
-0.013698581 -0.016633987 0.71478641
-0.013699391 -0.017613471 0.71479428
-0.013704622 -0.018599153 0.71484601
-0.01371356 -0.019590765 0.71493417
-0.013727576 -0.020591348 0.71507245
-0.013743799 -0.021597385 0.71523249
-0.013764108 -0.022612423 0.71543282
-0.013789727 -0.0236395 0.71568561
-0.013819478 -0.024677634 0.71597922
-0.013856317 -0.025733143 0.71634269
-0.013900729 -0.02680853 0.7167809
-0.013952808 -0.027905583 0.71729469
-0.01401353 -0.029028028 0.71789384
-0.014084829 -0.030181766 0.71859729
-0.014169576 -0.031375468 0.71943355
-0.014270838 -0.032619029 0.72043264
-0.014393235 -0.033926904 0.72164023
-0.014555814 -0.035349816 0.72324431
-0.014773983 -0.036934912 0.72539693
-0.015135041 -0.038918644 0.72895938
-0.019718453 0.053088129 0.78914797
-0.019410565 0.05076611 0.78587651
-0.01911555 0.048524112 0.78274173
-0.018835053 0.046363235 0.77976125
-0.018564275 0.044268668 0.77688408
-0.018306891 0.04224667 0.77414924
-0.018057471 0.040282041 0.77149904
-0.017819932 0.038381428 0.76897508
-0.01758912 0.03653127 0.76652253
-0.017368581 0.0347372 0.76417911
-0.017154645 0.03298974 0.76190597
-0.016949482 0.031291336 0.75972599
-0.016750399 0.02963534 0.75761062
-0.016557785 0.028020889 0.75556397
-0.016372183 0.026447386 0.75359178
-0.016191849 0.024910569 0.75167567
-0.016017966 0.023410916 0.7498281
-0.015848884 0.021944612 0.74803144
-0.01568486 0.020510972 0.74628866
-0.015526501 0.019109577 0.7446059
-0.015372226 0.01773721 0.74296665
-0.015221766 0.016392708 0.74136794
-0.01507628 0.015076309 0.73982209
-0.014934933 0.013786107 0.73832023
-0.014797288 0.01252079 0.73685765
-0.014662657 0.011279017 0.73542708
-0.014532421 0.010060906 0.73404324
-0.014405443 0.0088649094 0.73269403
-0.014281931 0.0076902807 0.73138165
-0.014160987 0.0065358579 0.73009658
-0.014043553 0.0054013729 0.7288487
-0.013928803 0.0042857826 0.72762942
-0.013817345 0.0031886399 0.72644514
-0.013708385 0.0021089911 0.72528744
-0.013601705 0.0010462999 0.72415388
-0.013498228 2.9802322e-08 0.72305429
-0.013396638 -0.0010304749 0.72197485
-0.013298212 -0.00204584 0.72092909
-0.013201312 -0.0030464232 0.71989942
-0.013107369 -0.0040330291 0.71890122
-0.013015323 -0.0050058365 0.71792316
-0.012925426 -0.0059655607 0.71696794
-0.012837913 -0.0069127083 0.71603811
-0.012766356 -0.00785622 0.71527773
-0.012733349 -0.0088154078 0.71492702
-0.012714504 -0.0097803771 0.71472681
-0.012696466 -0.010743111 0.71453512
-0.012681059 -0.011705577 0.71437138
-0.012667762 -0.012667745 0.71423012
-0.012658141 -0.013631791 0.7141279
-0.012650437 -0.014596641 0.714046
-0.012644396 -0.015562326 0.71398187
-0.01264113 -0.016530693 0.71394712
-0.012642204 -0.017504543 0.7139585
-0.012645719 -0.018482178 0.71399587
-0.012652092 -0.019464731 0.71406358
-0.012660296 -0.020451218 0.71415079
-0.012672994 -0.021446556 0.71428567
-0.012690008 -0.02245152 0.71446645
-0.012710952 -0.023466349 0.71468902
-0.012736957 -0.024494141 0.71496534
-0.012766692 -0.025533378 0.71528131
-0.012801949 -0.026588649 0.71565592
-0.012843585 -0.027663112 0.71609837
-0.012892281 -0.028759658 0.71661568
-0.012949366 -0.029883116 0.71722227
-0.013017821 -0.031042486 0.71794975
-0.013098976 -0.032243609 0.71881205
-0.013197436 -0.033501178 0.71985823
-0.013318735 -0.03483358 0.72114718
-0.013470996 -0.036268055 0.72276497
-0.013684029 -0.037894219 0.72502863
-0.014048094 -0.039983034 0.72889698
-0.018143075 0.052917331 0.78847367
-0.017852999 0.050583512 0.78513461
-0.017575862 0.048333645 0.78194445
-0.017312488 0.046166688 0.77891272
-0.01705852 0.04406786 0.77598929
-0.016817361 0.042043388 0.77321333
-0.016584083 0.040078193 0.77052808
-0.016361764 0.038177431 0.76796889
-0.016146272 0.03632912 0.76548839
-0.01594073 0.034538299 0.76312232
-0.015740769 0.032793283 0.76082057
-0.015549352 0.031098694 0.75861716
-0.015363661 0.029447019 0.75647968
-0.015185193 0.027839571 0.75442535
-0.015012024 0.026271075 0.75243193
-0.014844242 0.024740398 0.75050056
-0.014682282 0.023246974 0.74863625
-0.014525001 0.021787524 0.74682581
-0.014372848 0.020361543 0.74507439
-0.014225324 0.018967092 0.7433762
-0.014081631 0.017602056 0.74172217
-0.01394261 0.016266406 0.74012184
-0.013807802 0.014958501 0.73857009
-0.013676099 0.013676107 0.73705405
-0.013548069 0.012419105 0.73558021
-0.013423675 0.011186421 0.73414838
-0.013302933 0.0099772215 0.73275846
-0.013185026 0.0087900162 0.73140126
-0.013069957 0.0076241493 0.73007667
-0.012958196 0.0064791143 0.72879016
-0.012849302 0.0053538978 0.72753668
-0.012743087 0.0042476952 0.72631407
-0.012638881 0.0031597018 0.72511458
-0.012538129 0.0020896792 0.7239548
-0.0124391 0.0010366142 0.72281486
-0.012343202 -0 0.72171098
-0.012248983 -0.0010207593 0.72062641
-0.012157183 -0.0020261705 0.71956968
-0.012067608 -0.0030168891 0.71853858
-0.011979824 -0.0039933026 0.7175281
-0.011894616 -0.0049560368 0.71654731
-0.011810613 -0.0059052706 0.71558028
-0.011745581 -0.0068515837 0.71483165
-0.011715237 -0.0078101456 0.71448243
-0.011695235 -0.0087713897 0.71425223
-0.011675759 -0.0097298026 0.714028
-0.011658557 -0.010686994 0.71382993
-0.011643874 -0.011643857 0.71366096
-0.01163173 -0.012601048 0.71352118
-0.011621238 -0.01355812 0.71340042
-0.011611671 -0.014514565 0.71329021
-0.01160646 -0.015475273 0.71323031
-0.011602988 -0.016437531 0.71319032
-0.011602347 -0.017403513 0.71318299
-0.011602875 -0.018371195 0.71318901
-0.011606121 -0.019343525 0.71322632
-0.011613901 -0.02032432 0.71331596
-0.011623736 -0.02131021 0.71342915
-0.011637268 -0.022304744 0.7135849
-0.01165338 -0.023306727 0.71377039
-0.011673201 -0.024319142 0.71399856
-0.011696998 -0.025343478 0.7142725
-0.011723435 -0.026377708 0.71457678
-0.011753396 -0.027424574 0.71492165
-0.011781838 -0.028472751 0.71524906
-0.011818201 -0.029545486 0.71566761
-0.011855183 -0.03062588 0.7160933
-0.011918571 -0.031782866 0.71682304
-0.012007919 -0.033021748 0.71785152
-0.01212299 -0.034348488 0.71917605
-0.012252179 -0.035735488 0.72066319
-0.012405373 -0.037216127 0.72242665
-0.012618459 -0.038906902 0.7248795
-0.013027399 -0.041253418 0.72958684
-0.016590077 0.052786648 0.78795791
-0.016318068 0.050437689 0.78454208
-0.016058851 0.048176587 0.78128701
-0.015813014 0.046001494 0.77819991
-0.015576223 0.043896645 0.77522635
-0.015351459 0.041867614 0.77240396
-0.015134489 0.039900064 0.76967931
-0.014927586 0.037997514 0.76708114
-0.014727721 0.036149859 0.76457131
-0.014536496 0.034359008 0.76216996
-0.014351432 0.032616913 0.75984609
-0.014174153 0.030925453 0.75761992
-0.014001918 0.029276758 0.75545698
-0.01383657 0.027673125 0.75338066
-0.013676224 0.026109159 0.75136709
-0.013521788 0.024585098 0.74942774
-0.013371947 0.023097038 0.74754614
-0.013226462 0.021643311 0.74571919
-0.013086043 0.020223916 0.74395591
-0.01294955 0.018835753 0.74224186
-0.012817179 0.017477959 0.74057966
-0.012689062 0.016149729 0.73897082
-0.012563867 0.014848202 0.73739862
-0.012443013 0.013574183 0.73588103
-0.012325387 0.012325406 0.73440391
-0.012210787 0.011100739 0.73296481
-0.012098745 0.0098989904 0.73155785
-0.011990498 0.0087204278 0.7301985
-0.011884689 0.007562995 0.7288698
-0.011781878 0.0064264834 0.72757876
-0.011680954 0.005309552 0.72631145
-0.011583344 0.004212141 0.72508568
-0.011487554 0.0031329989 0.72388279
-0.011394763 0.0020717978 0.72271758
-0.011303694 0.0010276139 0.72157401
-0.011214877 2.9802322e-08 0.72045869
-0.011128353 -0.0010116398 0.71937215
-0.011043489 -0.0020079017 0.71830642
-0.010961195 -0.0029893816 0.71727306
-0.010880117 -0.0039564073 0.71625495
-0.010801516 -0.0049097836 0.7152679
-0.010738897 -0.0058575571 0.71448147
-0.010710138 -0.0068155527 0.71412039
-0.01068914 -0.007773906 0.71385676
-0.010668991 -0.0087291598 0.71360368
-0.010650859 -0.0096825957 0.71337599
-0.010635174 -0.010635138 0.71317899
-0.010621327 -0.011586905 0.71300513
-0.010608893 -0.012537777 0.71284902
-0.010597036 -0.01348713 0.71270013
-0.010590073 -0.014440984 0.71261269
-0.010583358 -0.015393943 0.71252835
-0.010579422 -0.016350001 0.71247888
-0.010575865 -0.017305911 0.71243423
-0.010576685 -0.018268794 0.71244454
-0.010579114 -0.019234717 0.71247506
-0.010584008 -0.020205826 0.71253657
-0.010591342 -0.021182686 0.7126286
-0.010600677 -0.02216506 0.71274585
-0.010611749 -0.023152888 0.7128849
-0.010622086 -0.024141103 0.71301466
-0.010621465 -0.025105268 0.71300685
-0.010610854 -0.026044846 0.7128737
-0.010599543 -0.026980639 0.7127316
-0.010595424 -0.027933389 0.71267986
-0.010598033 -0.028903693 0.71271265
-0.010537981 -0.029697925 0.71195853
-0.010529536 -0.030631363 0.71185249
-0.010535504 -0.031606466 0.71192741
-0.010553994 -0.032621384 0.71215963
-0.010581817 -0.033669412 0.71250904
-0.010655473 -0.034872472 0.71343398
-0.010848476 -0.036490262 0.71585757
-0.011570603 -0.039971173 0.7249257
-0.015331308 0.055192739 0.79140323
-0.015056538 0.052697897 0.78760773
-0.014802782 0.050329477 0.7841025
-0.014561784 0.04805392 0.78077358
-0.014333412 0.045866936 0.777619
-0.014114101 0.043753713 0.77458954
-0.013906081 0.041718245 0.77171618
-0.013705935 0.039747238 0.76895142
-0.013514477 0.037840575 0.76630676
-0.013330504 0.035992384 0.76376551
-0.013153858 0.034200042 0.76132548
-0.01298376 0.032459438 0.75897586
-0.01282027 0.030768663 0.7567175
-0.012662301 0.029123336 0.75453544
-0.012510492 0.0275231 0.75243849
-0.012363003 0.025962293 0.75040114
-0.012221157 0.024442315 0.74844182
-0.012083561 0.022958785 0.74654114
-0.011950806 0.021511465 0.74470741
-0.011822063 0.020097524 0.74292904
-0.011696801 0.018714875 0.74119872
-0.011575787 0.017363727 0.73952711
-0.011458179 0.016041458 0.73790258
-0.011343801 0.014746934 0.73632264
-0.011233382 0.013480067 0.73479742
-0.011125341 0.012237906 0.73330498
-0.011020747 0.01102075 0.73186016
-0.010918742 0.0098268986 0.73045117
-0.010819672 0.0086557567 0.7290827
-0.010722731 0.0075059235 0.72774369
-0.010628765 0.0063772798 0.72644567
-0.010536805 0.0052684247 0.72517532
-0.010447633 0.0041790605 0.72394365
-0.010360319 0.003108114 0.72273755
-0.010275127 0.0020550489 0.72156078
-0.010192199 0.0010192096 0.72041523
-0.010110941 -0 0.71929276
-0.010032084 -0.0010032058 0.71820354
-0.0099544162 -0.0019908845 0.71713066
-0.0098792212 -0.0029637814 0.71609205
-0.0098053468 -0.0039221048 0.7150715
-0.0097443694 -0.0048721731 0.71422923
-0.0097152423 -0.0058291256 0.71382689
-0.0096943406 -0.0067860186 0.71353817
-0.0096740639 -0.0077392459 0.71325809
-0.0096554384 -0.0086898804 0.71300077
-0.0096391346 -0.0096391141 0.71277559
-0.0096244412 -0.010586858 0.71257263
-0.0096107563 -0.011532903 0.71238363
-0.0095980084 -0.012477368 0.7122075
-0.0095891878 -0.013424873 0.71208572
-0.0095803533 -0.014370501 0.71196365
-0.00957397 -0.015318334 0.71187544
-0.0095680254 -0.016265601 0.71179336
-0.0095661171 -0.017219037 0.71176702
-0.0095649473 -0.018173397 0.71175086
-0.0095660854 -0.019132167 0.71176654
-0.0095685171 -0.020093858 0.71180016
-0.009572275 -0.021058977 0.71185207
-0.0095711034 -0.022013545 0.71183586
-0.0095582455 -0.022939771 0.71165824
-0.0095352614 -0.023838133 0.71134079
-0.0095137563 -0.024735749 0.71104372
-0.0094932271 -0.025631696 0.71076018
-0.0094281305 -0.026398778 0.70986098
-0.0094045475 -0.027273148 0.70953518
-0.0093786856 -0.028136045 0.70917797
-0.0093822656 -0.02908501 0.70922738
-0.0094147893 -0.030127347 0.70967668
-0.0094585055 -0.031213015 0.71028054
-0.009509163 -0.032331139 0.7109803
-0.0095623331 -0.033468157 0.71171474
-0.0096158208 -0.034616947 0.7124536
-0.0096685598 -0.035773635 0.71318209
-0.0097218798 -0.036943108 0.71391857
-0.0097793583 -0.038139492 0.71471262
-0.009852807 -0.039411217 0.71572715
-0.013787161 0.055148661 0.79123414
-0.013539231 0.052652568 0.78742892
-0.013304226 0.050260454 0.78382194
-0.013081906 0.047967017 0.78040981
-0.012871287 0.045764595 0.77717721
-0.012669681 0.043640018 0.77408296
-0.012478538 0.041595161 0.77114928
-0.012295336 0.039618343 0.76833749
-0.01211985 0.037706196 0.76564413
-0.01195197 0.035855889 0.76306742
-0.011790183 0.034060568 0.76058435
-0.011635297 0.032320291 0.75820708
-0.011485808 0.03062883 0.75591278
-0.011342273 0.028985828 0.75370979
-0.011203689 0.027386814 0.75158274
-0.01106987 0.025829732 0.74952888
-0.010940863 0.024313062 0.74754882
-0.010815703 0.022833169 0.74562788
-0.01069504 0.02139011 0.74377596
-0.010578044 0.019980788 0.74198025
-0.010464806 0.01860413 0.7402423
-0.01035513 0.017258555 0.73855901
-0.010248198 0.01594165 0.73691785
-0.010144837 0.014653683 0.73533142
-0.01004437 0.013392508 0.73378944
-0.0099466853 0.012157083 0.73229015
-0.0098519707 0.010946691 0.73083645
-0.0097596124 0.0097596347 0.72941899
-0.0096698077 0.008595407 0.72804064
-0.0095822588 0.0074528754 0.72669691
-0.0094972905 0.006331563 0.72539276
-0.0094142798 0.0052301884 0.72411877
-0.0093332287 0.0041480958 0.72287476
-0.0092544565 0.0030848086 0.72166574
-0.0091774128 0.0020394325 0.72048336
-0.0091025382 0.0010114312 0.71933413
-0.0090288762 2.9802322e-08 0.71820349
-0.0089576552 -0.00099527836 0.71711046
-0.0088875787 -0.0019749999 0.71603495
-0.008819432 -0.0029398203 0.71498901
-0.0087602306 -0.003893435 0.71408033
-0.0087294308 -0.0048496425 0.71360767
-0.0087087536 -0.00580585 0.71329027
-0.0086888513 -0.0067579746 0.71298474
-0.0086702751 -0.0077068806 0.71269965
-0.008653624 -0.0086536109 0.71244413
-0.0086387927 -0.0095986426 0.7122165
-0.0086244857 -0.010541022 0.71199691
-0.0086113047 -0.011481732 0.71179461
-0.0086012874 -0.012424082 0.71164089
-0.0085912384 -0.013364166 0.71148664
-0.0085831387 -0.014305234 0.71136236
-0.0085760159 -0.015246242 0.71125299
-0.0085717039 -0.016190976 0.71118683
-0.0085679172 -0.017135829 0.71112871
-0.0085658338 -0.018083423 0.7110967
-0.0085650655 -0.019033462 0.71108496
-0.0085618058 -0.01997754 0.71103489
-0.0085471505 -0.020893037 0.71081001
-0.0085210837 -0.02177611 0.71040988
-0.0084947962 -0.022652805 0.71000648
-0.008469128 -0.023525327 0.70961249
-0.0084061958 -0.024284542 0.7086466
-0.0083739785 -0.025121927 0.70815212
-0.0083482256 -0.025972247 0.70775682
-0.0083619962 -0.02694419 0.70796824
-0.0083974656 -0.027991503 0.7085126
-0.008452652 -0.029114664 0.70935965
-0.0086709494 -0.030830055 0.71271002
-0.0087321075 -0.032017708 0.71364868
-0.0087846974 -0.033186615 0.71445584
-0.0088313343 -0.034344077 0.71517169
-0.0088680265 -0.035472095 0.71573484
-0.0089030396 -0.036601335 0.71627223
-0.0089303395 -0.037705868 0.7166912
-0.0089306952 -0.038699687 0.71669668
-0.0088885818 -0.039504796 0.71605033
-0.0089247702 -0.040657282 0.71660578
-0.0089871911 -0.041940182 0.71756375
-0.012263782 0.055187076 0.79138136
-0.012034995 0.052653104 0.787431
-0.011819223 0.050231725 0.78370535
-0.011616041 0.047916234 0.78019708
-0.011423949 0.045695812 0.77688026
-0.011240337 0.043556303 0.77370989
-0.011066392 0.041498989 0.77070653
-0.010900245 0.039513439 0.76783776
-0.010741196 0.037594229 0.76509148
-0.010589548 0.03573975 0.76247305
-0.010443178 0.033940375 0.75994575
-0.010303742 0.032199204 0.75753808
-0.01016872 0.030506134 0.75520682
-0.01003952 0.028863609 0.75297594
-0.0099145956 0.027265191 0.75081891
-0.0097943936 0.025710285 0.74874336
-0.009678252 0.024195671 0.74673808
-0.0095661031 0.022719532 0.74480158
-0.0094576878 0.021279812 0.74292964
-0.0093526226 0.019874305 0.74111557
-0.0092509799 0.018501997 0.73936051
-0.0091525437 0.017161041 0.73766083
-0.0090570766 0.015849888 0.73601252
-0.0089646615 0.014567584 0.73441678
-0.0088743782 0.013311565 0.73285794
-0.0087871607 0.012082309 0.73135197
-0.0087021505 0.010877728 0.72988403
-0.0086196428 0.0096971095 0.72845948
-0.0085393293 0.0085393488 0.72707272
-0.00846125 0.0074036121 0.72572452
-0.0083849998 0.0062887669 0.72440803
-0.0083109252 0.0051943362 0.72312891
-0.0082385745 0.0041193068 0.72187972
-0.0081682876 0.0030631125 0.72066605
-0.008099243 0.0020248294 0.71947396
-0.0080324961 0.00100407 0.71832144
-0.0079668127 -0 0.71718729
-0.0079031661 -0.00098788738 0.71608835
-0.0078406846 -0.0019601583 0.71500951
-0.0077829994 -0.0029186308 0.71401346
-0.0077503943 -0.003875196 0.71345049
-0.0077306004 -0.0048316121 0.71310878
-0.0077116569 -0.0057837069 0.71278167
-0.0076934784 -0.0067317784 0.71246773
-0.0076769199 -0.0076768994 0.71218181
-0.007662382 -0.0086201727 0.71193087
-0.0076479977 -0.009559989 0.7116825
-0.0076348186 -0.010497868 0.71145493
-0.0076241512 -0.011436194 0.71127069
-0.0076135383 -0.012372017 0.71108747
-0.0076044854 -0.01330781 0.71093112
-0.0075965943 -0.014243603 0.71079493
-0.0075905835 -0.015181154 0.71069109
-0.0075854533 -0.016119063 0.71060252
-0.0075811995 -0.017057687 0.71052909
-0.0075776982 -0.017996997 0.71046859
-0.0075671417 -0.018917829 0.71028638
-0.0075439634 -0.019802868 0.70988619
-0.0075159846 -0.020668924 0.70940304
-0.0074890382 -0.021530956 0.70893776
-0.0074353246 -0.022305965 0.70801038
-0.0074011618 -0.023128629 0.70742047
-0.0073695257 -0.023950934 0.70687419
-0.0073738424 -0.024886698 0.70694876
-0.0074051474 -0.025918037 0.70748925
-0.0076304595 -0.027660429 0.71137965
-0.0076925326 -0.028846949 0.7124514
-0.0077341436 -0.029969782 0.71316993
-0.0077762324 -0.031104892 0.71389663
-0.0078187566 -0.032252342 0.7146309
-0.0078617735 -0.033412516 0.71537364
-0.0079052411 -0.034585446 0.71612424
-0.0079492182 -0.035771489 0.71688354
-0.0079936599 -0.036970675 0.71765089
-0.0080320342 -0.038152158 0.71831346
-0.0080473032 -0.039230585 0.71857703
-0.0080625201 -0.040312588 0.71883988
-0.0080703413 -0.041360497 0.71897495
-0.0080160145 -0.042084068 0.71803689
-0.0080478201 -0.043257028 0.71858597
-0.010749816 0.055284798 0.79175645
-0.010540857 0.052704304 0.78763306
-0.010344749 0.050245941 0.78376317
-0.010161506 0.047904253 0.78014714
-0.00998809 0.04565987 0.77672511
-0.0098232282 0.043502897 0.77347177
-0.0096672652 0.041431159 0.77039421
-0.0095185265 0.039433897 0.76745909
-0.0093761962 0.037504822 0.7646504
-0.0092409709 0.035643756 0.76198202
-0.0091107069 0.033839762 0.75941151
-0.0089865858 0.032094955 0.75696218
-0.0088667069 0.030400127 0.75459659
-0.0087519698 0.028756469 0.75233245
-0.0086410977 0.027157724 0.7501446
-0.008534573 0.025603741 0.74804246
-0.0084315995 0.02409029 0.74601042
-0.0083324146 0.022616565 0.74405324
-0.0082364492 0.021179467 0.74215949
-0.008143751 0.019777685 0.74033034
-0.008053896 0.018408895 0.73855716
-0.0079669161 0.017071962 0.73684078
-0.0078826007 0.01576522 0.73517692
-0.0078009581 0.014487535 0.73356587
-0.0077215903 0.013237029 0.7319997
-0.0076448321 0.012013316 0.73048496
-0.007569667 0.010813862 0.72900176
-0.0074971267 0.0096391737 0.7275703
-0.0074262545 0.0084871352 0.72617179
-0.007357568 0.0073575675 0.72481632
-0.0072904718 0.0062490106 0.72349226
-0.0072254166 0.0051610172 0.7222085
-0.0071615856 0.0040923655 0.72094893
-0.007099817 0.0030427873 0.71973008
-0.0070391758 0.0020112097 0.7185334
-0.0069804746 0.00099724531 0.7173751
-0.0069227908 2.9802322e-08 0.71623671
-0.0068667312 -0.00098091364 0.71513057
-0.006812219 -0.0019463599 0.71405482
-0.0067775548 -0.0029046237 0.7133708
-0.0067582587 -0.0038618445 0.71298999
-0.0067405989 -0.0048147142 0.71264154
-0.0067232926 -0.0057628155 0.71230006
-0.0067075226 -0.0067074895 0.71198881
-0.0066935043 -0.0076496899 0.71171212
-0.0066795233 -0.0085879564 0.71143627
-0.0066667101 -0.0095238388 0.71118343
-0.0066559673 -0.010459334 0.71097147
-0.006645259 -0.011391819 0.71076012
-0.0066358964 -0.012323827 0.7105754
-0.0066276151 -0.013255209 0.71041197
-0.0066207228 -0.014187217 0.71027595
-0.0066145798 -0.015119016 0.71015471
-0.006609078 -0.016050577 0.71004617
-0.0066038999 -0.016981423 0.70994395
-0.0065885587 -0.017883241 0.70964128
-0.0065629273 -0.018751234 0.70913553
-0.0065368791 -0.019610614 0.7086215
-0.0065124426 -0.020467639 0.70813924
-0.0064607821 -0.021228284 0.70711982
-0.0064270138 -0.02203545 0.70645344
-0.0064104684 -0.022894531 0.70612699
-0.0064281053 -0.023875833 0.70647502
-0.0066415914 -0.02561751 0.71068776
-0.0066770595 -0.026708215 0.71138763
-0.0067128865 -0.027810484 0.71209466
-0.0067491219 -0.028924763 0.71280968
-0.0067857285 -0.030051082 0.71353209
-0.0068227574 -0.03118971 0.71426272
-0.0068601691 -0.032340795 0.71500105
-0.0068980167 -0.033504635 0.71574789
-0.006936261 -0.03468129 0.71650261
-0.0069749551 -0.035871178 0.71726614
-0.0070140599 -0.037074298 0.71803772
-0.0070536295 -0.038291126 0.7188186
-0.0070936233 -0.039521635 0.71960783
-0.0071255276 -0.040717274 0.72023743
-0.0071333405 -0.041780978 0.72039157
-0.0071401666 -0.042840958 0.72052628
-0.0070951227 -0.043584317 0.71963739
-0.007103669 -0.044651628 0.71980608
-0.0092414236 0.055448562 0.79238486
-0.0090533113 0.052810997 0.78805411
-0.0088785756 0.050311953 0.78403127
-0.0087153073 0.047934204 0.78027254
-0.0085613839 0.045660704 0.77672893
-0.0084155807 0.043480515 0.77337217
-0.0082781157 0.041390628 0.77020746
-0.0081476364 0.039380252 0.76720345
-0.008022612 0.037438869 0.7643252
-0.0079041664 0.035568774 0.76159835
-0.0077903578 0.033758223 0.75897825
-0.0076818303 0.032007635 0.75647968
-0.007577539 0.030310184 0.75407863
-0.0074774828 0.028663725 0.75177515
-0.0073811947 0.027064413 0.74955845
-0.0072884564 0.025509626 0.74742341
-0.0071990942 0.023997009 0.74536604
-0.007112917 0.022524267 0.7433821
-0.0070296652 0.021088988 0.74146545
-0.0069493405 0.019689828 0.73961616
-0.0068715187 0.018324077 0.73782456
-0.0067963521 0.01699093 0.73609412
-0.0067233443 0.015687823 0.73441327
-0.0066526821 0.014414191 0.73278642
-0.0065840478 0.013168097 0.73120642
-0.0065176254 0.011949003 0.72967714
-0.0064529493 0.010754943 0.72818816
-0.0063903681 0.0095855594 0.72674745
-0.0063290563 0.008438766 0.7253359
-0.0062698792 0.0073148608 0.72397357
-0.0062119071 0.0062119067 0.72263885
-0.0061558033 0.005129844 0.72134733
-0.0061008292 0.0040672421 0.72008169
-0.0060476479 0.0030238628 0.71885729
-0.0059953863 0.0019985139 0.71765411
-0.0059447726 0.00099083781 0.71648884
-0.0058951033 2.9802322e-08 0.71534538
-0.0058468315 -0.00097444654 0.71423405
-0.0058098813 -0.0019365847 0.71338344
-0.0057904054 -0.0028951764 0.71293503
-0.005774179 -0.0038494766 0.71256149
-0.0057581919 -0.0047984719 0.71219343
-0.0057436605 -0.0057436526 0.71185887
-0.0057304902 -0.0066855252 0.71155566
-0.0057173991 -0.0076231658 0.71125424
-0.0057053156 -0.0085579455 0.71097606
-0.0056949547 -0.0094915926 0.71073759
-0.0056846491 -0.010421842 0.71050024
-0.005675537 -0.011351049 0.71029055
-0.0056672273 -0.012278944 0.71009922
-0.0056601083 -0.013206899 0.70993531
-0.0056535448 -0.014133811 0.70978421
-0.0056476756 -0.015060425 0.70964909
-0.0056402492 -0.015980721 0.70947808
-0.0056254552 -0.01687637 0.70913756
-0.005600173 -0.017733902 0.70855552
-0.0055759014 -0.018586338 0.70799673
-0.0055518383 -0.019431412 0.7074427
-0.0055039921 -0.020181268 0.70634115
-0.0054754661 -0.020989239 0.70568442
-0.0054719565 -0.021887809 0.70560366
-0.0054981075 -0.022908777 0.70620573
-0.0056777396 -0.024603486 0.71034122
-0.005707962 -0.025685787 0.71103698
-0.005738507 -0.026779711 0.7117402
-0.0057693995 -0.027885407 0.71245146
-0.0058006081 -0.029003024 0.71316987
-0.0058321748 -0.03013292 0.71389669
-0.0058640675 -0.031275004 0.71463084
-0.0058963303 -0.032429814 0.71537364
-0.0059289308 -0.033597261 0.71612418
-0.0059618936 -0.034777701 0.71688306
-0.0059952452 -0.035971493 0.71765095
-0.0060289516 -0.037178516 0.71842682
-0.0060630599 -0.038399369 0.71921217
-0.0060975561 -0.039634079 0.72000629
-0.0061324262 -0.040882856 0.7208091
-0.0061676973 -0.042145938 0.7216211
-0.0061734584 -0.043214202 0.72175378
-0.0061765574 -0.0442653 0.72182506
-0.0061402973 -0.045028836 0.7209903
-0.0061425166 -0.046068847 0.72104138
-0.0077389423 0.055720419 0.79342788
-0.0075696972 0.052987903 0.78875232
-0.0074167112 0.050433666 0.78452575
-0.0072743031 0.048010439 0.78059149
-0.0071408255 0.045701295 0.77690399
-0.0070149694 0.043492854 0.77342701
-0.0068968306 0.041381031 0.77016324
-0.0067848638 0.039352238 0.76707
-0.0066780336 0.037397027 0.76411861
-0.0065770452 0.035516083 0.7613287
-0.0064801672 0.03369686 0.75865227
-0.0063875555 0.031937838 0.75609374
-0.0062991809 0.030236065 0.75365222
-0.0062142313 0.028585494 0.7513054
-0.0061327815 0.026984274 0.74905515
-0.0060541783 0.02542758 0.74688363
-0.0059788385 0.02391538 0.74480224
-0.0059058196 0.022442132 0.74278498
-0.0058357078 0.021008581 0.74084806
-0.005767778 0.019610435 0.73897147
-0.005702286 0.018247336 0.73716211
-0.0056389486 0.016916901 0.73541224
-0.0055775261 0.015617073 0.73371542
-0.0055181645 0.014347225 0.73207545
-0.0054603936 0.013104945 0.73047942
-0.0054045469 0.011890024 0.72893655
-0.0053501576 0.010700345 0.72743404
-0.0052975509 0.0095356107 0.72598064
-0.005246209 0.0083939731 0.72456223
-0.0051965611 0.0072751641 0.72319067
-0.0051478436 0.0061774552 0.72184473
-0.0051008537 0.0051008463 0.7205466
-0.0050547482 0.0040438175 0.71927285
-0.0050101439 0.0030061305 0.71804059
-0.0049663531 0.0019865632 0.71683079
-0.0049239569 0.00098478794 0.7156595
-0.0048823906 2.9802322e-08 0.71451116
-0.0048455438 -0.00096911192 0.71349323
-0.0048253378 -0.0019301176 0.71293503
-0.0048109908 -0.0028865635 0.71253866
-0.0047968985 -0.0038375258 0.71214938
-0.0047837966 -0.0047837794 0.7117874
-0.0047719302 -0.0057263076 0.71145952
-0.0047601066 -0.0066641271 0.71113288
-0.0047492208 -0.0075987279 0.71083218
-0.0047395634 -0.0085312128 0.71056539
-0.0047302158 -0.0094603896 0.71030712
-0.0047216844 -0.010387689 0.71007144
-0.0047137067 -0.011312902 0.70985103
-0.0047069178 -0.012237966 0.70966351
-0.0047005047 -0.013161421 0.70948637
-0.0046945391 -0.014083594 0.7093215
-0.0046878052 -0.015000939 0.70913541
-0.0046724272 -0.015886217 0.70871061
-0.004650217 -0.016740769 0.70809704
-0.0046286634 -0.017588913 0.70750165
-0.0045936313 -0.018374503 0.70653373
-0.0045672329 -0.019182354 0.70580447
-0.0045430791 -0.01998952 0.70513719
-0.0045450646 -0.020907283 0.70519203
-0.0046941391 -0.022531837 0.70931041
-0.0047189421 -0.023594707 0.70999563
-0.0047439937 -0.024668783 0.71068776
-0.0047693281 -0.025754362 0.71138763
-0.0047949189 -0.026851535 0.71209466
-0.0048208013 -0.027960598 0.71280968
-0.0048469491 -0.029081702 0.71353209
-0.0048733978 -0.030215025 0.71426272
-0.0049001207 -0.031360745 0.71500099
-0.0049271551 -0.032519221 0.71574795
-0.0049544722 -0.033690363 0.71650255
-0.0049820943 -0.034874648 0.71726573
-0.0050100428 -0.036072254 0.71803772
-0.0050382898 -0.037283331 0.71881819
-0.0050668912 -0.038508356 0.71960837
-0.0050958022 -0.039747208 0.72040701
-0.0051250267 -0.041000217 0.72121441
-0.0051545892 -0.042267621 0.72203112
-0.005184494 -0.043549746 0.72285736
-0.005187768 -0.044614792 0.72294772
-0.0051882928 -0.045656979 0.72296226
-0.0051537496 -0.046383709 0.72200787
-0.0051646507 -0.047514737 0.72230905
-0.0060848435 0.053242385 0.78975666
-0.005954992 0.050617427 0.78527248
-0.0058349422 0.048138291 0.78112686
-0.0057231314 0.045785099 0.77726561
-0.0056184167 0.043542802 0.77364939
-0.0055205878 0.041404456 0.77027112
-0.0054280148 0.039353132 0.76707423
-0.0053400523 0.037380368 0.76403666
-0.0052569164 0.035484165 0.76116568
-0.0051777707 0.033655524 0.75843257
-0.0051018479 0.031886578 0.75581062
-0.0050297142 0.030178279 0.75331968
-0.0049603567 0.028522074 0.75092453
-0.0048940135 0.0269171 0.74863344
-0.0048301271 0.02535814 0.7464273
-0.0047689006 0.02384451 0.74431294
-0.0047095981 0.022370607 0.74226505
-0.0046528443 0.0209378 0.74030513
-0.004597744 0.019540399 0.73840237
-0.0045446972 0.018178791 0.73657048
-0.0044933697 0.016850173 0.73479795
-0.0044436697 0.015552849 0.7330817
-0.0043957233 0.014286101 0.731426
-0.0043490548 0.013047189 0.72981435
-0.0043040053 0.011836052 0.72825867
-0.0042600622 0.010650188 0.72674108
-0.004217606 0.0094896257 0.72527498
-0.004176178 0.0083523393 0.72384435
-0.0041361451 0.0072382689 0.72246188
-0.0040969853 0.0061454773 0.72110963
-0.0040591285 0.005073905 0.71980226
-0.004021951 0.0040219426 0.71851838
-0.003986076 0.0029895902 0.71727949
-0.0039508352 0.0019754469 0.71606255
-0.0039167153 0.00097921491 0.71488422
-0.0038834582 2.9802322e-08 0.71373576
-0.0038624138 -0.00096556544 0.71300906
-0.0038498638 -0.0019249022 0.71257567
-0.003838076 -0.0028785169 0.71216857
-0.0038267542 -0.0038267672 0.71177769
-0.0038164048 -0.0047704875 0.71142018
-0.0038064646 -0.0057097077 0.71107697
-0.0037970727 -0.0066448748 0.71075261
-0.0037883904 -0.0075767934 0.71045285
-0.0037803485 -0.0085057318 0.7101751
-0.003772795 -0.0094319582 0.70991427
-0.003765546 -0.010355234 0.70966393
-0.0037594768 -0.01127845 0.7094543
-0.0037536758 -0.012199432 0.70925397
-0.0037480465 -0.013118148 0.70905954
-0.0037419396 -0.014032274 0.70884871
-0.0037290249 -0.014916092 0.70840275
-0.0037110404 -0.015771925 0.70778161
-0.0036929187 -0.016618103 0.70715582
-0.0036633506 -0.017400891 0.70613474
-0.0036413383 -0.018206656 0.7053746
-0.0036223556 -0.019017369 0.70471907
-0.0036256125 -0.019940823 0.7048316
-0.0037454858 -0.021536529 0.70897114
-0.0037652242 -0.022591293 0.70965278
-0.0037851601 -0.023657233 0.71034122
-0.0038053079 -0.024734467 0.71103692
-0.0038256836 -0.025823355 0.71174067
-0.0038462663 -0.026923835 0.71245146
-0.0038670844 -0.028036356 0.71317035
-0.0038881162 -0.029160857 0.71389663
-0.0039093909 -0.030297786 0.71463132
-0.0039308867 -0.031447083 0.71537364
-0.0039526336 -0.032609224 0.71612465
-0.0039746091 -0.033784151 0.71688354
-0.00399683 -0.034972221 0.71765089
-0.0040193149 -0.03617382 0.71842736
-0.0040420396 -0.037388831 0.71921211
-0.0040650377 -0.038617849 0.72000629
-0.004088298 -0.039860845 0.72080958
-0.0041118124 -0.041118056 0.72162157
-0.0041355984 -0.04238987 0.72244304
-0.0041596764 -0.043676585 0.72327447
-0.0041823001 -0.044959694 0.72405577
-0.0041807569 -0.045988321 0.72400242
-0.0041776737 -0.046998799 0.72389597
-0.0041505476 -0.04773128 0.72295922
-0.0045928815 0.053583622 0.79110342
-0.0044886689 0.050871611 0.78630501
-0.0043931217 0.048324347 0.78190565
-0.004304837 0.045918286 0.77784061
-0.004222807 0.043635696 0.77406359
-0.0041463291 0.041463315 0.77054226
-0.0040743202 0.03938517 0.76722658
-0.0040061362 0.03739059 0.7640872
-0.0039418335 0.035476536 0.7611264
-0.0038808279 0.033633858 0.75831747
-0.0038224843 0.031854033 0.75563109
-0.0037672203 0.030137777 0.75308645
-0.0037140264 0.028474241 0.75063717
-0.0036632009 0.026863486 0.74829692
-0.0036144357 0.025301099 0.74605155
-0.0035676793 0.023784518 0.74389875
-0.003522604 0.02230984 0.74182326
-0.0034793315 0.02087599 0.73983085
-0.0034374669 0.019479007 0.73790318
-0.0033971537 0.018118173 0.73604703
-0.0033581418 0.016790748 0.73425066
-0.003320436 0.01549539 0.73251456
-0.0032840145 0.014230758 0.73083758
-0.0032486198 0.012994498 0.72920787
-0.0032145244 0.01178661 0.72763801
-0.0031812394 0.010604143 0.72610539
-0.0031491476 0.0094474554 0.72462773
-0.0031177839 0.0083141029 0.72318363
-0.0030874878 0.0072041452 0.72178864
-0.0030578796 0.0061157644 0.72042537
-0.0030292654 0.0050487816 0.71910787
-0.0030012326 0.0040016472 0.71781707
-0.00297414 0.0029741526 0.71656966
-0.0029475321 0.0019650757 0.71534449
-0.0029217978 0.00097391009 0.71415961
-0.0029006905 2.9802322e-08 0.71318769
-0.0028894083 -0.00096312165 0.71266824
-0.0028801647 -0.001920104 0.7122426
-0.0028711648 -0.0028711259 0.71182823
-0.0028626344 -0.003816843 0.71143544
-0.0028548848 -0.0047581196 0.71107864
-0.0028473136 -0.0056946278 0.71073002
-0.0028400719 -0.0066267848 0.71039653
-0.0028336674 -0.0075564384 0.71010166
-0.0028274711 -0.0084823966 0.7098164
-0.0028213642 -0.0094045699 0.70953524
-0.00281635 -0.010326594 0.70930433
-0.0028114691 -0.011245877 0.7090795
-0.0028067813 -0.012162715 0.70886374
-0.0028020388 -0.013076186 0.70864534
-0.0027929952 -0.013964951 0.70822895
-0.0027781148 -0.014816552 0.70754379
-0.0027637945 -0.015661508 0.70688444
-0.0027418723 -0.01645124 0.70587504
-0.0027246734 -0.01725623 0.70508313
-0.0027096791 -0.018064499 0.70439273
-0.0027120512 -0.018984348 0.70450193
-0.0028017659 -0.020546257 0.70863283
-0.0028164834 -0.021593034 0.70931041
-0.0028313745 -0.022650987 0.7099961
-0.0028464054 -0.023720026 0.71068823
-0.0028615969 -0.02480045 0.71138763
-0.0028769604 -0.025892615 0.71209514
-0.0028924809 -0.026996464 0.71280968
-0.0029081788 -0.028112382 0.71353251
-0.0029240386 -0.02924037 0.71426278
-0.0029400822 -0.030380845 0.71500146
-0.0029562928 -0.031533748 0.71574789
-0.0029726932 -0.032699615 0.71650302
-0.0029892665 -0.033878326 0.71726608
-0.0030060255 -0.03507027 0.71803772
-0.0030229839 -0.036275804 0.7188186
-0.0030401244 -0.037494838 0.71960783
-0.0030574705 -0.038727939 0.72040653
-0.0030750162 -0.039975226 0.72121441
-0.0030927535 -0.041236699 0.72203112
-0.0031106966 -0.042512834 0.7228573
-0.0031288601 -0.04380402 0.72369361
-0.003147237 -0.045110375 0.72453976
-0.0031574615 -0.046309412 0.72501057
-0.003155909 -0.047338635 0.72493905
-0.003140667 -0.048156857 0.7242372
-0.0031359093 -0.049129218 0.72401816
-0.0030885846 0.054050267 0.79294497
-0.0030128942 0.051219225 0.78771734
-0.0029444641 0.048583686 0.78299117
-0.0028820031 0.04611209 0.77867717
-0.0028244152 0.043778479 0.77469975
-0.0027708511 0.041562796 0.77100027
-0.0027207236 0.039450496 0.76753813
-0.0026735547 0.03742978 0.76428032
-0.0026292249 0.035494566 0.76121867
-0.0025872863 0.033634722 0.75832212
-0.0025473188 0.031841487 0.75556171
-0.0025094035 0.030112863 0.75294304
-0.0024732379 0.028442293 0.75044513
-0.0024385694 0.026824266 0.74805081
-0.0024054334 0.025257081 0.74576223
-0.0023735838 0.023735851 0.7435624
-0.0023430649 0.022259116 0.7414546
-0.0023136984 0.02082333 0.73942637
-0.0022854016 0.019425929 0.737472
-0.0022581057 0.018064857 0.73558682
-0.0022317974 0.016738504 0.73376977
-0.0022062997 0.01544413 0.73200876
-0.00218173 0.014181256 0.73031175
-0.0021578737 0.012947261 0.7286641
-0.0021348554 0.011741728 0.72707433
-0.0021124503 0.010562301 0.72552687
-0.0020908413 0.0094088018 0.72403443
-0.0020697133 0.0082788467 0.72257519
-0.0020493751 0.0071728528 0.72117049
-0.0020294327 0.0060883164 0.71979314
-0.0020102211 0.0050255656 0.71846628
-0.0019913765 0.0039827824 0.71716475
-0.0019731894 0.0029598176 0.71590865
-0.0019553252 0.0019553602 0.71467477
-0.0019384953 0.00096923113 0.71351242
-0.0019283644 2.9802322e-08 0.71281272
-0.0019219649 -0.00096091628 0.71237075
-0.001915614 -0.0019156039 0.71193212
-0.0019094705 -0.0028642118 0.7115078
-0.0019040609 -0.003808111 0.7111342
-0.0018986817 -0.0047467053 0.71076268
-0.0018933452 -0.0056800246 0.71039408
-0.0018888597 -0.0066109896 0.71008426
-0.0018843955 -0.0075375438 0.70977592
-0.0018799523 -0.0084597468 0.70946908
-0.00187624 -0.0093812048 0.70921266
-0.0018726427 -0.010299504 0.70896423
-0.001869241 -0.011215448 0.70872933
-0.0018659162 -0.012128413 0.70849967
-0.0018601625 -0.013021141 0.70810229
-0.0018503711 -0.013877779 0.70742607
-0.001840443 -0.014723539 0.70674038
-0.001830621 -0.015560269 0.70606196
-0.0018134584 -0.016321093 0.70487654
-0.0018029428 -0.017127961 0.70415032
-0.0018033965 -0.018033952 0.70418167
-0.0018629766 -0.019561231 0.7082966
-0.0018727429 -0.02060014 0.70897114
-0.0018826062 -0.021649957 0.70965236
-0.0018925801 -0.022710949 0.71034127
-0.001902654 -0.023783147 0.71103698
-0.0019128356 -0.024866819 0.7117402
-0.0019231332 -0.025962263 0.7124514
-0.0019335359 -0.027069479 0.71316993
-0.0019440581 -0.028188825 0.71389669
-0.0019546892 -0.0293203 0.71463084
-0.0019654434 -0.030464381 0.71537369
-0.0019763103 -0.03162095 0.71612418
-0.0019873045 -0.032790512 0.71688354
-0.001998415 -0.033973068 0.71765089
-0.0020096505 -0.035168886 0.71842688
-0.0020210198 -0.036378324 0.71921217
-0.0020325116 -0.037601441 0.72000581
-0.002044142 -0.038838714 0.7208091
-0.0020559062 -0.040090144 0.72162163
-0.0020677992 -0.041355997 0.72244298
-0.002079831 -0.042636514 0.72327399
-0.0020920108 -0.043932199 0.72411519
-0.0021043266 -0.045242995 0.72496575
-0.0021167882 -0.046569318 0.72582644
-0.0021169614 -0.047631621 0.72583842
-0.0021153202 -0.048652351 0.72572505
-0.002101026 -0.049374104 0.72473788
-0.0015619902 0.054669678 0.79538965
-0.0015200368 0.05168125 0.78959447
-0.0014828615 0.04893446 0.78445935
-0.0014492526 0.046376109 0.77981687
-0.0014185598 0.043975383 0.77557713
-0.0013902636 0.041707933 0.77166855
-0.0013639305 0.03955397 0.76803112
-0.0013393238 0.037501097 0.76463211
-0.0013163115 0.035540462 0.76145333
-0.0012946117 0.033659905 0.75845587
-0.0012739813 0.031849563 0.75560611
-0.0012544476 0.030106783 0.75290793
-0.0012358944 0.028425574 0.75034505
-0.0012181411 0.026799113 0.7478928
-0.0012012497 0.025226265 0.74555945
-0.0011849665 0.023699373 0.74331027
-0.0011694041 0.022218704 0.74116063
-0.0011544467 0.020780027 0.7390945
-0.0011400506 0.019380867 0.73710597
-0.0011261968 0.018019199 0.73519218
-0.0011128505 0.016692787 0.73334873
-0.0010999104 0.015398741 0.73156124
-0.0010874904 0.014137387 0.72984564
-0.0010753867 0.012904644 0.72817373
-0.0010637622 0.011701375 0.72656804
-0.0010524238 0.010524243 0.72500181
-0.001041507 0.0093736053 0.72349381
-0.0010308535 0.0082468688 0.72202224
-0.0010205733 0.0071440041 0.72060221
-0.0010105204 0.0060631335 0.71921349
-0.001000825 0.005004108 0.71787429
-0.00099132385 0.0039653182 0.71656191
-0.00098215055 0.0029464662 0.71529472
-0.00097315828 0.0019463301 0.71405262
-0.0009660896 0.00096610188 0.71307617
-0.00096226973 2.9802322e-08 0.71254855
-0.00095896213 -0.00095897913 0.71209168
-0.00095576007 -0.0019114912 0.71164936
-0.00095280213 -0.0028584003 0.71124083
-0.00094995036 -0.0037998259 0.7108469
-0.00094718212 -0.0047358871 0.71046448
-0.00094469084 -0.0056681037 0.71012032
