# .PCD v0.7 - Point Cloud Data file format
VERSION 0.7
FIELDS x y z
SIZE 4 4 4
TYPE F F F
COUNT 1 1 1
WIDTH 1339
HEIGHT 1
VIEWPOINT 0 0 0 1 0 0 0
POINTS 1339
DATA ascii
0.0043726666 -0.0076521337 0.73062968
0.0043621319 -0.0087242424 0.73026592
0.0043517277 -0.009791404 0.72990662
0.0043414519 -0.010853589 0.72955179
0.0043312092 -0.011910796 0.72919804
0.0043210303 -0.012963057 0.72884655
0.0043109301 -0.014010489 0.7284978
0.0043010172 -0.01505354 0.72815549
0.0042911503 -0.016091794 0.72781467
0.0042813281 -0.017125309 0.72747546
0.0042715506 -0.018154055 0.72713786
0.0042618937 -0.01917851 0.72680438
0.0042523723 -0.020198762 0.72647554
0.0042428928 -0.021214426 0.72614825
0.0042334562 -0.022225618 0.72582233
0.0042240904 -0.02323249 0.72549886
0.0042148861 -0.024235547 0.72518098
0.0042057219 -0.025234282 0.72486454
0.0041966122 -0.026228815 0.72455001
0.0041875271 -0.027218908 0.72423619
0.0041785687 -0.028205305 0.7239269
0.004169737 -0.029188126 0.7236219
0.0041611022 -0.030167967 0.7233237
0.0041577863 -0.031183392 0.7232092
0.0041614375 -0.03225109 0.72333533
0.0041657798 -0.033326209 0.72348523
0.0041703363 -0.034405261 0.72364259
0.0041758553 -0.035494745 0.7238332
0.0041813892 -0.036587119 0.7240243
0.0041877921 -0.037690073 0.72424537
0.0041949693 -0.038803458 0.72449327
0.0042024236 -0.039922982 0.7247507
0.0042110067 -0.041057289 0.72504711
0.0042196251 -0.042196214 0.72534478
0.0042253509 -0.043309838 0.72554243
0.0042219469 -0.044330448 0.72542489
0.0042162905 -0.0453251 0.7252295
0.0042110514 -0.046321571 0.72504866
0.0041975151 -0.047222018 0.72458118
0.0041891928 -0.048175722 0.72429377
0.0041861562 -0.049187303 0.72418892
0.0064565884 0.060691953 0.75800085
0.006426563 0.059124351 0.75717139
0.0064017451 0.057615727 0.75648576
0.0063771186 0.056118667 0.75580537
0.0063528433 0.054634482 0.75513482
0.0063293446 0.053166509 0.75448561
0.0063060196 0.051709354 0.75384116
0.0062828655 0.050262988 0.75320148
0.0062601976 0.048829556 0.75257528
0.0062380587 0.047409326 0.75196362
0.0062161018 0.045999169 0.75135708
0.0061942986 0.044598967 0.75075471
0.0061729043 0.043210357 0.75016367
0.0061520138 0.041833758 0.74958652
0.0061312639 0.040466368 0.7490133
0.0061106537 0.039108217 0.7484439
0.0060902815 0.037759751 0.74788105
0.0060703913 0.036422372 0.74733156
0.0060507292 0.035094261 0.74678838
0.0060312189 0.033774853 0.74624944
0.0060118577 0.032464057 0.74571455
0.0059928619 0.031162888 0.74518973
0.0059742024 0.029871047 0.74467421
0.0059556584 0.028587192 0.74416184
0.0059372527 0.027311385 0.74365342
0.0059190551 0.026043862 0.74315065
0.0059011793 0.024784982 0.74265683
0.005883574 0.023534298 0.74217045
0.0058660731 0.022291124 0.74168694
0.0058486531 0.021055162 0.74120569
0.0058314051 0.0198268 0.74072927
0.0058145318 0.018606514 0.7402631
0.0057977554 0.017393291 0.73979956
0.0057811653 0.01618728 0.73934126
0.0057646697 0.014988124 0.73888558
0.0057484242 0.01379624 0.73843676
0.005732358 0.01261124 0.73799288
0.0057164254 0.011432886 0.73755276
0.0057007121 0.010261327 0.7371186
0.0056850635 0.0090961158 0.73668629
0.0056696516 0.0079375207 0.73626053
0.0056543015 0.0067851841 0.73583645
0.0056391843 0.0056391954 0.7354188
0.0056242323 0.0044993758 0.73500574
0.005609402 0.0033656359 0.73459601
0.0055946712 0.0022378564 0.73418909
0.0055799959 0.0011160374 0.7337836
0.0055655851 2.9802322e-08 0.73338556
0.0055513522 -0.0011102557 0.73299229
0.0055371919 -0.002214849 0.73260117
0.0055231452 -0.0033138394 0.73221302
0.0055091484 -0.0044072866 0.73182636
0.0054954053 -0.0054953992 0.73144668
0.0054817717 -0.0065781176 0.73107004
0.0054682251 -0.0076555014 0.73069578
0.0054547852 -0.0087276399 0.73032451
0.005441471 -0.0097946227 0.72995669
0.0054283408 -0.010856688 0.72959393
0.0054152934 -0.011913657 0.7292335
0.0054023084 -0.01296553 0.7288748
0.0053894054 -0.014012456 0.72851825
0.0053767385 -0.015054822 0.72816837
0.0053641889 -0.016092569 0.72782165
0.0053516789 -0.017125368 0.727476
0.0053392462 -0.018153429 0.72713256
0.0053268713 -0.019176722 0.72679073
0.0053147622 -0.02019605 0.72645617
0.0053027081 -0.02121079 0.72612315
0.005290709 -0.022220939 0.72579163
0.0052787634 -0.023226559 0.72546166
0.0052669467 -0.024227917 0.72513515
0.0052553127 -0.02522549 0.72481376
0.0052437298 -0.026218623 0.72449374
0.00523218 -0.027207315 0.72417474
0.0052207168 -0.028191864 0.723858
0.0052094506 -0.029172897 0.72354674
0.0051989774 -0.030154049 0.72325742
0.005196779 -0.03118065 0.72319663
0.0052016876 -0.032250434 0.72333229
0.0052067693 -0.033323318 0.72347265
0.0052123903 -0.034401715 0.72362792
0.0052189766 -0.035489023 0.72380996
0.0052258912 -0.036581218 0.72400099
0.0052341688 -0.03768599 0.72422963
0.0052427133 -0.038796067 0.72446573
0.0052518789 -0.03991428 0.72471893
0.0052621937 -0.041045099 0.7250039
0.0052726618 -0.042181253 0.72529304
0.0052778828 -0.043278635 0.72543728
0.0052715028 -0.044280589 0.72526103
0.00526415 -0.045271695 0.72505796
0.0052569848 -0.04626146 0.72485995
0.0052389633 -0.047150642 0.72436213
0.0052292543 -0.048109084 0.72409385
0.0052374876 -0.049232364 0.72432125
0.0078122546 0.061196059 0.75948232
0.0077556851 0.059460253 0.75818002
0.0077245282 0.057933956 0.75746262
0.0076936875 0.056420416 0.75675267
0.007663059 0.054918587 0.75604749
0.0076331627 0.053432196 0.75535923
0.0076039853 0.051960588 0.75468755
0.0075749978 0.050499976 0.75402015
0.0075462623 0.049050748 0.7533586
0.0075185043 0.047617257 0.75271958
0.0074910754 0.046194971 0.75208807
0.0074638152 0.044782877 0.75146049
0.0074369069 0.043381959 0.75084102
0.0074107773 0.041994423 0.75023949
0.0073849219 0.040617079 0.74964422
0.007359277 0.03924948 0.74905378
0.0073338998 0.037891835 0.74846959
0.0073091756 0.036545873 0.74790037
0.007284767 0.035209745 0.74733841
0.0072605209 0.033882439 0.74678028
0.0072364351 0.032563955 0.74622577
0.0072128586 0.031255752 0.74568295
0.0071896962 0.029957086 0.74514967
0.0071667107 0.028666884 0.7446205
0.0071438714 0.027384877 0.74409473
0.0071213767 0.026111752 0.74357682
0.0070992485 0.024847388 0.74306744
0.0070774266 0.023591429 0.74256504
0.007055738 0.022343159 0.74206567
0.0070342929 0.021102905 0.74157196
0.0070130327 0.019870281 0.74108249
0.0069922297 0.018645972 0.74060357
0.0069716312 0.017429113 0.74012935
0.0069511267 0.016219288 0.73965728
0.0069307429 0.015016615 0.73918802
0.006910692 0.013821393 0.73872644
0.0068909428 0.012633383 0.73827177
0.0068713329 0.011452258 0.73782027
0.0068519134 0.010277897 0.73737317
0.0068326029 0.0091101527 0.73692864
0.0068136617 0.0079492927 0.73649257
0.0067948513 0.0067948699 0.73605949
0.0067762206 0.0056468546 0.73563063
0.0067577949 0.0045051873 0.73520643
0.0067395456 0.0033697784 0.73478627
0.00672147 0.002240479 0.73437011
0.0067034913 0.0011172891 0.73395622
0.0066858344 2.9802322e-08 0.73354971
0.0066683446 -0.0011113882 0.73314714
0.0066509708 -0.0022169948 0.73274708
0.0066336878 -0.0033168197 0.73234916
0.0066164937 -0.0044110119 0.73195338
0.0065996819 -0.0054997206 0.73156631
0.0065829791 -0.0065829754 0.7311818
0.0065663853 -0.0076607764 0.73079979
0.006549899 -0.0087332129 0.73042023
0.0065334709 -0.0098001957 0.73004198
0.006517435 -0.01086235 0.72967279
0.0065014539 -0.01191932 0.72930491
0.0064855739 -0.012971103 0.72893929
0.0064697955 -0.01401788 0.72857606
0.0064541865 -0.015059739 0.72821665
0.0064388155 -0.016097039 0.72786283
0.0064235176 -0.017129362 0.72751057
0.0064082691 -0.018156737 0.72715962
0.0063931383 -0.019179404 0.72681123
0.0063782842 -0.020197898 0.72646928
0.0063635674 -0.021211863 0.72613049
0.0063488954 -0.022221088 0.72579265
0.0063343137 -0.023225814 0.72545695
0.0063197766 -0.024225801 0.72512227
0.0063055507 -0.025222182 0.72479475
0.0062914114 -0.026214212 0.72446924
0.0062773349 -0.027201772 0.72414517
0.0062633213 -0.028184921 0.72382253
0.0062494576 -0.029164106 0.72350341
0.0062380093 -0.030150354 0.72323978
0.0062372903 -0.031186432 0.72322321
0.0062429858 -0.032255411 0.7233544
0.0062488229 -0.033327043 0.72348881
0.0062558991 -0.034407437 0.72365171
0.006263739 -0.035494477 0.72383219
0.0062716864 -0.036584824 0.72401512
0.006281489 -0.037688911 0.72424078
0.0062913224 -0.038796455 0.72446722
0.0063022329 -0.039914101 0.72471839
0.0063143643 -0.041043341 0.72499764
0.006326207 -0.042174697 0.72527033
0.0063288771 -0.043247312 0.72533178
0.0063205599 -0.044243932 0.72514033
0.0063118851 -0.045235157 0.72494066
0.006303323 -0.046224356 0.72474349
0.0062810909 -0.047108144 0.72423166
0.0062678973 -0.048053861 0.72392792
0.0091082761 0.059854418 0.75936353
0.0090687564 0.058299184 0.75858366
0.0090307537 0.056764752 0.75783378
0.0089933015 0.055244595 0.75709468
0.0089561585 0.053736955 0.75636172
0.008920162 0.05224669 0.75565141
0.0088848704 0.05077067 0.75495499
0.0088498574 0.049306363 0.75426412
0.0088153435 0.047854722 0.75358295
0.0087819491 0.046418905 0.75292403
0.0087488443 0.044994056 0.75227076
0.0087159872 0.043579936 0.75162238
0.0086838109 0.042178512 0.75098741
0.0086524468 0.040790141 0.75036848
0.008621309 0.039411724 0.74975407
0.0085903937 0.038043201 0.74914396
0.0085602272 0.036686718 0.74854869
0.0085306922 0.035341442 0.74796587
0.0085013239 0.034005314 0.7473864
0.008472262 0.032678753 0.74681294
0.0084436378 0.031362116 0.74624795
0.0084156822 0.03005603 0.74569643
0.0083879447 0.028758705 0.74514902
0.0083603896 0.027469873 0.74460524
0.008333182 0.026190013 0.74406838
0.0083064819 0.02491948 0.74354148
0.0082801841 0.02365768 0.7430225
0.0082540838 0.022403955 0.74250746
0.0082281809 0.021158189 0.74199635
0.0082027297 0.019920945 0.74149412
0.0081776287 0.018691748 0.74099874
0.0081528407 0.017470419 0.74050969
0.0081282025 0.016256422 0.74002349
0.0081038401 0.015049994 0.73954266
0.008079716 0.013850957 0.73906672
0.0080561088 0.012659669 0.73860079
0.0080326712 0.011475295 0.73813832
0.0080093695 0.010297775 0.73767853
0.0079862019 0.0091271102 0.73722136
0.007963473 0.0079634786 0.73677284
0.0079409936 0.0068065822 0.73632926
0.0079186726 0.0056562424 0.73588872
0.007896564 0.0045123696 0.73545247
0.0078747002 0.0033748746 0.735021
0.0078531336 0.0022437572 0.73459542
0.0078317141 0.0011188388 0.73417276
0.0078104995 2.9802322e-08 0.7337541
0.0077895452 -0.0011127889 0.73334062
0.0077688191 -0.0022196472 0.73293161
0.0077482318 -0.0033206642 0.73252541
0.0077277529 -0.0044158399 0.73212123
0.0077076387 -0.0055054128 0.73172438
0.0076877438 -0.0065895021 0.73133177
0.0076679499 -0.0076679289 0.73094124
0.0076482585 -0.0087408423 0.73055255
0.0076286676 -0.0098082423 0.73016596
0.0076095383 -0.010870725 0.72978848
0.0075905328 -0.011927933 0.72941351
0.0075716218 -0.012979925 0.72904032
0.0075528049 -0.014026582 0.72866893
0.0075341351 -0.015068233 0.72830051
0.0075158295 -0.016105324 0.72793931
0.0074976394 -0.017137438 0.72758043
0.0074795107 -0.018164515 0.72722268
0.0074614952 -0.019186705 0.72686708
0.0074437801 -0.020204544 0.72651762
0.0074262279 -0.021217793 0.7261712
0.0074087847 -0.022226334 0.72582698
0.0073914235 -0.023230195 0.72548437
0.0073741432 -0.024229318 0.72514343
0.0073571778 -0.025224596 0.72480857
0.0073403935 -0.026215702 0.72447747
0.0073236604 -0.027202159 0.7241472
0.0073070284 -0.028184175 0.72381902
0.0072904462 -0.029161781 0.72349185
0.0072779325 -0.030151427 0.72324491
0.0072799427 -0.031199723 0.72328454
0.0072864401 -0.032268494 0.72341275
0.007293154 -0.033340126 0.72354531
0.007301365 -0.034420699 0.72370726
0.0073100822 -0.035506099 0.72387928
0.0073193084 -0.036596537 0.72406137
0.0073303138 -0.037698746 0.72427851
0.0073414808 -0.038804978 0.72449887
0.0073546045 -0.039924949 0.72475785
0.0073682969 -0.041051894 0.72502804
0.0073823021 -0.042184532 0.72530437
0.0073802085 -0.043226928 0.72526312
0.0073692878 -0.044215739 0.72504759
0.0073582442 -0.045200646 0.72482967
0.0073480108 -0.04618746 0.72462767
0.0073211621 -0.047064602 0.72409797
0.0073062335 -0.048012376 0.72380334
0.010494216 0.060341746 0.760827
0.010440611 0.058728456 0.7599014
0.010393406 0.057163715 0.75908637
0.01034784 0.055619627 0.75829959
0.010303207 0.054091871 0.7575289
0.010259002 0.052577406 0.75676566
0.010216007 0.051080048 0.75602329
0.010174068 0.049598634 0.75529915
0.010132473 0.048129261 0.75458091
0.010091686 0.046674043 0.75387669
0.01005216 0.04523474 0.75319421
0.010012985 0.043806851 0.75251776
0.0099741155 0.042390019 0.75184661
0.0099365003 0.040988058 0.7511971
0.0098994141 0.03959766 0.75055677
0.0098625626 0.038217455 0.74992049
0.009826269 0.036848515 0.7492938
0.0097909272 0.035492092 0.74868363
0.009756038 0.03414616 0.74808121
0.0097213965 0.032809764 0.74748302
0.0096872775 0.03148365 0.74689388
0.0096540228 0.030168831 0.74631971
0.0096211508 0.02886343 0.7457521
0.0095885023 0.027566969 0.74518842
0.0095562283 0.026279628 0.74463117
0.0095247049 0.02500236 0.74408674
0.0094936155 0.023734093 0.74355
0.0094627282 0.022474021 0.74301666
0.0094320048 0.021222025 0.74248624
0.0094019631 0.019979179 0.74196744
0.0093723331 0.018744737 0.74145585
0.0093430355 0.017518222 0.74094999
0.0093139224 0.016299397 0.74044728
0.009285314 0.015088677 0.73995334
0.0092569189 0.013885409 0.73946303
0.0092290537 0.012689948 0.73898196
0.009201427 0.011501789 0.73850489
0.0091740713 0.010320842 0.73803258
0.009146913 0.009146899 0.73756361
0.0091201952 0.0079801679 0.73710233
0.009093876 0.0068204403 0.73664784
0.0090677431 0.0056673586 0.73619664
0.0090417592 0.0045209229 0.73574799
0.0090159252 0.0033810139 0.73530191
0.0089907134 0.0022476912 0.73486662
0.0089656748 0.0011207461 0.73443431
0.0089407768 -0 0.73400438
0.0089161154 -0.0011144876 0.73357856
0.0088918237 -0.0022229552 0.73315912
0.008867763 -0.0033253729 0.73274362
0.0088438643 -0.0044218898 0.73233098
0.0088202255 -0.0055125952 0.73192281
0.0087968428 -0.0065975785 0.7315191
0.008773745 -0.0076769888 0.73112029
0.0087507684 -0.0087507367 0.73072356
0.0087279445 -0.0098189116 0.73032945
0.0087055257 -0.010881871 0.72994238
0.0086833164 -0.011939526 0.72955889
0.0086612199 -0.012991816 0.72917736
0.008639236 -0.014038742 0.72879779
0.0086173955 -0.015080422 0.72842067
0.0085960673 -0.016117573 0.72805238
0.0085748462 -0.017149657 0.72768605
0.0085536977 -0.018176615 0.72732079
0.0085326834 -0.019198507 0.72695798
0.0085118636 -0.02021566 0.7265985
0.0084914491 -0.021228641 0.72624606
0.0084711015 -0.022236615 0.72589469
0.0084508816 -0.023239881 0.72554553
0.0084307576 -0.024238378 0.72519803
0.0084109381 -0.025232792 0.72485584
0.0083913589 -0.026222974 0.72451776
0.00837187 -0.027208567 0.72418129
0.0083524436 -0.02818951 0.72384584
0.0083331354 -0.029165983 0.72351247
0.0083218841 -0.030166805 0.72331822
0.0083252629 -0.031219721 0.72337651
0.008332435 -0.032288164 0.72350037
0.0083396789 -0.033358693 0.72362542
0.008349102 -0.034440011 0.72378814
0.0083586639 -0.035524309 0.72395325
0.0083695147 -0.036616594 0.72414052
0.0083821062 -0.037719429 0.72435796
0.0083947638 -0.03882578 0.72457659
0.0084096594 -0.039945871 0.72483373
0.0084248167 -0.041070968 0.72509551
0.0084373355 -0.042186648 0.72531164
0.0084323417 -0.043215692 0.72522539
0.0084196888 -0.044203341 0.725007
0.0084072826 -0.045189112 0.72479272
0.0083799204 -0.04608956 0.72432029
0.0083619542 -0.047036022 0.72401011
0.0083462605 -0.047990978 0.72373915
0.011844759 0.059223861 0.76142192
0.011788522 0.057632744 0.76055884
0.011732867 0.056057096 0.75970459
0.011678347 0.054498971 0.75886786
0.011625897 0.052962452 0.75806284
0.011573866 0.051439404 0.75726432
0.011523191 0.049933851 0.75648648
0.01147404 0.04844594 0.75573218
0.011425258 0.046970516 0.75498337
0.011377372 0.045509517 0.75424844
0.011331134 0.044065565 0.75353885
0.01128527 0.042633265 0.75283486
0.011240011 0.041213393 0.75214022
0.011196284 0.039809048 0.75146914
0.011153037 0.038416028 0.75080538
0.011110121 0.037033737 0.75014669
0.011068267 0.035664439 0.74950433
0.011027318 0.034307241 0.7488758
0.010986716 0.032960176 0.74825263
0.010946412 0.031623006 0.74763405
0.010907201 0.030297786 0.74703228
0.010868669 0.028983116 0.74644089
0.010830408 0.027677745 0.74585366
0.010792676 0.026382118 0.74527448
0.010755638 0.025096536 0.74470598
0.010719326 0.023820728 0.74414873
0.010683301 0.022553682 0.74359578
0.010647645 0.021295309 0.74304855
0.010612478 0.020045817 0.74250877
0.010578086 0.018805504 0.74198097
0.010543999 0.017573386 0.74145782
0.010510132 0.016349107 0.74093795
0.010476644 0.015132934 0.74042398
0.01044386 0.013925165 0.73992085
0.0104114 0.012725055 0.73942268
0.010379303 0.011532575 0.73893005
0.010347444 0.010347456 0.73844105
0.010316137 0.0091699362 0.73796058
0.010285098 0.0079995394 0.73748416
0.010254559 0.0068364143 0.73701537
0.010224241 0.0056801438 0.73655009
0.010194295 0.0045308173 0.73609054
0.010164486 0.0033881962 0.73563302
0.010135311 0.0022523105 0.73518521
0.010106456 0.0011229813 0.73474234
0.010077726 2.9802322e-08 0.73430139
0.010049197 -0.001116544 0.73386353
0.010021017 -0.0022269189 0.73343098
0.0099933669 -0.003331095 0.7330066
0.0099658323 -0.004429251 0.732584
0.0099384869 -0.0055213869 0.73216432
0.0099114003 -0.0066075623 0.73174852
0.0098848622 -0.0076882243 0.7313413
0.0098584304 -0.0087630153 0.73093557
0.0098321391 -0.0098321438 0.73053205
0.0098062027 -0.010895759 0.73013401
0.009780582 -0.011954039 0.7297408
0.0097552016 -0.013006926 0.72935128
0.0097299879 -0.014054418 0.72896427
0.0097048692 -0.015096456 0.72857869
0.0096802991 -0.016133785 0.72820163
0.0096558891 -0.017165989 0.72782701
0.0096316002 -0.018193007 0.72745419
0.0096074697 -0.019214928 0.72708386
0.0095834937 -0.020231813 0.7267158
0.0095600113 -0.021244407 0.72635543
0.0095366789 -0.022252232 0.72599733
0.0095134592 -0.02325511 0.72564095
0.009490354 -0.02425313 0.72528636
0.0094675263 -0.02524671 0.72493601
0.0094450759 -0.026236296 0.72459137
0.0094226981 -0.027221084 0.72424793
0.0094004599 -0.028201371 0.72390664
0.0093784565 -0.029177427 0.72356898
0.0093677891 -0.030185103 0.72340518
0.0093738912 -0.031246305 0.72349888
0.0093815466 -0.032314211 0.72361636
0.0093897413 -0.033385724 0.72374213
0.0094004599 -0.034468323 0.72390658
0.0094112009 -0.035553426 0.72407144
0.0094236927 -0.036647648 0.72426319
0.0094373832 -0.037749529 0.7244733
0.0094515132 -0.038856179 0.72469026
0.0094680628 -0.039976239 0.72494423
0.0094847037 -0.041100353 0.72519964
0.0094969869 -0.042208821 0.72538817
0.0094862841 -0.043215275 0.72522384
0.0094712451 -0.044199109 0.72499305
0.0094572231 -0.045184463 0.72477788
0.0094250869 -0.046078205 0.72428465
0.0094041582 -0.047020793 0.72396338
0.0093920473 -0.048003793 0.72377753
0.013301051 0.059854776 0.76335871
0.013224281 0.058186829 0.76229829
0.013156245 0.056571871 0.76135844
0.013091035 0.054982394 0.76045763
0.013026469 0.053408533 0.75956583
0.012964685 0.051858753 0.75871241
0.012904099 0.05032602 0.75787544
0.012844355 0.048808575 0.75705022
0.01278725 0.047312826 0.75626141
0.012730597 0.04583016 0.75547886
0.012674929 0.044362307 0.7547099
0.012621353 0.042912602 0.75396985
0.012568227 0.041475147 0.75323606
0.012515863 0.040050775 0.75251263
0.01246524 0.038642257 0.75181341
0.012415283 0.03724587 0.75112337
0.012365881 0.035861075 0.7504409
0.012317788 0.03448984 0.7497766
0.012270674 0.033130854 0.74912584
0.01222392 0.03178221 0.74847996
0.01217792 0.03044486 0.74784452
0.012133254 0.02911979 0.74722761
0.012089013 0.027804732 0.74661648
0.012045045 0.026499122 0.74600911
0.012002025 0.025204271 0.74541485
0.011959841 0.023919702 0.74483216
0.011918191 0.022644579 0.74425691
0.01187683 0.021378309 0.74368548
0.011836319 0.020121723 0.74312592
0.011796553 0.018874526 0.7425766
0.011757239 0.017635852 0.74203366
0.011718324 0.016405702 0.74149603
0.011679758 0.015183687 0.74096334
0.011642037 0.013970464 0.74044228
0.011604831 0.012765318 0.73992836
0.011567907 0.01156795 0.73941827
0.011531218 0.010378122 0.73891145
0.011495292 0.0091962516 0.73841524
0.011459769 0.0080218315 0.73792458
0.011424681 0.0068548024 0.73743987
0.011389896 0.0056949854 0.73695934
0.011355626 0.0045422614 0.73648596
0.011321647 0.0033965111 0.73601663
0.011288129 0.0022576451 0.73555362
0.011255063 0.0011255741 0.73509693
0.011222276 -0 0.73464394
0.011189805 -0.001118958 0.73419547
0.011157564 -0.0022315085 0.7337501
0.011126049 -0.0033377707 0.73331475
0.011094753 -0.0044378638 0.7328825
0.011063632 -0.0055317879 0.73245263
0.011032645 -0.0066195726 0.73202455
0.011002318 -0.0077016056 0.73160565
0.010972279 -0.008777827 0.73119074
0.010942405 -0.0098481476 0.73077804
0.010912733 -0.010912716 0.7303682
0.0108835 -0.011971831 0.72996438
0.010854701 -0.013025612 0.72956663
0.010826013 -0.014073789 0.72917032
0.010797477 -0.015116453 0.7287761
0.010769326 -0.016153991 0.72838724
0.010741591 -0.017186552 0.72800416
0.010714077 -0.018213898 0.72762406
0.010686666 -0.019235969 0.72724545
0.010659394 -0.020252824 0.72686875
0.010632754 -0.021265507 0.72650075
0.010606248 -0.022273123 0.72613466
0.010579911 -0.023275793 0.72577083
0.010553668 -0.024273455 0.72540832
0.010527667 -0.025266409 0.72504914
0.0105022 -0.026255488 0.72469735
0.010476856 -0.027239799 0.72434735
0.010451599 -0.028219312 0.72399837
0.010427925 -0.02919817 0.72367138
0.01041963 -0.030216932 0.72355688
0.010426828 -0.031280458 0.72365624
0.010435242 -0.032349259 0.72377247
0.010444698 -0.033423007 0.72390312
0.010456191 -0.034505427 0.72406185
0.010467675 -0.035590082 0.72422045
0.010481731 -0.036686063 0.72441465
0.010496566 -0.037787616 0.72461951
0.010512409 -0.038895875 0.72483844
0.010530612 -0.040016353 0.72508985
0.010549027 -0.041141212 0.72534424
0.010556891 -0.042227566 0.72545284
0.010543006 -0.043226302 0.72526103
0.010525654 -0.044207752 0.72502136
0.010508546 -0.045186758 0.72478497
0.010470659 -0.046070904 0.7242617
0.010448404 -0.047017813 0.72395432
0.010450534 -0.048072428 0.72398371
0.014715466 0.058861852 0.76441741
0.014632007 0.057197839 0.76336944
0.014551174 0.055559069 0.76235431
0.014473213 0.053945601 0.76137531
0.014397983 0.052356333 0.76043063
0.014324097 0.050785452 0.75950277
0.01425382 0.0492405 0.75862026
0.014184231 0.047710598 0.75774646
0.014117146 0.046201557 0.75690401
0.014051838 0.044710368 0.75608385
0.01398731 0.043233514 0.75527358
0.013925388 0.04177621 0.75449598
0.013864307 0.040332526 0.75372893
0.013803991 0.038902164 0.75297153
0.013745988 0.037489057 0.75224316
0.013688698 0.036088407 0.75152373
0.013631944 0.034699529 0.75081104
0.013577064 0.033325493 0.75012195
0.013523185 0.031963885 0.74944532
0.013469731 0.030613035 0.74877405
0.013417523 0.029274583 0.74811846
0.013366702 0.027948588 0.74748027
0.013316264 0.026632518 0.74684691
0.013266475 0.025326908 0.7462216
0.013217911 0.024032593 0.74561185
0.013170124 0.022748441 0.74501175
0.013122736 0.021473587 0.74441671
0.013075949 0.020208299 0.74382913
0.013030219 0.018953085 0.7432549
0.012985171 0.01770708 0.74268919
0.012940534 0.016469777 0.74212873
0.012896661 0.015241534 0.74157768
0.012853337 0.014021844 0.74103367
0.012810956 0.012810946 0.74050146
0.012768852 0.011608094 0.73997277
0.012727222 0.0104132 0.73944998
0.01268611 0.0092262626 0.73893374
0.012645897 0.0080474019 0.73842871
0.012605987 0.0068759918 0.73792756
0.012566329 0.0057119727 0.7374295
0.012527207 0.0045553446 0.7369383
0.012488852 0.0034060478 0.73645663
0.012450731 0.0022638142 0.73597789
0.012413125 0.0011284947 0.7355057
0.012375933 -0 0.7350387
0.012339243 -0.0011216998 0.73457789
0.012302814 -0.0022368133 0.73412049
0.012266923 -0.0033455193 0.73366976
0.012231469 -0.004447788 0.73322463
0.012196356 -0.0055437982 0.73278368
0.012161489 -0.0066335201 0.73234576
0.01212709 -0.007717222 0.73191386
0.012093244 -0.0087950826 0.73148882
0.01205963 -0.0098669529 0.73106664
0.012026159 -0.010932863 0.73064637
0.01199296 -0.011992931 0.7302295
0.011960513 -0.013047844 0.72982204
0.011928241 -0.014097005 0.72941673
0.011896143 -0.015140533 0.72901368
0.011864259 -0.016178489 0.72861326
0.011833018 -0.017211646 0.728221
0.011802025 -0.018239498 0.72783184
0.011771237 -0.019261986 0.72744513
0.011740566 -0.020279169 0.72706008
0.011710349 -0.021291524 0.72668058
0.011680621 -0.022299349 0.72630727
0.011651001 -0.023301989 0.72593534
0.011621531 -0.024299562 0.72556525
0.011592292 -0.025292277 0.72519809
0.011563649 -0.026280999 0.72483838
0.011535189 -0.027264953 0.72448099
0.011506828 -0.028243989 0.72412479
0.011480901 -0.029224128 0.72379929
0.011475585 -0.030253768 0.72373247
0.011484569 -0.031321526 0.72384536
0.011493607 -0.032391101 0.72395885
0.011504157 -0.033466637 0.72409129
0.011516429 -0.034549266 0.72424543
0.011528685 -0.035634071 0.72439927
0.011544471 -0.036732405 0.72459757
0.011560421 -0.037834108 0.7247979
0.011578547 -0.038945973 0.72502542
0.01159854 -0.040067673 0.72527653
0.011618518 -0.041192919 0.72552735
0.011622812 -0.04226476 0.72558129
0.011603681 -0.043250054 0.72534108
0.011584821 -0.044232935 0.72510421
0.011566184 -0.045213252 0.7248702
0.011521823 -0.046087295 0.72431314
0.0114949 -0.047024578 0.72397506
0.016181633 0.057984233 0.76589543
0.016079564 0.056278467 0.76472044
0.015981847 0.054604679 0.76359564
0.015888283 0.052960962 0.76251864
0.015798606 0.051345468 0.76148635
0.015712148 0.049755126 0.76049113
0.01562834 0.048187405 0.75952643
0.015547996 0.046644032 0.75860155
0.01546861 0.045116812 0.75768775
0.015393282 0.043614328 0.75682062
0.015318881 0.042126983 0.75596422
0.015246629 0.040657699 0.75513256
0.015176797 0.039206713 0.75432873
0.015107666 0.037769198 0.75353289
0.015041001 0.036349088 0.75276548
0.014975675 0.034943312 0.7520135
0.014911102 0.033549964 0.75127029
0.014848503 0.032171786 0.75054967
0.014787224 0.03080672 0.74984431
0.01472651 0.029453039 0.74914539
0.014667377 0.028112501 0.7484647
0.014609614 0.026784331 0.74779981
0.014552425 0.02546677 0.74714148
0.014496326 0.024160564 0.74649578
0.014441595 0.022865862 0.7458657
0.014387623 0.021581441 0.74524438
0.014334285 0.020306915 0.74463046
0.014281854 0.019042462 0.74402696
0.014230656 0.017788321 0.74343759
0.014179937 0.016543269 0.74285376
0.014129521 0.015306979 0.74227345
0.014080576 0.014080584 0.74171001
0.014032132 0.012862802 0.74115235
0.013984295 0.011653572 0.74060172
0.01393711 0.010452837 0.74005854
0.01389062 0.009260416 0.73952341
0.013844922 0.0080762208 0.73899734
0.013799792 0.0068999231 0.73847783
0.01375522 0.005731374 0.73796481
0.013710882 0.0045703351 0.73745441
0.013667614 0.0034169257 0.73695636
0.013624826 0.0022708178 0.73646384
0.013582409 0.0011318922 0.73597556
0.013540255 2.9802322e-08 0.73549026
0.013499026 -0.0011248887 0.73501575
0.013458149 -0.0022429824 0.73454517
0.013417619 -0.0033544004 0.73407865
0.013377634 -0.0044591725 0.73361832
0.013338284 -0.0055575669 0.73316538
0.013299265 -0.0066495836 0.73271632
0.013260473 -0.0077352524 0.7322697
0.013222397 -0.0088149011 0.73183143
0.013184783 -0.0098886192 0.73139846
0.013147382 -0.010956138 0.73096794
0.01311024 -0.012017727 0.73054045
0.01307374 -0.013073742 0.73012024
0.013037727 -0.014124215 0.72970569
0.013001865 -0.015168816 0.72929287
0.0129662 -0.016207755 0.72888231
0.012931057 -0.017241418 0.72847784
0.012896477 -0.018270016 0.7280798
0.012862083 -0.0192931 0.72768384
0.01282787 -0.020310789 0.72729003
0.012793979 -0.021323293 0.72689992
0.012760766 -0.022331327 0.72651756
0.012727725 -0.023334146 0.72613728
0.012694901 -0.024331897 0.72575939
0.0126622 -0.025324374 0.72538298
0.012630159 -0.026312828 0.72501415
0.012598413 -0.027296543 0.72464871
0.012566827 -0.028275341 0.72428507
0.012541213 -0.029262811 0.72399026
0.012538569 -0.030301541 0.72395992
0.012547827 -0.031369567 0.72406638
0.012557099 -0.032439142 0.72417313
0.012568952 -0.033517182 0.72430956
0.012582335 -0.03460142 0.72446364
0.012596323 -0.035689592 0.72462469
0.012613731 -0.036790043 0.72482502
0.012631232 -0.037893683 0.72502655
0.012651382 -0.039008409 0.72525847
0.012672856 -0.040130705 0.72550571
0.012693275 -0.04125312 0.72574067
0.012690341 -0.042301148 0.72570693
0.012668403 -0.043283701 0.72545445
0.012645958 -0.04426083 0.725196
0.012625066 -0.045239836 0.72495556
0.012575108 -0.046108693 0.72438037
0.012546768 -0.047050357 0.72405422
0.017717363 0.057240725 0.76788521
0.017586162 0.055464029 0.76649106
0.017465167 0.053738981 0.76520544
0.017349098 0.052047312 0.7639721
0.01724086 0.050396413 0.76282203
0.017136548 0.048773259 0.76171368
0.017037319 0.047180295 0.76065928
0.01694146 0.04561165 0.75964075
0.016849684 0.044068426 0.7586655
0.016760277 0.042545319 0.75771552
0.016674904 0.041045934 0.7568084
0.016590469 0.039561898 0.75591123
0.016510056 0.038100123 0.7550568
0.016431049 0.036653906 0.75421727
0.016353762 0.035223484 0.75339609
0.016279528 0.033811361 0.75260729
0.016205966 0.032411963 0.75182569
0.01613475 0.03102839 0.75106895
0.016065357 0.029659122 0.75033158
0.015996691 0.028301865 0.74960196
0.015929727 0.026958019 0.74889052
0.015864622 0.025627494 0.74819863
0.015800046 0.024307787 0.74751246
0.015736891 0.023000091 0.74684143
0.015675256 0.021704257 0.74618649
0.015614481 0.020418942 0.74554074
0.015554612 0.019144177 0.74490464
0.01549607 0.017880082 0.7442826
0.015438708 0.016626328 0.74367303
0.015381889 0.015381902 0.74306935
0.015325671 0.014146775 0.74247199
0.01527131 0.01292187 0.74189436
0.015217273 0.011705607 0.74132019
0.015163735 0.010497987 0.74075133
0.015111282 0.0092992783 0.74019402
0.015059602 0.0081090331 0.73964483
0.015008623 0.006927073 0.7391032
0.01495822 0.0057531595 0.73856765
0.014908786 0.0045873523 0.73804235
0.014859735 0.0034292042 0.73752117
0.014811801 0.002278775 0.73701179
0.014764231 0.0011357069 0.73650634
0.014717133 2.9802322e-08 0.7360059
0.014670558 -0.0011284947 0.73551106
0.014625106 -0.0022500157 0.73502815
0.014579881 -0.003364563 0.73454756
0.014535043 -0.0044722855 0.73407108
0.014490752 -0.0055733323 0.7336005
0.01444727 -0.0066679418 0.73313844
0.014404101 -0.0077560246 0.73267978
0.014361404 -0.0088377595 0.73222613
0.014319276 -0.0099133253 0.73177844
0.014277712 -0.010982841 0.73133683
0.014236442 -0.012046188 0.73089826
0.014195564 -0.013103604 0.73046392
0.014155439 -0.014155447 0.73003763
0.014115644 -0.015201449 0.72961473
0.014076072 -0.01624158 0.72919428
0.014036721 -0.017275959 0.72877616
0.013998348 -0.01830551 0.7283684
0.013960237 -0.019329548 0.72796345
0.013922282 -0.020347923 0.72756016
0.013884533 -0.021360785 0.72715902
0.013847583 -0.022369176 0.72676647
0.013810977 -0.023372382 0.72637749
0.013774565 -0.024370372 0.72599053
0.013738393 -0.025363177 0.7256062
0.013702604 -0.026351154 0.72522593
0.013667484 -0.027334929 0.7248528
0.013632496 -0.028313607 0.72448099
0.013606397 -0.029306054 0.72420365
0.01360812 -0.030356556 0.72422194
0.01361809 -0.03142634 0.72432792
0.013628268 -0.032498151 0.72443604
0.01364178 -0.033579737 0.72457963
0.013655946 -0.034665078 0.72473019
0.013671496 -0.035756201 0.72489536
0.013690085 -0.036857933 0.72509295
0.013708726 -0.037962586 0.72529095
0.01373122 -0.039081156 0.72552997
0.013754326 -0.040204942 0.72577554
0.013775351 -0.041326046 0.72599894
0.013764168 -0.042351276 0.72588009
0.013739711 -0.043332934 0.72562015
0.013715534 -0.044311702 0.72536331
0.013666905 -0.045205891 0.7248466
0.013633458 -0.046143979 0.72449124
0.013603572 -0.047089279 0.72417367
0.019390538 0.056786627 0.77094674
0.019200252 0.05485785 0.76906931
0.019033572 0.053022087 0.76742476
0.018882254 0.051251858 0.76593179
0.018743865 0.04953739 0.7645663
0.018615726 0.047869056 0.76330197
0.018492859 0.046232164 0.76208973
0.018378496 0.044633508 0.76096129
0.018267944 0.043060184 0.75987059
0.018163148 0.041515827 0.75883657
0.018061429 0.039993167 0.75783294
0.017964641 0.03849569 0.75687796
0.017869649 0.037015706 0.75594068
0.017779531 0.035559088 0.75505155
0.017690314 0.034117043 0.75417131
0.017604817 0.032694697 0.75332779
0.017521398 0.031288236 0.75250465
0.017439567 0.029896438 0.7516973
0.017360741 0.02852124 0.75091958
0.017283129 0.027159214 0.75015372
0.01720727 0.025810927 0.74940532
0.017133981 0.024477154 0.7486822
0.017061453 0.023154855 0.74796653
0.016990229 0.021844566 0.74726385
0.016921246 0.020547271 0.74658322
0.016853029 0.019260645 0.74591011
0.016786035 0.017985046 0.74524909
0.01672058 0.016720593 0.74460328
0.016656363 0.01546666 0.74396968
0.01659297 0.014222562 0.74334425
0.016530585 0.012988329 0.74272865
0.016469901 0.011764258 0.74212998
0.016409922 0.010549247 0.74153817
0.016350506 0.0093431473 0.7409519
0.016292473 0.008146286 0.74037933
0.016235359 0.0069580376 0.73981583
0.016178772 0.0057781339 0.73925745
0.016122825 0.0046065152 0.73870552
0.016068194 0.0034432113 0.73816645
0.016014056 0.0022877455 0.73763227
0.015960708 0.0011400878 0.73710597
0.015908264 -0 0.73658848
0.015856342 -0.0011326075 0.73607624
0.015805241 -0.0022578537 0.73557198
0.015754942 -0.0033760369 0.73507571
0.015705142 -0.0044871867 0.73458433
0.015655654 -0.0055913031 0.73409611
0.015607238 -0.0066888034 0.73361832
0.015559412 -0.0077796876 0.73314649
0.015511879 -0.0088639259 0.73267746
0.015464747 -0.0099416077 0.73221248
0.015418647 -0.011013299 0.73175764
0.015372988 -0.012078762 0.73130709
0.015327601 -0.013137907 0.73085928
0.015282761 -0.014191121 0.73041689
0.01523874 -0.015238702 0.72998255
0.015195083 -0.016280472 0.72955179
0.01515162 -0.017316133 0.72912294
0.015108788 -0.018346369 0.72870034
0.015066745 -0.019371539 0.72828555
0.015024879 -0.020390898 0.72787243
0.014983245 -0.021404594 0.72746164
0.01494211 -0.022413164 0.72705579
0.014901787 -0.023417115 0.72665799
0.014861627 -0.024415523 0.72626168
0.014821685 -0.025408596 0.72586763
0.014782008 -0.026396424 0.72547615
0.014743273 -0.027380317 0.7250939
0.014704742 -0.028359085 0.72471368
0.014681046 -0.029362082 0.72447997
0.014685499 -0.030419946 0.7245239
0.014696074 -0.031491578 0.72462821
0.014706819 -0.032565087 0.72473425
0.014721796 -0.033649802 0.72488207
0.014736802 -0.034736753 0.72503012
0.014754192 -0.035831571 0.72520167
0.014774087 -0.03693518 0.725398
0.014794193 -0.038042188 0.72559637
0.0148191 -0.039164722 0.72584206
0.014844089 -0.040291101 0.72608864
0.014861044 -0.041398585 0.72625589
0.014844142 -0.042411834 0.72608918
0.014816357 -0.043390751 0.72581506
0.014789621 -0.044368833 0.72555125
0.014735186 -0.045258045 0.72501409
0.014698979 -0.046196789 0.72465694
0.014672923 -0.04716295 0.72439981
0.021145461 0.054978192 0.77435303
0.020798532 0.052689612 0.77115822
0.02055767 0.05070895 0.76894009
0.020357842 0.048858851 0.76709992
0.02018266 0.047092885 0.76548672
0.020023309 0.045386195 0.76401925
0.019878054 0.043731749 0.76268166
0.019743012 0.04211846 0.76143807
0.019613586 0.040534765 0.76024616
0.019493341 0.038986683 0.75913888
0.01937658 0.0374614 0.75806367
0.019266533 0.035964221 0.75705022
0.019159045 0.034486294 0.75606036
0.019057391 0.033032835 0.75512427
0.018957373 0.031595618 0.7542032
0.018862385 0.030179828 0.7533285
0.018768739 0.028778762 0.75246608
0.018678211 0.027394712 0.75163245
0.018590486 0.026026696 0.75082457
0.018504426 0.024672598 0.75003213
0.018421059 0.023333341 0.74926442
0.018339498 0.022007376 0.74851334
0.018259477 0.020694107 0.74777645
0.018182153 0.019394308 0.74706429
0.018105919 0.018105924 0.74636227
0.018030616 0.016828597 0.74566889
0.017957959 0.015563577 0.74499977
0.017886173 0.014308929 0.74433875
0.017815385 0.013064593 0.74368685
0.017746497 0.011831015 0.74305242
0.0176787 0.010607213 0.74242812
0.017611837 0.0093930066 0.74181235
0.017546237 0.0081882477 0.74120826
0.017482013 0.0069928467 0.7406168
0.017418802 0.0058062971 0.74003482
0.017356316 0.0046283901 0.7394594
0.017294748 0.0034589469 0.73889238
0.017234679 0.0022979379 0.73833919
0.017175026 0.001145035 0.73778981
0.017115917 2.9802322e-08 0.7372455
0.017058386 -0.0011372268 0.73671573
0.017001305 -0.0022668242 0.73619014
0.016944993 -0.0033889711 0.73567152
0.016889563 -0.004503876 0.73516107
0.016834939 -0.0056116283 0.734658
0.016780667 -0.0067122579 0.73415828
0.016727686 -0.0078062415 0.73367029
0.016675286 -0.0088934898 0.73318785
0.016623214 -0.0099739134 0.73270828
0.01657165 -0.011047721 0.73223341
0.016521323 -0.012115628 0.73177004
0.016471364 -0.013177097 0.73130989
0.016421705 -0.014232099 0.7308526
0.016372643 -0.015281141 0.7304008
0.016324593 -0.01632455 0.7299583
0.016276821 -0.017361939 0.72951841
0.01622933 -0.018393219 0.72908103
0.016182762 -0.019419283 0.72865218
0.016136808 -0.020439953 0.72822911
0.016091058 -0.021454722 0.72780776
0.016045624 -0.022463828 0.72738934
0.016001077 -0.023468256 0.72697914
0.015957061 -0.024467468 0.72657371
0.015913233 -0.025461167 0.72617018
0.015869642 -0.026449382 0.72576874
0.015826851 -0.027433187 0.7253747
0.015784793 -0.02841261 0.72498745
0.015763598 -0.029425383 0.72479224
0.01577129 -0.030491143 0.72486305
0.015782224 -0.031564444 0.72496372
0.01579424 -0.032641411 0.72507441
0.015810248 -0.03372851 0.72522175
0.015826179 -0.034817547 0.7253685
0.015845628 -0.035916746 0.72554755
0.015866933 -0.037022829 0.72574377
0.015889483 -0.038134724 0.72595143
0.015916582 -0.039260894 0.726201
0.015943773 -0.040390879 0.7264514
0.015957005 -0.0414882 0.72657329
0.015931873 -0.042484999 0.72634184
0.015901489 -0.043464065 0.726062
0.015871279 -0.044439554 0.72578382
0.015807727 -0.045315474 0.72519857
0.015768558 -0.046254426 0.7248379
0.015763767 -0.047291279 0.72479373
0.022310968 0.048805296 0.77224481
0.021952055 0.046648115 0.7691462
0.021700671 0.044757634 0.766976
0.021491706 0.042983443 0.76517189
0.021308176 0.041284621 0.76358742
0.021141177 0.039639741 0.76214576
0.020989265 0.038043052 0.76083422
0.020847648 0.036483377 0.75961149
0.020711895 0.034951359 0.75843954
0.020585909 0.033452123 0.75735188
0.020463562 0.031974316 0.75629556
0.020348135 0.030522227 0.75529909
0.020235643 0.029088736 0.75432795
0.020128815 0.027677119 0.75340569
0.020024117 0.026281655 0.75250173
0.019924173 0.024905235 0.75163889
0.019826133 0.023543566 0.7507925
0.019731015 0.022197396 0.74997133
0.019639075 0.020866543 0.74917758
0.019548709 0.019548744 0.74839735
0.019461162 0.018244863 0.74764162
0.019375736 0.016953766 0.74690413
0.019291919 0.01567468 0.74618042
0.019210372 0.014407814 0.74547648
0.019130668 0.013152361 0.74478835
0.019051697 0.011907309 0.74410659
0.018975267 0.010673642 0.74344671
0.018899973 0.0094499886 0.74279672
0.018825572 0.0082362294 0.74215436
0.018753309 0.0070325434 0.74153048
0.018682037 0.0058381259 0.74091518
0.018611887 0.004652977 0.7403096
0.018543201 0.0034768581 0.73971653
0.018475378 0.0023094118 0.73913109
0.01840912 0.0011505783 0.73855901
0.018343687 2.9802322e-08 0.73799407
0.018278718 -0.0011424124 0.7374332
0.018215742 -0.0022769272 0.73688948
0.018153267 -0.003403753 0.73635018
0.018091358 -0.0045228004 0.73581564
0.018030619 -0.0056345463 0.7352913
0.017970832 -0.0067390501 0.73477507
0.017911505 -0.0078362525 0.73426294
0.017853172 -0.0089265704 0.73375934
0.017795952 -0.010010213 0.73326534
0.017739097 -0.011086911 0.73277444
0.017683063 -0.012157112 0.73229074
0.0176281 -0.013221055 0.73181617
0.017573543 -0.014278471 0.73134518
0.017519323 -0.015329391 0.73087716
0.017466204 -0.016374558 0.7304185
0.017413855 -0.017413855 0.72996664
0.017361755 -0.018446833 0.72951674
0.017310025 -0.019473732 0.72907025
0.017259482 -0.020495623 0.72863388
0.01720942 -0.021511763 0.72820163
0.017159648 -0.022522032 0.72777188
0.017110225 -0.023526549 0.72734529
0.017062062 -0.024526715 0.72692943
0.01701411 -0.025521159 0.72651547
0.016966488 -0.026510119 0.72610426
0.016919192 -0.027493656 0.72569603
0.016874313 -0.028475404 0.72530854
0.016857155 -0.029500008 0.72516036
0.016866716 -0.030570924 0.72524297
0.016878024 -0.031646281 0.7253406
0.016891563 -0.032727391 0.72545749
0.01690867 -0.033817351 0.72560519
0.016925812 -0.034909457 0.72575313
0.016947694 -0.036013842 0.72594208
0.016970541 -0.037123024 0.72613931
0.016995698 -0.038240314 0.72635651
0.017024947 -0.039370179 0.72660905
0.017054297 -0.040503949 0.72686237
0.017059922 -0.041583538 0.72691107
0.017028663 -0.042571634 0.72664106
0.016996 -0.04355225 0.72635907
0.016963646 -0.044529527 0.72607976
0.016892342 -0.045398146 0.72546422
0.016848441 -0.046333164 0.72508514
0.023451615 0.042764753 0.77018273
0.023081597 0.040732265 0.76717615
0.022820096 0.038928419 0.76505136
0.022602387 0.037227482 0.7632823
0.02241102 0.035594016 0.76172739
0.022236848 0.034009308 0.76031214
0.022078367 0.03246823 0.75902438
0.021930212 0.030960321 0.75782061
0.021788634 0.029478759 0.75667018
0.021657033 0.02802676 0.75560093
0.021529304 0.026595026 0.75456309
0.021408601 0.025186598 0.75358224
0.021291304 0.023796171 0.75262916
0.021179456 0.022425354 0.75172031
0.021070272 0.021070272 0.75083315
0.020965595 0.019732356 0.7499826
0.020863418 0.018408924 0.74915236
0.020763766 0.017099589 0.74834269
0.02066768 0.015804708 0.74756193
0.020573234 0.014522284 0.74679446
0.020481555 0.013252765 0.74604958
0.020392496 0.011995614 0.74532592
0.020304946 0.010749698 0.74461454
0.020219356 0.0095149875 0.74391907
0.020136168 0.0082913637 0.74324316
0.020053823 0.007077843 0.74257404
0.019973565 0.005874604 0.7419219
0.019894969 0.00468117 0.7412833
0.019817296 0.0034971833 0.7406522
0.019741617 0.0023226142 0.7400372
0.019666972 0.0011568964 0.73943073
0.019593725 2.9802322e-08 0.73883551
0.019521926 -0.0011483133 0.73825216
0.019450802 -0.0022883117 0.73767424
0.019381531 -0.0034202337 0.73711139
0.019313117 -0.0045442581 0.73655552
0.019245408 -0.0056603849 0.73600531
0.019179046 -0.0067690611 0.73546606
0.019113859 -0.0078703761 0.73493642
0.019049115 -0.0089643002 0.73441041
0.018985309 -0.010051042 0.7338919
0.01892299 -0.011131167 0.73338556
0.018861009 -0.01220417 0.7328819
0.018799711 -0.013270348 0.73238385
0.018739853 -0.014330447 0.73189747
0.018680513 -0.015383929 0.73141533
0.018621547 -0.016430765 0.73093617
0.018564044 -0.017471999 0.73046893
0.018507097 -0.018507093 0.73000622
0.018450499 -0.01953578 0.72954631
0.018394446 -0.020558447 0.72909087
0.018339731 -0.021576136 0.72864634
0.018285342 -0.022587746 0.72820431
0.018231338 -0.023593485 0.72776556
0.018178044 -0.02459383 0.72733253
0.018125776 -0.025589287 0.72690779
0.01807381 -0.026579082 0.72648555
0.018022073 -0.027563184 0.72606516
0.017975619 -0.028549522 0.72568768
0.017961122 -0.029583007 0.7255699
0.017973637 -0.030660868 0.72567159
0.017986171 -0.031740248 0.72577345
0.018001474 -0.032826215 0.72589779
0.018019633 -0.033919275 0.72604531
0.018037893 -0.035014719 0.72619373
0.018062316 -0.036124647 0.72639215
0.018086869 -0.037237644 0.72659165
0.018114867 -0.038360864 0.72681916
0.018146075 -0.039494395 0.72707272
0.018176084 -0.04062888 0.72731662
0.018173276 -0.041691631 0.72729373
0.018136701 -0.042674571 0.72699654
0.018099174 -0.043650925 0.72669166
0.018062057 -0.044623911 0.72639006
0.017983163 -0.045486808 0.72574902
0.017936843 -0.046424747 0.72537261
0.024568101 0.036852181 0.76816428
0.024187785 0.034937948 0.76524568
0.023916863 0.033217907 0.76316655
0.023690671 0.031587601 0.76143086
0.023491684 0.030017197 0.75990379
0.023310723 0.028490931 0.75851512
0.02314583 0.027003497 0.75724971
0.022991545 0.025546163 0.75606567
0.022844469 0.024113655 0.75493705
0.022707161 0.022707164 0.7538833
0.022574347 0.021320224 0.752864
0.022448534 0.019954264 0.75189865
0.022326633 0.01860556 0.75096309
0.022209916 0.01727438 0.75006747
0.022096513 0.015958607 0.74919713
0.021987149 0.014658123 0.74835789
0.021880921 0.013371676 0.74754274
0.021776954 0.012098312 0.74674487
0.021676868 0.010838479 0.74597681
0.021578478 0.0095904469 0.74522179
0.02148322 0.008354634 0.74449074
0.021390166 0.0071300566 0.74377668
0.021299018 0.0059164166 0.74307716
0.02120965 0.0047132969 0.74239135
0.021123029 0.0035205185 0.74172664
0.021037528 0.0023375154 0.74107045
0.020953534 0.0011640787 0.74042594
0.020871757 2.9802322e-08 0.73979831
0.020790936 -0.0011550188 0.73917818
0.020711862 -0.0023013055 0.73857129
0.020634182 -0.0034389794 0.73797512
0.020557715 -0.0045683682 0.73738837
0.020482829 -0.0056896806 0.73681372
0.020408876 -0.0068029165 0.73624623
0.020336231 -0.0079085231 0.73568869
0.020265173 -0.0090067089 0.73514336
0.020194685 -0.010097325 0.73460245
0.020125067 -0.01118058 0.73406821
0.020057278 -0.012257218 0.73354799
0.019989945 -0.013326585 0.73303127
0.019923134 -0.014388919 0.73251855
0.01985817 -0.015445232 0.73202002
0.0197937 -0.016494721 0.7315253
0.019729722 -0.017537534 0.73103434
0.019667095 -0.018574476 0.73055369
0.019605367 -0.019605339 0.73008001
0.019544024 -0.020629793 0.72960925
0.019483561 -0.021648407 0.72914523
0.019424316 -0.022661686 0.72869056
0.01936543 -0.023668855 0.72823876
0.019306902 -0.024669886 0.72778952
0.019249486 -0.025665969 0.72734892
0.019192893 -0.026656806 0.7269147
0.019136701 -0.027641863 0.7264834
0.019087164 -0.028630733 0.72610331
0.019079408 -0.02967906 0.72604376
0.019092951 -0.030760854 0.72614765
0.019106511 -0.031844199 0.72625178
0.019123849 -0.0329355 0.72638482
0.019143408 -0.034032702 0.72653496
0.019163968 -0.035133928 0.72669268
0.01919028 -0.036248267 0.72689462
0.019216733 -0.037365854 0.72709763
0.019248171 -0.038496315 0.72733885
0.01928152 -0.039634228 0.72759479
0.019313589 -0.040773094 0.72784084
0.019297298 -0.041810811 0.72771585
0.019257104 -0.042793542 0.72740746
0.019217491 -0.043773174 0.72710341
0.01914197 -0.044664592 0.72652388
0.019088728 -0.045600832 0.72611529
0.019037407 -0.046535879 0.72572142
0.02566118 0.031063557 0.76618814
0.025271434 0.029261678 0.7633546
0.024991447 0.027622133 0.76131904
0.024757341 0.026060373 0.75961703
0.024551025 0.024551094 0.75811708
0.024363657 0.023081392 0.75675493
0.024192484 0.021645904 0.75551051
0.024032177 0.020237654 0.754345
0.023879934 0.018852592 0.7532382
0.023737086 0.017490476 0.75219971
0.023599187 0.016146839 0.75119716
0.023468534 0.014822274 0.75024724
0.023342114 0.013513893 0.7493282
0.023220675 0.012221396 0.74844533
0.023103233 0.010943681 0.74759144
0.022989403 0.0096797645 0.74676394
0.022879286 0.0084292293 0.74596334
0.022771224 0.0071909428 0.74517769
0.022667181 0.005965054 0.7444213
0.022565255 0.0047506094 0.74368024
0.022466296 0.0035473108 0.74296081
0.022369351 0.0023546815 0.74225605
0.022274908 0.0011723638 0.74156946
0.022181958 -0 0.74089366
0.022091851 -0.0011627078 0.74023855
0.022003246 -0.0023161173 0.7395944
0.021915602 -0.0034603477 0.73895723
0.021830846 -0.0045959353 0.73834097
0.021746829 -0.0057228208 0.73773021
0.021664534 -0.0068414211 0.73713189
0.021584095 -0.0079520345 0.73654711
0.021504335 -0.0090544224 0.73596722
0.021426544 -0.01014939 0.73540169
0.021349877 -0.011236727 0.73484427
0.021273918 -0.012316436 0.73429203
0.021200165 -0.013389558 0.73375589
0.021127084 -0.014455348 0.73322457
0.021054501 -0.015513837 0.73269683
0.020984054 -0.016566306 0.73218465
0.020914232 -0.01761198 0.73167711
0.020844871 -0.018650651 0.7311728
0.020776963 -0.019683391 0.73067909
0.020710103 -0.020710111 0.73019308
0.020643746 -0.021730244 0.72971064
0.020578114 -0.022744238 0.7292335
0.02051409 -0.023753136 0.72876799
0.020450462 -0.024755806 0.72830546
0.020387229 -0.025752276 0.72784573
0.020325625 -0.026744246 0.72739786
0.020264542 -0.027730405 0.72695374
0.020215895 -0.028727859 0.72660011
0.020212423 -0.029786736 0.72657484
0.020226603 -0.030872136 0.72667789
0.020240949 -0.031959355 0.7267822
0.020260619 -0.033056796 0.72692525
0.020281708 -0.034158677 0.72707856
0.020305175 -0.035266876 0.72724915
0.020333819 -0.036386818 0.7274574
0.020362396 -0.03750965 0.72766519
0.020397384 -0.038647681 0.72791952
0.020433379 -0.039791316 0.72818124
0.020461496 -0.040922999 0.72838569
0.020436335 -0.041948259 0.72820276
0.020391053 -0.042928517 0.72787356
0.020346045 -0.043904603 0.72754633
0.020260109 -0.0447855 0.7269215
0.020206425 -0.045730323 0.72653121
0.020161003 -0.046688616 0.72620106
0.026731463 0.025394887 0.76425219
0.026333457 0.023700118 0.76150328
0.026044726 0.022138029 0.75950909
0.025802825 0.020642281 0.75783837
