# .PCD v0.7 - Point Cloud Data file format
VERSION 0.7
FIELDS x y z
SIZE 4 4 4
TYPE F F F
COUNT 1 1 1
WIDTH 1356
HEIGHT 1
VIEWPOINT 0 0 0 1 0 0 0
POINTS 1356
DATA ascii
-0.00096607709 -0 0.71307445
-0.00097319647 -0.00097313523 0.71405786
-0.00098216673 -0.0019643009 0.71529698
-0.00099136017 -0.0029740632 0.71656692
-0.0010008317 -0.0040032864 0.71787518
-0.0010105512 -0.0050527155 0.71921778
-0.0010205698 -0.0061234236 0.72060174
-0.0010308714 -0.0072160661 0.72202468
-0.0010414851 -0.0083318353 0.72349077
-0.0010524462 -0.0094720125 0.72500485
-0.0010637167 -0.010637164 0.72656167
-0.001075406 -0.011829466 0.72817641
-0.0010874346 -0.013049185 0.72983789
-0.0010999063 -0.014298767 0.73156065
-0.0011128172 -0.015579432 0.73334408
-0.0011261626 -0.016892433 0.73518753
-0.0011400374 -0.018240571 0.73710412
-0.0011544422 -0.019625515 0.7390939
-0.0011693811 -0.021048844 0.74115741
-0.0011849665 -0.022514343 0.74331033
-0.0012012157 -0.024024278 0.7455548
-0.0012181661 -0.025581479 0.74789625
-0.0012358995 -0.027189791 0.75034583
-0.0012544848 -0.028853118 0.752913
-0.0012740414 -0.030577004 0.75561452
-0.0012946399 -0.032365948 0.75845975
-0.0013163873 -0.03422606 0.76146382
-0.0013394626 -0.036165476 0.7646513
-0.001364043 -0.038193196 0.76804668
-0.001390335 -0.040319681 0.77167845
-0.0014185463 -0.042556345 0.77557534
-0.0014491891 -0.044924825 0.7798081
-0.0014827505 -0.047447979 0.78444403
-0.0015199825 -0.050159395 0.78958696
-0.0015617852 -0.053100675 0.79536134
0 0.052026302 0.72629154
0 0.051189154 0.72693789
0 0.050277025 0.72739148
0 0.049252659 0.72752768
0 0.047911674 0.72669792
0 0.046569496 0.72582698
0 0.045243055 0.72496581
0 0.043932259 0.72411519
0 0.042636693 0.72327447
0 0.041355997 0.72244298
0 0.040090203 0.72162163
0 0.038838565 0.72080863
0 0.037601501 0.72000575
0 0.036378384 0.71921211
0 0.035169035 0.7184273
0 0.033973187 0.71765137
0 0.032790512 0.71688354
0 0.031621099 0.71612465
0 0.030464381 0.71537364
0 0.029320449 0.71463132
0 0.028188854 0.71389663
0 0.027069628 0.71317035
0 0.025962323 0.7124514
0 0.024866968 0.71174067
0 0.023783207 0.71103704
0 0.022710979 0.71034122
0 0.021649957 0.70965242
0 0.02060017 0.70897114
0 0.019561261 0.7082966
0 0.01853317 0.7076295
0 0.017058849 0.70364773
0 0.016202778 0.70396829
0 0.015405357 0.70480287
0 0.014632612 0.70595503
0 0.013797939 0.70669037
0 0.01295346 0.70743436
0 0.012083471 0.70802152
0 0.011182815 0.70835304
0 0.010272324 0.70862228
0 0.0093588233 0.70890319
0 0.0084419549 0.70919514
0 0.0075227022 0.70951879
0 0.0065994561 0.70985603
0 0.005671978 0.71020782
0 0.0047404766 0.71058959
0 0.0038037598 0.71098411
0 0.002861917 0.71140039
0 0.0019144118 0.71184826
0 0.00096052885 0.71230859
0 2.9802322e-08 0.71278596
0 -0.00096926093 0.71351635
0 -0.001956135 0.71472991
0 -0.0029619336 0.71600908
0 -0.0039875507 0.71733028
0 -0.0050334334 0.71868479
0 -0.0061008036 0.7200821
0 -0.0071905553 0.72152054
0 -0.0083035827 0.72300225
0 -0.0094413161 0.72453415
0 -0.010604441 0.72610956
0 -0.011795104 0.72774529
0 -0.01301375 0.7294299
0 -0.014262527 0.73117566
0 -0.015543371 0.7329883
0 -0.016857177 0.73486304
0 -0.018206447 0.73680949
0 -0.019593924 0.73883736
0 -0.021021098 0.74094427
0 -0.022490501 0.743137
0 -0.024006903 0.74543494
0 -0.025572151 0.74783492
0 -0.027190804 0.75035226
0 -0.028867275 0.75299782
0 -0.030606508 0.75578427
0 -0.032414824 0.75872958
0 -0.034299672 0.76185501
0 -0.036269695 0.76518452
0 -0.038335055 0.76874661
0 -0.040508896 0.77257961
0 -0.042809755 0.7767421
0 -0.045260072 0.78130186
0 -0.047891408 0.78635806
0 -0.050760478 0.79210311
0.0010667921 0.052272826 0.72698653
0.0010739962 0.051551819 0.72798169
0.0010750367 0.050526768 0.72812539
0.0010743066 0.049418122 0.72802448
0.0010678838 0.048054785 0.72713733
0.001061541 0.046707839 0.72626114
0.0010552695 0.045376569 0.7253949
0.0010490753 0.044061184 0.72453928
0.0010429533 0.042761147 0.72369361
0.0010368988 0.041475952 0.72285724
0.0010309179 0.040205836 0.72203106
0.0010249984 0.038949966 0.72121346
0.0010191535 0.0377087 0.72040606
0.0010133748 0.036481529 0.71960783
0.0010076613 0.035268158 0.71881866
0.0010020119 0.034068406 0.71803826
0.00099642214 0.032881975 0.71726608
0.00099089777 0.031708717 0.71650302
0.0009854309 0.030548364 0.71574795
0.00098002737 0.029400855 0.71500146
0.00097467954 0.028265715 0.71426272
0.000969393 0.027143031 0.71353251
0.00096416031 0.026032358 0.71280968
0.00095898687 0.024933666 0.71209508
0.00095386559 0.023846626 0.71138769
0.00094880181 0.022771299 0.71068811
0.00094378844 0.021707118 0.70999569
0.00093883078 0.020654291 0.70931083
0.00093392201 0.019612372 0.70863277
0.0009290672 0.01858139 0.70796216
0.00090073422 0.017113954 0.70404845
0.00089658226 0.016138494 0.70347494
0.00090080511 0.015313715 0.70405829
0.00090720772 0.01451534 0.7049427
0.00091533869 0.013730109 0.70606589
0.00092067453 0.012889475 0.7068029
0.0009262056 0.012040675 0.70756698
0.00092985149 0.011158228 0.70807058
0.00093199621 0.010251999 0.70836681
0.00093409506 0.0093410015 0.70865673
0.00093622995 0.0084261 0.70895165
0.00093856413 0.0075085461 0.70927405
0.00094108866 0.0065876544 0.70962274
0.00094362377 0.0056617558 0.70997292
0.00094637729 0.0047319233 0.71035326
0.00094936212 0.0037974417 0.7107656
0.00095236581 0.0028571188 0.71118051
0.0009555298 0.0019110739 0.71161753
0.00095899613 0.00095903873 0.71209639
0.00096249708 2.9802322e-08 0.71257997
0.00096653862 -0.00096654892 0.71313822
0.00097427407 -0.0019485354 0.71420676
0.00098361552 -0.0029508471 0.71549714
0.00099327392 -0.0039730668 0.71683121
0.0010031746 -0.0050158501 0.7181989
0.0010134024 -0.006080389 0.71961164
0.0010239326 -0.0071675181 0.72106624
0.0010347847 -0.0082782507 0.72256523
0.0010460163 -0.0094141364 0.72411668
0.0010575699 -0.010575652 0.72571266
0.0010695697 -0.011765242 0.72737026
0.0010819592 -0.012983501 0.72908163
0.0010947762 -0.014232069 0.73085213
0.0011081235 -0.015513718 0.73269576
0.0011219396 -0.016829073 0.73460418
0.0011362785 -0.01818043 0.7365849
0.0011512559 -0.019571334 0.73865372
0.001166853 -0.021003366 0.74080825
0.0011831281 -0.022479415 0.74305642
0.0012001444 -0.02400291 0.74540687
0.0012180214 -0.02557838 0.74787623
0.0012367937 -0.027209431 0.75046933
0.0012565573 -0.028900802 0.75319934
0.0012774616 -0.03065905 0.75608695
0.001299664 -0.032491565 0.75915372
0.0013233225 -0.034406334 0.76242179
0.0013485735 -0.036411434 0.76590979
0.0013758563 -0.038523942 0.76967847
0.0014054737 -0.040758699 0.77376962
0.0014379708 -0.04313913 0.7782585
0.0014742609 -0.04570207 0.78327131
0.0015154515 -0.048494399 0.78896105
0.0015637068 -0.051602304 0.79562676
0.0021445772 0.05254215 0.72774577
0.0021578737 0.051788986 0.72866416
0.0021605073 0.050771952 0.72884595
0.0021550902 0.049567074 0.72847188
0.0021421749 0.048198938 0.72757989
0.0021294137 0.046847075 0.72669852
0.0021167956 0.045511127 0.72582698
0.0021043341 0.044191033 0.72496629
0.0020920108 0.042886257 0.72411513
0.002079831 0.041596621 0.72327399
0.0020677992 0.040322125 0.72244304
0.002055899 0.039062113 0.72162116
0.002044142 0.037816644 0.7208091
0.0020325189 0.036585331 0.72000635
0.0020210198 0.035367876 0.71921217
0.0020096574 0.03416419 0.71842736
0.001998415 0.032973856 0.71765089
0.0019873045 0.031796873 0.71688348
0.0019763103 0.030632854 0.71612418
0.0019654434 0.029481679 0.71537364
0.0019546892 0.028342992 0.7146309
0.0019440581 0.027216822 0.71389663
0.0019335359 0.026102722 0.71316993
0.0019231332 0.025000751 0.71245146
0.0019128356 0.023910463 0.7117402
0.00190266 0.022831947 0.7110374
0.0018925801 0.021764696 0.71034122
0.0018826121 0.02070874 0.70965278
0.0018727429 0.019663811 0.70897114
0.0018629824 0.018629849 0.70829701
0.0018533116 0.017606467 0.70762908
0.0017938999 0.01614511 0.70352578
0.0017922674 0.015234321 0.70341301
0.0018037957 0.014430374 0.70420921
0.0018217678 0.013663262 0.70545042
0.0018326573 0.012828618 0.70620263
0.0018441407 0.011986911 0.70699567
0.0018546175 0.01112774 0.70771927
0.0018605581 0.010233074 0.70812958
0.0018649217 0.0093246102 0.70843095
0.0018693997 0.0084123313 0.70874023
0.0018739052 0.0074956119 0.70905137
0.0018790615 0.0065767169 0.70940757
0.0018844074 0.0056532323 0.70977676
0.0018897839 0.0047244728 0.7101481
0.0018957166 0.0037914515 0.71055788
0.0019019968 0.0028530061 0.71099162
0.0019083187 0.0019083023 0.71142828
0.0019151331 0.00095757842 0.71189892
0.0019223377 -0 0.7123965
0.0019297283 -0.00096485019 0.71290696
0.0019417163 -0.0019417107 0.71373492
0.001960462 -0.0029406846 0.7150296
0.0019799878 -0.0039599836 0.71637815
0.002000001 -0.0049999952 0.71776044
0.0020206973 -0.0060620904 0.71918982
0.0020420016 -0.0071469545 0.72066122
0.0020639822 -0.0082559288 0.72217929
0.0020867409 -0.0093903244 0.72375125
0.0021101795 -0.010550886 0.72537005
0.002134541 -0.011739969 0.72705269
0.0021597305 -0.012958348 0.72879237
0.0021857547 -0.014207393 0.73058975
0.0022129402 -0.015490562 0.73246735
0.0022411316 -0.01680848 0.73441446
0.0022704056 -0.018163234 0.73643631
0.0023009796 -0.01955834 0.73854792
0.0023329188 -0.020996273 0.74075389
0.0023663505 -0.022480339 0.74306285
0.0024013838 -0.024013817 0.7454825
0.0024381995 -0.025601059 0.74802524
0.0024770075 -0.027247071 0.75070554
0.0025180723 -0.028957784 0.75354177
0.0025616798 -0.030740142 0.75655353
0.0026081041 -0.032601297 0.7597599
0.0026577378 -0.034550577 0.76318794
0.0027113722 -0.036603481 0.76689225
0.0027696772 -0.038775474 0.7709192
0.0028339699 -0.041092575 0.77535969
0.0029055423 -0.043583125 0.78030294
0.0029867808 -0.046295077 0.78591377
0.0030834607 -0.049335361 0.79259109
0.0032341473 0.053902447 0.72854149
0.0032333385 0.052811176 0.72850424
0.0032505018 0.052008063 0.72929454
0.0032546164 0.050989032 0.72948396
0.0032424098 0.049716949 0.72892195
0.00322292 0.048343807 0.72802454
0.0032036628 0.046987057 0.7271378
0.0031846231 0.04564628 0.72626114
0.0031658197 0.044321507 0.72539538
0.0031472258 0.043012112 0.72453928
0.0031288492 0.041717976 0.72369313
0.0031106966 0.040439069 0.72285736
0.0030927428 0.039174736 0.72203064
0.0030750055 0.037925065 0.72121394
0.0030574705 0.036689669 0.72040653
0.0030401244 0.035468131 0.71960783
0.0030229941 0.034260631 0.71881908
0.0030060359 0.033066422 0.71803826
0.0029892765 0.031885624 0.71726656
0.0029726932 0.03071782 0.71650302
0.0029563026 0.02956304 0.71574831
0.0029400822 0.028420776 0.71500146
0.0029240481 0.027291119 0.7142632
0.0029081788 0.026173651 0.71353251
0.0028924902 0.025068253 0.71281016
0.0028769604 0.023974717 0.71209508
0.002861606 0.022892892 0.71138811
0.0028464054 0.021822453 0.71068823
0.0028313745 0.020763427 0.7099961
0.0028164922 0.019715458 0.70931089
0.0028017748 0.018678516 0.70863318
0.0027872014 0.017652273 0.70796216
0.0027727792 0.01663667 0.70729816
0.0026852456 0.01521638 0.70326775
0.002691613 0.014355302 0.70356083
0.0027109303 0.013554662 0.70445037
0.0027375398 0.012775213 0.7056756
0.0027547833 0.01193741 0.70646954
0.0027721846 0.011088729 0.7072708
0.0027854438 0.010213315 0.70788127
0.0027929775 0.0093099475 0.70822817
0.0027998933 0.0083996654 0.70854658
0.0028070197 0.0074853897 0.7088747
0.002814369 0.0065668821 0.70921308
0.0028225961 0.0056451857 0.70959193
0.0028310509 0.0047184229 0.7099812
0.0028397464 0.0037863255 0.71038157
0.0028491323 0.0028491914 0.7108137
0.0028589927 0.0019060075 0.71126777
0.0028692442 0.00095641613 0.71173978
0.0028801181 -0 0.71224046
0.0028912434 -0.0009637177 0.7127527
0.0029054231 -0.0019369125 0.71340561
0.0029314749 -0.0029314458 0.71460509
0.0029611201 -0.0039481223 0.71597016
0.0029914717 -0.0049857497 0.71736765
0.0030229124 -0.0060457885 0.71881533
0.0030552722 -0.0071289539 0.72030526
0.003088685 -0.0082364678 0.72184378
0.0031233395 -0.0093699992 0.72343946
0.003159038 -0.010530055 0.72508305
0.0031961228 -0.011719078 0.72679067
0.0032345925 -0.01293838 0.728562
0.0032744086 -0.014189065 0.73039526
0.0033158821 -0.015474111 0.73230493
0.0033590775 -0.016795367 0.73429382
0.0034040492 -0.018154919 0.73636448
0.0034509487 -0.01955539 0.73852396
0.0035001473 -0.021000892 0.74078923
0.0035517015 -0.022494107 0.74316305
0.0036058754 -0.024039149 0.74565744
0.0036630353 -0.025641233 0.74828935
0.0037234814 -0.027305514 0.75107253
0.0037876759 -0.029038817 0.75402832
0.003856088 -0.030848652 0.75717831
0.0039294725 -0.0327456 0.76055729
0.0040087104 -0.034742147 0.76420569
0.0040949089 -0.036854178 0.76817465
0.0041899467 -0.03910616 0.77255058
0.0042957379 -0.041525424 0.77742165
0.0044176364 -0.04417634 0.78303438
0.0045619993 -0.047140628 0.78968143
0.0047493041 -0.050659269 0.79830581
0.004324046 0.054050595 0.72895062
0.0043327711 0.053076446 0.72925204
0.0043519982 0.05222401 0.72991598
0.0043577855 0.051203996 0.73011589
0.0043363245 0.049867749 0.72937471
0.0043101804 0.048489541 0.72847188
0.0042843497 0.047127843 0.72757983
0.0042588119 0.045782208 0.72669798
0.0042335913 0.044452727 0.72582704
0.0042086681 0.043138862 0.72496635
0.0041840216 0.041840255 0.72411513
0.0041596764 0.040556878 0.72327447
0.0041355984 0.039288223 0.72244298
0.004111798 0.038034171 0.7216211
0.004088284 0.036794573 0.72080904
0.0040650233 0.035568953 0.72000587
0.0040420536 0.034357458 0.71921265
0.0040193149 0.033159375 0.71842736
0.0039968435 0.031974763 0.71765137
0.0039746091 0.030803204 0.71688354
0.0039526336 0.029644787 0.71612465
0.0039308867 0.028498948 0.71537364
0.0039093909 0.027365744 0.71463132
0.0038881162 0.026244789 0.71389663
0.0038670844 0.025136054 0.71317029
0.0038462663 0.024039179 0.7124514
0.0038256836 0.022954106 0.71174067
0.0038053079 0.021880537 0.71103704
0.0037851601 0.020818383 0.71034122
0.0037652124 0.019767404 0.70965242
0.0037454858 0.018727452 0.70897114
0.0037259532 0.017698288 0.7082966
0.0037066231 0.016679794 0.70762908
0.003687504 0.015671909 0.70696884
0.0035777539 0.014311045 0.70317882
0.0035974563 0.013490468 0.70385921
0.0036249717 0.012687385 0.70480943
0.003658416 0.011889875 0.70596433
0.0036820483 0.011046171 0.70678043
0.0037050298 0.010188848 0.70757407
0.003718592 0.0092964768 0.70804238
0.0037282768 0.0083886683 0.70837688
0.0037379886 0.0074759722 0.70871222
0.0037479994 0.0065590441 0.70905793
0.0037589185 0.0056383908 0.70943499
0.0037702243 0.0047127903 0.70982546
0.0037820672 0.0037820935 0.7102344
0.0037948804 0.0028462112 0.71067685
0.0038080243 0.0019040406 0.7111308
0.0038214314 0.00095534325 0.71159381
0.0038363927 2.9802322e-08 0.71211046
0.0038515341 -0.00096285343 0.71263331
0.0038680022 -0.0019340217 0.71320206
0.0038976455 -0.0029231906 0.71422571
0.0039376142 -0.0039376318 0.71560597
0.0039785574 -0.0049731433 0.71701986
0.0040210402 -0.006031543 0.71848696
0.0040648016 -0.0071133971 0.71999812
0.004109994 -0.0082199574 0.72155881
0.004156929 -0.0093530715 0.72317964
0.0042053205 -0.010513306 0.72485077
0.0042556124 -0.011702925 0.72658741
0.0043078703 -0.012923568 0.72839212
0.0043620518 -0.014176637 0.73026311
0.0044184504 -0.015464574 0.73221081
0.0044773542 -0.016790062 0.73424488
0.0045388886 -0.018155515 0.73636991
0.0046032239 -0.019563675 0.73859155
0.0046706744 -0.021017998 0.74092084
0.0047416044 -0.022522599 0.74337029
0.0048164381 -0.024082184 0.74595457
0.0048956447 -0.025702119 0.74868989
0.0049797096 -0.027388364 0.75159281
0.0050691939 -0.029147834 0.75468302
0.0051654279 -0.030992538 0.75800627
0.0052693975 -0.032933712 0.76159668
0.005382651 -0.034987241 0.76550776
0.0055075279 -0.037175775 0.76982009
0.0056479992 -0.039535969 0.77467108
0.00580924 -0.04211697 0.78023922
0.0060030124 -0.045022577 0.7869308
0.0062574595 -0.048495293 0.7957176
0.005422303 0.054223031 0.72942716
0.0054385057 0.053297341 0.72987473
0.0054597519 0.052413642 0.73046166
0.0054669785 0.051389605 0.73066139
0.0054368949 0.050019443 0.72983021
0.0054040165 0.048636168 0.72892195
0.0053715329 0.047269493 0.72802454
0.005339419 0.045919031 0.72713739
0.0053077051 0.044584721 0.72626114
0.0052763661 0.043266237 0.72539538
0.0052453764 0.041963041 0.72453922
0.0052147671 0.040675193 0.72369361
0.005184494 0.039402187 0.7228573
0.005154571 0.038143814 0.72203064
0.0051250095 0.036900103 0.72121388
0.0050957669 0.0356704 0.72040606
0.0050668912 0.034454912 0.71960831
0.0050383066 0.033252805 0.71881866
0.0050100596 0.032064408 0.71803826
0.0049821106 0.030889094 0.71726614
0.0049544885 0.029726923 0.71650302
0.0049271551 0.028577507 0.71574789
0.004900137 0.027440786 0.71500146
0.0048733978 0.026316404 0.71426272
0.0048469645 0.025204211 0.71353257
0.0048208013 0.024104059 0.71280968
0.0047949343 0.023015678 0.71209514
0.0047693281 0.02193895 0.71138763
0.0047440086 0.020873636 0.71068823
0.0047189421 0.019819558 0.70999569
0.004694154 0.018776625 0.70931089
0.0046696099 0.017744541 0.70863283
0.0046453215 0.016723186 0.70796174
0.0046212985 0.01571241 0.70729816
0.0044734706 0.014315128 0.70321417
0.0044765142 0.013429552 0.70329827
0.0045099952 0.012628019 0.70422322
0.0045554377 0.011844158 0.70547861
0.0045861928 0.011006892 0.70632827
0.0046173953 0.0101583 0.70719028
0.0046414211 0.009282887 0.70785403
0.0046550501 0.0083791316 0.70823056
0.0046674702 0.0074679554 0.7085737
0.0046801479 0.0065522492 0.70892388
0.0046938132 0.0056325793 0.70930147
0.0047084978 0.0047084987 0.70970708
0.0047232741 0.0037786067 0.71011531
0.0047390349 0.0028434396 0.71055079
0.0047561326 0.0019024611 0.71102315
0.0047733393 0.0009546876 0.71149844
0.0047914889 -0 0.71199989
0.0048109284 -0.00096216798 0.71253693
0.0048307306 -0.0019322634 0.71308398
0.0048608761 -0.0029165149 0.71391684
0.0049104285 -0.0039283335 0.71528578
0.0049622925 -0.0049622655 0.71671855
0.0050161607 -0.0060194135 0.71820682
0.0050716782 -0.0071003437 0.71974057
0.0051290221 -0.0082063973 0.7213248
0.0051887091 -0.0093396604 0.72297376
0.0052503399 -0.01050064 0.72467637
0.0053142877 -0.011691421 0.72644305
0.0053809606 -0.01291427 0.72828496
0.0054502268 -0.014170587 0.73019856
0.0055223452 -0.015462548 0.73219097
0.0055978089 -0.01679343 0.73427576
0.0056767943 -0.018165737 0.73645782
0.0057596685 -0.019582868 0.73874736
0.0058467905 -0.021048427 0.74115431
0.0059387232 -0.022567123 0.74369401
0.0060360171 -0.024144083 0.74638188
0.0061392887 -0.025784999 0.74923503
0.0062493053 -0.027496904 0.75227433
0.0063676154 -0.029291004 0.75554281
0.0064955945 -0.031178832 0.7590785
0.0066352431 -0.033176184 0.76293647
0.0067898827 -0.035307378 0.76720864
0.0069640465 -0.037605822 0.77202022
0.0071639093 -0.04011786 0.77754176
0.0074069947 -0.042960554 0.78425735
0.0077387006 -0.046432167 0.79342121
0.0065278066 0.054398388 0.72991157
0.0065503796 0.053494751 0.73043126
0.0065747085 0.052597672 0.73099136
0.0065837805 0.051572949 0.73120022
0.0065442058 0.050172269 0.73028916
0.006504511 0.048783839 0.72937524
0.0064652944 0.047412187 0.72847235
0.0064265248 0.046056777 0.72757983
0.0063882177 0.04471752 0.72669792
0.0063503869 0.043394327 0.72582704
0.0063129794 0.042086571 0.72496581
0.0062760324 0.040794253 0.72411513
0.0062394929 0.039516807 0.72327399
0.0062033767 0.038254201 0.72244251
0.0061676973 0.037006199 0.72162104
0.0061324053 0.035772383 0.72080857
0.0060975356 0.034552723 0.72000581
0.0060630599 0.033346862 0.71921206
0.0060289721 0.03215453 0.7184273
0.0059952452 0.030975461 0.71765083
0.0059619131 0.029809594 0.71688354
0.0059289308 0.028656542 0.71612418
0.0058963303 0.027516216 0.71537364
0.0058640675 0.026388347 0.7146309
0.0058321748 0.025272787 0.71389663
0.0058006081 0.024169236 0.71316993
0.0057694181 0.023077667 0.71245188
0.0057385257 0.02199769 0.71174067
0.0057079801 0.020929277 0.7110374
0.0056777396 0.019872129 0.71034122
0.0056478363 0.018826097 0.70965278
0.0056182286 0.017791063 0.70897114
0.0055889296 0.016766816 0.7082966
0.0055599515 0.015753239 0.7076295
0.0055312561 0.014750034 0.70696884
0.0053630178 0.013407558 0.70309567
0.0053909514 0.012578905 0.70373875
0.0054334342 0.011772454 0.70471674
0.0054861731 0.010972351 0.70593095
0.0055233976 0.010126293 0.70678788
0.0055589476 0.0092649162 0.70760638
0.0055804872 0.0083707273 0.70810223
0.0055960459 0.007461369 0.70846045
0.0056118146 0.0065471232 0.7088235
0.0056276727 0.0056276917 0.70918858
0.00564571 0.0047047436 0.70960385
0.0056641689 0.0037761331 0.71002877
0.0056827664 0.0028413832 0.71045697
0.0057032364 0.0019010901 0.7109282
0.0057246075 0.00095412135 0.71142018
0.005746657 -0 0.71192783
0.0057701836 -0.00096169114 0.71246946
0.0057942788 -0.0019313991 0.7130242
0.005823913 -0.0029119253 0.71370649
0.0058804937 -0.0039203167 0.71500909
0.0059436439 -0.0049530268 0.71646291
0.0060092569 -0.0060092211 0.71797347
0.0060769771 -0.0070897639 0.71953249
0.0061469818 -0.0081959665 0.7211442
0.0062198318 -0.0093297362 0.72282135
0.0062952512 -0.010492057 0.72455764
0.0063735228 -0.011684746 0.72635961
0.0064553074 -0.012910575 0.72824252
0.006540488 -0.014171064 0.73020351
0.006629399 -0.015468538 0.73225045
0.0067223813 -0.016805917 0.73439115
0.0068200161 -0.018186688 0.73663884
0.0069226492 -0.01961413 0.73900163
0.0070309946 -0.021092951 0.74149609
0.0071457308 -0.022628129 0.74413753
0.0072676474 -0.024225473 0.74694431
0.0073979953 -0.025892973 0.74994522
0.0075380057 -0.027639359 0.75316858
0.0076893107 -0.029475689 0.75665188
0.007855244 -0.031420976 0.760472
0.0080384053 -0.03349334 0.76468879
0.0082449149 -0.035727948 0.76944309
0.0084857782 -0.038185984 0.77498829
0.0087804934 -0.0409756 0.78177327
0.0091957506 -0.044446141 0.79133338
0.0076398379 0.054570287 0.7303865
0.0076674419 0.053672105 0.73093116
0.0076940511 0.05275923 0.73145628
0.0077045304 0.051730424 0.73166305
0.0076582744 0.050325871 0.7307502
0.0076116812 0.048932254 0.7298308
0.0075656502 0.047555536 0.72892249
0.0075201462 0.046195239 0.72802454
0.0074751866 0.044851124 0.72713733
0.0074307872 0.043523222 0.7262612
0.007386886 0.042210817 0.7253949
0.0073435269 0.040913969 0.72453922
0.0073006479 0.039632142 0.72369313
0.0072582667 0.038365155 0.72285676
0.0072163995 0.037112951 0.72203058
0.0071749883 0.035874963 0.7212134
0.0071340739 0.03465125 0.72040606
0.0070936475 0.033441514 0.71960837
0.0070536532 0.032245278 0.71881908
0.0070140837 0.031062394 0.71803826
0.0069749784 0.029892802 0.71726656
0.0069362842 0.028736025 0.71650302
0.0068980395 0.027592212 0.71574831
0.0068601919 0.026460767 0.71500146
0.0068227798 0.025341779 0.71426326
0.0067857509 0.024234831 0.71353251
0.0067491438 0.023139954 0.7128101
0.0067129084 0.022056729 0.71209502
0.0066770809 0.020985156 0.71138811
0.0066416124 0.019924879 0.71068817
0.0066065402 0.018875867 0.7099961
0.0065718153 0.017837822 0.70931083
0.0065374537 0.016810596 0.70863283
0.0065034702 0.015794188 0.70796221
0.0064698178 0.014788181 0.7072981
0.0062624631 0.013419598 0.70320636
0.0062650261 0.012530059 0.70325691
0.0063157752 0.0117293 0.70425838
0.0063808775 0.010938674 0.70554304
0.0064248517 0.010096222 0.70641083
0.0064706225 0.0092437863 0.70731395
0.0065041608 0.0083625019 0.7079758
0.0065239938 0.0074560344 0.70836723
0.0065428577 0.0065428913 0.7087394
0.0065622241 0.0056247711 0.70912158
0.0065827044 0.004701972 0.7095257
0.0066045281 0.0037740171 0.70995641
0.0066270661 0.0028402209 0.71040118
0.0066511398 0.0019003749 0.71087617
0.0066761384 0.00095373392 0.71136951
0.0067015197 -0 0.71187037
0.0067297914 -0.00096139312 0.71242821
0.0067584561 -0.0019309819 0.71299386
0.0067901555 -0.002910018 0.71361941
0.0068487944 -0.0039135814 0.71477652
0.0069236192 -0.0049454272 0.7162531
0.0070014629 -0.0060012341 0.71778923
0.0070818234 -0.0070818067 0.71937501
0.0071649132 -0.0081884861 0.72101462
0.007251617 -0.0093234777 0.72272557
0.0073415586 -0.010487884 0.72450042
0.0074349539 -0.011683494 0.72634339
0.0075324723 -0.01291278 0.72826773
0.0076345988 -0.014178514 0.73028308
0.007741346 -0.015482694 0.73238945
0.0078533115 -0.016828507 0.73459893
0.0079711257 -0.01821968 0.73692381
0.0080955196 -0.019660503 0.73937851
0.0082271397 -0.021155447 0.74197578
0.0083668083 -0.022709906 0.74473196
0.0085164532 -0.024332672 0.7476849
0.0086773681 -0.02603209 0.75086033
0.0088515887 -0.027819246 0.75429821
0.0090427576 -0.029711902 0.75807059
0.0092540756 -0.031728268 0.76224065
0.0094939135 -0.033906847 0.76697338
0.0097740637 -0.036303639 0.77250165
0.010121833 -0.03904137 0.77936429
0.010635148 -0.04254055 0.78949368
0.0087578231 0.054736435 0.73084533
0.0087857656 0.053812832 0.73132777
0.0088192448 0.052915484 0.73190594
0.0088313567 0.051884264 0.73211509
0.008779184 0.050480336 0.73121423
0.0087256078 0.049081564 0.7302891
0.0086726816 0.047699749 0.72937524
0.0086203609 0.046334475 0.72847182
0.0085686687 0.044985533 0.7275793
0.0085176239 0.043652862 0.72669792
0.0084671527 0.042335808 0.72582644
0.0084173065 0.041034371 0.72496581
0.0083680125 0.039748073 0.72411466
0.0083193239 0.038476884 0.72327399
0.0082711969 0.037220418 0.72244304
0.008223596 0.035978258 0.72162104
0.008176568 0.034750432 0.7208091
0.0081300754 0.033536583 0.72000635
0.0080841072 0.032336473 0.71921259
0.0080386298 0.031149715 0.71842736
0.0079936869 0.029976368 0.71765131
0.0079492182 0.028815955 0.71688348
0.0079052672 0.027668476 0.71612465
0.0078617735 0.026533484 0.71537364
0.0078187818 0.025411069 0.71463132
0.0077762324 0.024300784 0.71389663
0.0077341688 0.023202509 0.71317035
0.0076925326 0.022116035 0.71245146
0.0076513672 0.021041244 0.71174067
0.0076106158 0.019977897 0.71103698
0.0075703203 0.018925786 0.71034122
0.0075304247 0.017884761 0.70965236
0.0074909483 0.016854614 0.70897073
0.0074519063 0.015835345 0.7082966
0.0074132462 0.014826506 0.70762914
0.007375008 0.013828129 0.70696884
0.0071517653 0.012515604 0.70311421
0.0071918243 0.011686742 0.70380586
0.0072502526 0.010875434 0.70481473
0.0073238593 0.010070324 0.70608568
0.0073769521 0.009221226 0.7070024
0.0074249757 0.0083531141 0.70783162
0.0074520465 0.0074520409 0.7082991
0.0074740751 0.0065398216 0.70867938
0.0074966601 0.0056225359 0.70906937
0.0075203325 0.0047002137 0.70947814
0.0075459015 0.003772974 0.70991957
0.0075716693 0.0028394163 0.71036452
0.0075991177 0.001899749 0.7108385
0.0076286495 0.00095358491 0.71134841
0.0076584606 -0 0.7118631
0.0076900963 -0.00096124411 0.71240938
0.0077235489 -0.0019308627 0.71298695
0.0077579506 -0.0029092133 0.71358097
0.0078163669 -0.0039081872 0.71458966
0.0079032984 -0.0049395263 0.71609062
0.007993768 -0.0059953034 0.7176528
0.0080873771 -0.0070764124 0.71926904
0.0081842188 -0.0081841946 0.72094119
0.0082853697 -0.009321034 0.72268772
0.0083905896 -0.010488242 0.72450447
0.0085001253 -0.011687636 0.72639585
0.0086144926 -0.012921721 0.72837055
0.008734257 -0.014193147 0.73043847
0.0088602332 -0.015505373 0.73261368
0.0089927856 -0.016861439 0.73490238
0.0091326591 -0.018265307 0.7373175
0.0092806052 -0.01972127 0.73987204
0.0094377669 -0.021234959 0.74258572
0.0096060783 -0.022814423 0.74549186
0.0097874226 -0.024468511 0.74862301
0.0099841189 -0.026208252 0.75201929
0.010199628 -0.028048992 0.7557404
0.010439512 -0.030013561 0.75988245
0.010712662 -0.03213796 0.76459879
0.011032984 -0.034478068 0.77012968
0.011438229 -0.037174225 0.77712691
0.01207911 -0.040766984 0.78819275
0.0098827817 0.054904342 0.73130941
0.0099064847 0.053935319 0.73167318
0.0099463155 0.053047031 0.73228449
0.0099603077 0.052014977 0.73249918
0.0099069979 0.050635785 0.73168099
0.009846353 0.049231797 0.73075026
0.0097864466 0.047844887 0.7298308
0.0097272648 0.046474725 0.72892249
0.0096687591 0.045120895 0.72802448
0.0096109882 0.043783426 0.7271378
0.0095538693 0.042461663 0.7262612
0.0094974581 0.041155666 0.72539544
0.0094416775 0.039864868 0.72453928
0.0093865469 0.03858915 0.72369307
0.0093320897 0.037328362 0.7228573
0.0092782285 0.036082 0.72203064
0.0092250165 0.034850091 0.72121394
0.0091724126 0.033632189 0.72040653
0.0091204038 0.032428116 0.71960831
0.0090689519 0.031237513 0.71881866
0.0090181073 0.030060351 0.71803826
0.0089677991 0.028896272 0.71726608
0.0089180795 0.027745187 0.71650308
0.0088688787 0.026606649 0.71574789
0.0088202469 0.025480747 0.71500146
0.0087721162 0.024367034 0.71426278
0.0087245367 0.023265451 0.71353251
0.0086774426 0.022175699 0.71280974
0.008630882 0.02109772 0.71209508
0.0085847899 0.020031184 0.71138763
0.0085392157 0.018976063 0.71068817
0.0084940959 0.017931998 0.70999569
0.0084494501 0.01689893 0.70931047
0.008405298 0.01587671 0.70863283
0.0083615789 0.014865011 0.7079618
0.0083183376 0.013863921 0.70729816
0.0080524655 0.012526035 0.70321751
0.0080660302 0.01165095 0.70342571
0.0081338296 0.010845125 0.70446628
0.0082213227 0.01004833 0.70580912
0.0082806107 0.0092006922 0.7067191
0.0083406037 0.0083405972 0.70763987
0.008380034 0.0074489415 0.7082451
0.0084061427 0.0065381229 0.70864576
0.008432175 0.0056214929 0.70904529
0.0084586097 0.0046992302 0.70945102
0.0084880898 0.003772527 0.70990348
0.0085181557 0.0028394163 0.71036494
0.0085485699 0.0018996894 0.71083176
0.008581873 0.00095355511 0.71134287
0.0086165173 -0 0.7118746
0.0086525884 -0.00096139312 0.71242821
0.0086906562 -0.0019312501 0.71301252
0.0087294308 -0.0029097795 0.71360761
0.0087861968 -0.0039049685 0.71447891
0.0088836849 -0.004935354 0.71597517
0.0089874025 -0.0059915781 0.71756697
0.0090948986 -0.0070737898 0.71921682
0.0092063276 -0.0081834197 0.72092712
0.009322566 -0.0093225539 0.72271109
0.0094440421 -0.010493338 0.72457552
0.0095707113 -0.011697501 0.7265197
0.0097032506 -0.012937635 0.72855389
0.009842407 -0.01421681 0.73068964
0.0099890037 -0.015538394 0.7329396
0.010143684 -0.016906142 0.73531371
0.010307357 -0.018324167 0.73782575
0.010482143 -0.01979959 0.74050838
0.010669121 -0.021338224 0.74337816
0.010869905 -0.02294755 0.74645984
0.011088626 -0.024641365 0.74981678
0.011328449 -0.026433051 0.7534976
0.011596783 -0.028347701 0.75761604
0.011901324 -0.030414462 0.76229012
0.012264349 -0.03270492 0.76786184
0.012728909 -0.035358101 0.77499199
0.013569502 -0.039200753 0.78789353
0.011016828 0.055084139 0.7318061
0.01102843 0.054039329 0.73196638
0.011078715 0.053177893 0.73266101
0.011093842 0.05214107 0.73286986
0.01104182 0.050792396 0.73215127
0.010974021 0.049383104 0.73121476
0.010907049 0.047991037 0.7302897
0.010840851 0.04661566 0.72937524
0.010775452 0.045256913 0.72847188
0.010710875 0.043914616 0.72757983
0.010647029 0.042588115 0.72669792
0.010583979 0.041277528 0.72582698
0.010521633 0.039982229 0.72496581
0.010460016 0.038702071 0.72411466
0.010399154 0.037436992 0.72327399
0.010338961 0.036186367 0.72244251
0.010279495 0.034950286 0.7216211
0.01022071 0.033728361 0.72080904
0.010162594 0.032520294 0.72000635
0.0101051 0.031325817 0.71921211
0.010048287 0.0301449 0.7184273
0.0099920752 0.028977036 0.71765089
0.0099365227 0.027822256 0.71688354
0.0098815514 0.026680231 0.71612418
0.009827218 0.025550783 0.71537364
0.0097734462 0.024433643 0.7146309
0.009720291 0.023328692 0.71389663
0.0096676797 0.022235692 0.71316987
0.0096156662 0.021154463 0.7124514
0.0095641781 0.020084798 0.7117402
0.0095132701 0.019026577 0.71103704
0.0094628697 0.017979473 0.71034086
0.0094130011 0.016943425 0.70965195
0.0093636848 0.015918285 0.70897079
0.0093148537 0.014903784 0.70829624
0.0092665572 0.013899863 0.70762908
0.0092187598 0.012906253 0.7069689
0.0089494986 0.01163438 0.70324945
0.0090128016 0.010815412 0.70412385
0.0091148969 0.010026395 0.70553416
0.0091822697 0.0091822743 0.70646483
0.0092525175 0.0083272755 0.70743513
0.0093074199 0.0074459612 0.70819354
0.009339367 0.0065375865 0.70863485
0.0093692308 0.0056215227 0.70904732
0.0093995836 0.0046998262 0.70946664
0.0094315987 0.0037726462 0.70990884
0.0094658816 0.0028398037 0.7103824
0.0095006572 0.0019001365 0.71086282
0.0095382277 0.00095385313 0.71138179
0.0095767444 -0 0.71191376
0.0096164746 -0.00096163154 0.7124626
0.0096600493 -0.0019319952 0.71306449
0.0097040515 -0.0029112101 0.71367234
0.0097605828 -0.0039042234 0.71445322
0.0098660784 -0.0049329996 0.71591049
0.0099835889 -0.0059901476 0.71753365
0.010105752 -0.0070739985 0.71922112
0.010232631 -0.0081860721 0.72097379
0.010364905 -0.0093283951 0.72280091
0.010503498 -0.010503471 0.72471523
0.010648631 -0.011713475 0.72672004
0.010800967 -0.012961179 0.72882438
0.01096132 -0.014249682 0.73103935
0.011130587 -0.01558283 0.73337746
0.011309721 -0.016964585 0.73585188
0.011500849 -0.018401325 0.73849201
0.011705502 -0.019899338 0.74131894
0.011926076 -0.021466911 0.74436575
0.01216661 -0.023116529 0.74768829
0.012430124 -0.024860263 0.75132835
0.012725531 -0.026723623 0.75540888
0.013063319 -0.028739274 0.76007479
0.013467719 -0.030975759 0.76566094
0.014000217 -0.033600509 0.77301645
0.012148844 0.05411759 0.73218697
0.012211608 0.053287059 0.73297513
0.012227583 0.05224514 0.73317575
0.012183638 0.050949812 0.73262388
0.012108597 0.049535215 0.73168159
0.012034476 0.048137933 0.7307508
0.011961212 0.046757489 0.72983074
0.011888837 0.045393765 0.72892195
0.011817373 0.044046581 0.72802454
0.011746721 0.042715371 0.72713733
0.011676951 0.041400105 0.72626114
0.011607965 0.040100276 0.72539485
0.011539787 0.038815647 0.72453874
0.011472447 0.037546217 0.72369307
0.011405848 0.036291331 0.72285682
0.011340057 0.035051107 0.72203058
0.01127502 0.03382507 0.72121394
0.011210687 0.03261295 0.72040606
0.01114716 0.031414747 0.71960831
0.011084312 0.030229956 0.71881908
0.011022131 0.029058367 0.71803826
0.01096068 0.027899921 0.71726662
0.010899875 0.02675426 0.71650302
0.010839776 0.025621325 0.71574831
0.010780301 0.024500698 0.71500146
0.01072151 0.023392409 0.71426326
0.010663323 0.022296071 0.71353257
0.010605798 0.021211624 0.7128101
0.010548855 0.020138741 0.71209508
0.010492555 0.01907739 0.71138811
0.010436819 0.018027246 0.71068817
0.010381673 0.016988188 0.70999569
0.010327139 0.015960127 0.70931089
0.010273143 0.014942795 0.70863277
0.010219739 0.013935983 0.70796221
0.010166888 0.012939692 0.70729852
0.0098480349 0.011638612 0.70329452
0.0098903431 0.010789484 0.70382583
0.0099772457 0.0099772811 0.70491707
0.010085363 0.0091685355 0.70627475
0.010162877 0.0083151162 0.70724815
0.010234126 0.0074430108 0.70814288
0.010274562 0.0065383911 0.70865065
0.010307972 0.0056225359 0.70907021
0.010342517 0.0047011375 0.70950401
0.010378313 0.0037739575 0.70995349
0.010416316 0.002840817 0.71043074
0.01045473 0.0019008815 0.71091306
0.010496595 0.00095421076 0.71143883
0.010540359 2.9802322e-08 0.71198839
0.010584453 -0.00096222758 0.71254212
0.010632512 -0.0019331574 0.71314561
0.01068202 -0.0029132366 0.71376729
0.010739814 -0.0039053857 0.71449304
0.010851607 -0.0049325228 0.71589684
0.01098368 -0.0059910715 0.71755546
0.011121391 -0.0070772469 0.71928471
0.011264732 -0.0081925392 0.72108471
0.011414364 -0.0093390048 0.72296375
0.011571093 -0.010519177 0.7249319
0.011736143 -0.011736095 0.72700447
0.011909915 -0.012992591 0.72918665
0.012093244 -0.014292002 0.73148882
0.012287426 -0.01563856 0.73392725
0.012494433 -0.017037839 0.73652673
0.012716684 -0.01849696 0.73931766
0.012956781 -0.020024091 0.74233264
0.013217964 -0.021629333 0.7456125
0.013505487 -0.023327619 0.74922305
0.013828089 -0.025141954 0.7532742
0.014200548 -0.02711013 0.75795138
0.014649174 -0.029298335 0.76358497
0.015254177 -0.031895071 0.7711823
0.013271372 0.05419144 0.73239517
0.013346815 0.053387284 0.73326361
0.013365008 0.052346289 0.73347306
0.013332603 0.05110833 0.73309994
0.013250184 0.04968822 0.73215127
0.013168825 0.048285723 0.73121476
0.013088412 0.046900153 0.7302891
0.013008974 0.045531452 0.72937465
0.012930542 0.04417938 0.72847188
0.012853003 0.042843372 0.72757936
0.012776435 0.041523457 0.72669792
0.012700729 0.040218979 0.7258265
0.012625914 0.038929939 0.72496533
0.01255202 0.037656069 0.72411466
0.012478942 0.03639695 0.72327346
0.012406753 0.035152525 0.72244251
0.012335395 0.033922374 0.7216211
0.012264811 0.032706171 0.72080863
0.012195112 0.031504065 0.72000629
0.012126161 0.030315399 0.71921259
0.012057944 0.029140085 0.71842736
0.011990531 0.027977914 0.71765137
0.011923826 0.026828617 0.71688348
0.011857902 0.025692135 0.71612465
0.011792661 0.024568051 0.71537369
0.011728173 0.023456365 0.71463132
0.01166435 0.022356719 0.71389663
0.011601253 0.021268994 0.71317035
0.011538799 0.020192891 0.71245146
0.011477051 0.019128442 0.71174067
0.011415924 0.018075228 0.71103704
0.011355444 0.01703319 0.7103408
0.011295637 0.016002178 0.70965236
0.011236422 0.014981925 0.70897073
0.011177859 0.013972342 0.70829666
0.011119903 0.012973219 0.7076295
0.010763367 0.011660308 0.70352542
0.010767979 0.010767996 0.70357847
0.010865313 0.0099598765 0.70469892
0.010988156 0.0091567934 0.70611298
0.011072809 0.0083046556 0.70708734
0.011158252 0.0074388385 0.70807093
0.011211887 0.0065402687 0.70868832
0.01124981 0.0056249201 0.70912486
0.011287848 0.0047033131 0.70956272
0.011327331 0.0037758052 0.7100172
0.011370204 0.0028425455 0.71051073
0.011413331 0.0019022524 0.71100724
0.011458294 0.00095489621 0.71152472
0.011506655 -0 0.71208143
0.011556285 -0.00096300244 0.71265274
0.011609519 -0.0019349158 0.71326548
0.01166412 -0.002916038 0.71389401
0.011725013 -0.0039083064 0.71459496
0.01184169 -0.0049340129 0.71593803
0.011989121 -0.0059945583 0.7176351
0.012143367 -0.0070836246 0.7194106
0.012304391 -0.0082029104 0.72126424
0.012472967 -0.0093546808 0.72320473
0.012650037 -0.010541677 0.72524297
0.012836499 -0.011766791 0.7273894
0.013033251 -0.013033241 0.72965419
0.013242514 -0.014346033 0.732063
0.013465867 -0.015710115 0.73463404
0.013704827 -0.017131031 0.7373848
0.013962902 -0.018617183 0.74035549
0.014244913 -0.020180285 0.74360174
0.014555807 -0.021833688 0.7471804
0.014906742 -0.023602337 0.75122005
0.01531198 -0.025519967 0.75588477
0.015807563 -0.027663231 0.76158947
0.01650287 -0.030255258 0.76959318
0.014397772 0.054268509 0.73261249
0.014478271 0.053458244 0.73346788
0.014500589 0.052425206 0.73370504
0.014488688 0.051267684 0.7335785
0.014398844 0.049842179 0.73262388
0.014310213 0.048434615 0.73168212
0.014222563 0.04704386 0.7307508
0.014135979 0.045670122 0.7298308
0.014050494 0.044313133 0.72892243
0.013965986 0.042972267 0.72802454
0.013882539 0.041647643 0.72713786
0.013800033 0.040338546 0.72626114
0.013718503 0.039044976 0.72539485
0.013637979 0.037766695 0.72453922
0.013558346 0.036503255 0.72369307
0.013479684 0.035254568 0.7228573
0.013401931 0.034020305 0.72203106
0.013325024 0.032800078 0.72121394
0.01324904 0.031593889 0.72040653
0.013173917 0.030401349 0.71960837
0.013099597 0.02922219 0.71881866
0.013026155 0.028056324 0.7180382
0.012953488 0.026903391 0.71726614
0.01288167 0.025763363 0.71650302
0.012810603 0.024635792 0.71574783
0.012740356 0.023520678 0.71500152
0.012670834 0.022417635 0.71426278
0.012602109 0.021326661 0.71353251
0.012534083 0.02024737 0.71280968
0.012466828 0.019179761 0.71209514
0.012400253 0.018123448 0.71138763
0.012334384 0.0170784 0.71068776
0.012269249 0.016044438 0.70999569
0.012204762 0.015021294 0.70931047
0.012140987 0.01400885 0.70863283
0.012077873 0.013006985 0.70796216
0.012015376 0.012015373 0.7072981
0.01166246 0.010765374 0.70354819
0.011750258 0.0099425316 0.70448101
0.011888792 0.0091452301 0.70595312
0.011984536 0.0082969964 0.70697045
0.012082138 0.0074351728 0.70800757
0.012151939 0.0065433979 0.70874912
0.012194829 0.005628407 0.70920497
0.012237444 0.0047067404 0.70965773
0.012280357 0.0037786067 0.71011376
0.012327148 0.0028447807 0.71061087
0.012375406 0.0019039214 0.71112365
0.012424882 0.00095576048 0.71164936
0.012478297 2.9802322e-08 0.71221691
0.012532174 -0.00096398592 0.71278942
0.012590536 -0.0019369721 0.71340954
0.012651553 -0.0029195845 0.71405786
0.01271555 -0.0039124489 0.71473789
0.012837869 -0.0049376488 0.71603763
0.013001624 -0.0060007274 0.71777761
0.013173468 -0.0070933998 0.71960354
0.013353697 -0.0082176328 0.72151852
0.013542863 -0.0093758106 0.72352862
0.013741957 -0.010570735 0.72564411
0.013952227 -0.011805713 0.72787833
0.014175681 -0.013085216 0.73025268
0.014414144 -0.014414161 0.73278654
0.014669612 -0.015798032 0.73550099
0.014946943 -0.017246455 0.73844779
0.015248963 -0.018767893 0.7416569
0.015584142 -0.020379245 0.7452184
0.015961425 -0.022100419 0.74922729
0.016402051 -0.023972243 0.75390923
0.016946213 -0.026071072 0.75969124
0.017743872 -0.028663158 0.76816684
0.015530973 0.054358423 0.73286593
0.015594087 0.053465426 0.73348862
0.015639365 0.052503645 0.73393536
0.015652005 0.05142802 0.73406005
0.015554705 0.0499973 0.7331
0.015458605 0.048584223 0.73215187
0.015363629 0.047188312 0.73121482
0.015269814 0.045809478 0.7302891
0.015177191 0.044447482 0.72937524
0.015085632 0.043101847 0.72847188
0.014995225 0.041772455 0.72757989
0.014905841 0.040458709 0.72669792
0.014817517 0.039160609 0.7258265
0.014730285 0.037877917 0.72496581
0.014644023 0.036610067 0.72411466
0.014558816 0.035357147 0.72327399
0.014474596 0.034118682 0.72244304
0.014391294 0.032894403 0.72162116
0.014308995 0.03168422 0.72080904
0.014227631 0.030487806 0.72000629
0.01414714 0.029304832 0.71921211
0.014067601 0.02813521 0.7184273
0.013988906 0.026978642 0.71765083
0.013911132 0.025834978 0.71688348
0.013834172 0.02470386 0.71612418
0.013758104 0.02358532 0.71537364
0.013682824 0.022478938 0.7146309
0.013608407 0.021384686 0.71389663
0.013534752 0.020302147 0.71316993
0.013461933 0.019231319 0.71245146
0.01338985 0.018171936 0.7117402
0.013318535 0.017123848 0.71103656
0.013248017 0.016086906 0.7103408
0.013178201 0.015060812 0.70965195
0.013109201 0.014045566 0.70897114
0.013040877 0.01304087 0.70829701
0.012973221 0.012046576 0.7076295
0.012569507 0.010773867 0.70364624
0.012637224 0.0099292696 0.70431435
0.012758353 0.009113133 0.70550948
0.012900986 0.0082935393 0.70691669
0.01300694 0.0074325502 0.70796216
0.01309444 0.0065472126 0.70882553
0.013144088 0.0056332052 0.70931536
0.013190935 0.0047110617 0.70977759
0.013238792 0.0037825108 0.71024978
0.013289458 0.0028477609 0.71074969
0.013341538 0.0019059181 0.71126354
0.013395622 0.00095683336 0.71179712
0.013454929 -0 0.71238238
0.013514718 -0.00096532702 0.71297222
0.013577653 -0.0019396245 0.71359324
0.013644262 -0.002923727 0.71425039
0.013714056 -0.0039182603 0.714939
0.013841669 -0.0049434304 0.71619815
0.014023583 -0.0060101151 0.71799302
0.014214177 -0.0071071088 0.71987355
0.014414911 -0.0082370341 0.72185409
0.014626276 -0.0094025731 0.72393954
0.014849702 -0.010606915 0.72614408
0.015086944 -0.011854023 0.72848481
0.015340364 -0.013148874 0.73098528
0.015613151 -0.014497936 0.73367673
0.015908688 -0.015908659 0.73659265
0.016230552 -0.017389894 0.73976839
0.016589135 -0.018958956 0.7433064
0.01699432 -0.020635933 0.7473042
0.017470667 -0.022462279 0.75200415
0.018069424 -0.024522781 0.7579118
0.019003863 -0.027148366 0.76713163
0.016682394 0.054495841 0.7332533
0.016707573 0.053464234 0.73348516
0.016773978 0.052558482 0.73409665
0.016794249 0.051502407 0.73428327
0.016717717 0.050153136 0.73357856
0.016614115 0.048734784 0.73262441
0.016511723 0.047333628 0.73168159
0.016410589 0.045949668 0.7307502
0.016310744 0.044582725 0.72983074
0.016212048 0.043232113 0.72892189
0.0161146 0.041897982 0.72802454
0.016018257 0.040579617 0.72713733
0.015923059 0.039276898 0.72626066
0.015829042 0.037989706 0.72539485
0.015736073 0.036717534 0.72453874
0.015644247 0.035460293 0.72369313
0.015553483 0.034217685 0.72285724
0.015463714 0.032989264 0.72203058
0.015375027 0.031775087 0.72121388
0.015287354 0.030574709 0.72040653
0.015200622 0.029387891 0.71960783
0.01511492 0.028214544 0.7188186
0.015030129 0.02705425 0.71803778
0.014946332 0.02590698 0.7172662
0.014863417 0.024772376 0.71650255
0.014781464 0.023650378 0.71574789
0.014700411 0.022540629 0.71500146
0.014620242 0.021443039 0.71426326
0.014540895 0.020357281 0.71353251
0.014462451 0.019283265 0.71281016
0.014384803 0.018220752 0.71209508
0.014307984 0.017169595 0.71138763
0.014232026 0.016129673 0.71068811
0.014156827 0.015100658 0.70999563
0.014082462 0.014082462 0.70931089
0.014008874 0.013074964 0.70863318
0.013936008 0.012077898 0.70796216
0.013490257 0.010792226 0.7038573
0.013527279 0.009920001 0.70419824
0.013659367 0.0091062784 0.70541465
0.013817818 0.0082907081 0.70687377
0.01393492 0.0074319839 0.7079522
0.014039251 0.0065516531 0.70891297
0.014098261 0.0056393445 0.70945632
0.014149373 0.0047164559 0.70992702
0.014201942 0.0037871897 0.71041113
0.014257317 0.0028514862 0.71092117
0.014314779 0.0019086301 0.71145028
0.014372753 0.00095820427 0.71198416
0.014436569 -0 0.71257186
0.014502604 -0.00096681714 0.71317989
0.014571578 -0.001942873 0.71381509
0.014644335 -0.0029288828 0.71448511
0.014719036 -0.0039250851 0.71517301
0.014855102 -0.0049516559 0.71642596
0.015056711 -0.0060226321 0.71828258
0.015268465 -0.0071252882 0.72023255
0.015491423 -0.0082620978 0.72228581
0.015727695 -0.0094365776 0.72446162
0.015978953 -0.010652632 0.72677535
0.016247239 -0.011914611 0.72924602
0.016535778 -0.013228595 0.73190308
0.016848035 -0.014601618 0.73477864
0.017191242 -0.016045123 0.73793918
0.017571738 -0.017571688 0.7414431
0.018005945 -0.019206315 0.74544162
0.018518636 -0.020987749 0.7501629
0.019174445 -0.0230093 0.75620216
0.020323804 -0.025743484 0.76678646
0.017817209 0.053451627 0.73344886
0.01791063 0.052612484 0.73425537
0.017931823 0.051553994 0.73443842
0.017888006 0.050310045 0.73406011
0.017776806 0.04888621 0.7331
0.017666912 0.047479868 0.73215133
0.017558368 0.046090722 0.73121423
0.017451216 0.044718772 0.7302891
0.017345298 0.043363273 0.72937471
0.017240722 0.042024285 0.72847193
0.017137337 0.04070121 0.72757936
0.017035186 0.039393902 0.72669744
0.016934305 0.03810218 0.7258265
0.016834551 0.036825597 0.72496527
0.016736025 0.035564065 0.72411472
0.016638648 0.034317225 0.72327399
0.016542338 0.033084691 0.72244251
0.016447192 0.031866431 0.72162116
0.016353192 0.030662239 0.72080958
0.016260151 0.029471517 0.72000635
0.016168214 0.028294414 0.71921259
0.01607726 0.027130395 0.7184273
0.015987374 0.025979489 0.71765137
0.015898436 0.024841309 0.71688354
0.015810534 0.023715794 0.71612465
0.015723547 0.022602588 0.71537364
0.015637564 0.02150166 0.71463132
0.015552465 0.020412624 0.71389663
0.015468338 0.019335449 0.71317041
0.015385065 0.018269747 0.7124514
0.015302685 0.01721552 0.71174026
0.015221232 0.016172558 0.71103698
0.015140592 0.015140593 0.7103408
0.015060849 0.014119565 0.70965236
0.014981943 0.013109207 0.70897114
0.014903813 0.012109399 0.70829666
0.014427128 0.010820359 0.70418131
0.014423586 0.0099162459 0.70415068
0.014560585 0.0091004074 0.70533347
0.014740741 0.0082916915 0.70688879
0.014868838 0.0074344277 0.70799464
0.014989872 0.0065580606 0.70903963
0.015058419 0.005646944 0.70963138
0.015114429 0.0047232807 0.71011496
0.015170907 0.0037927628 0.71060252
0.01523078 0.0028557777 0.71111941
0.015293931 0.0019117594 0.71166468
0.015357605 0.0009598732 0.71221435
0.015426915 2.9802322e-08 0.71281272
0.015497607 -0.00096857548 0.71342313
0.015572111 -0.0019465089 0.71406627
0.015651967 -0.0029347241 0.71475565
0.015733372 -0.0039333105 0.71545851
0.015880344 -0.0049625635 0.71672732
0.016103212 -0.0060386956 0.71865141
0.016338032 -0.0071478486 0.72067869
0.016586797 -0.0082933903 0.72282636
0.016851366 -0.0094788671 0.72511041
0.017133821 -0.01070863 0.7275489
0.017437465 -0.011988252 0.73017037
0.01776864 -0.013326466 0.73302954
0.018130925 -0.014731377 0.73615724
0.018536121 -0.016219079 0.73965544
0.018998904 -0.017811447 0.74365085
0.019549033 -0.019549012 0.74840021
0.020270903 -0.021537811 0.75463229
0.01893816 0.053472459 0.73350877
0.019026391 0.052602381 0.73422575
0.019063482 0.051583558 0.73452711
0.019065639 0.050467879 0.73454463
0.018946746 0.049038649 0.73357856
0.018829258 0.047626942 0.73262388
0.018713217 0.046232671 0.73168099
0.018598668 0.044855654 0.7307502
0.018485444 0.043495178 0.72983027
0.018373657 0.042151362 0.72892195
0.018263146 0.040823549 0.72802401
0.01815396 0.039511591 0.72713679
0.018046133 0.038215369 0.72626066
0.017939517 0.036934316 0.72539437
0.017834216 0.035668433 0.72453874
0.017730145 0.034417361 0.72369313
0.017627219 0.033180654 0.72285676
