# .PCD v0.7 - Point Cloud Data file format
VERSION 0.7
FIELDS x y z
SIZE 4 4 4
TYPE F F F
COUNT 1 1 1
WIDTH 1296
HEIGHT 1
VIEWPOINT 0 0 0 1 0 0 0
POINTS 1296
DATA ascii
-0.014894657 -0.0011457205 0.73789221
-0.014894657 -0.0022914708 0.73789221
-0.014894657 -0.0034372509 0.73789221
-0.014894657 -0.0045829415 0.73789221
-0.014894657 -0.0057286918 0.73789215
-0.014894657 -0.0068744421 0.73789221
-0.014894657 -0.0080201924 0.73789221
-0.014894657 -0.0091659427 0.73789227
-0.014894657 -0.010311663 0.73789215
-0.014894657 -0.011457384 0.73789221
-0.014894657 -0.012603134 0.73789227
-0.014894599 -0.013748884 0.73789161
-0.014894599 -0.014894605 0.73789161
-0.014894599 -0.016040325 0.73789155
-0.014894599 -0.017186075 0.73789161
-0.014894599 -0.018331766 0.73789155
-0.014894599 -0.019477516 0.73789155
-0.014894599 -0.020623267 0.73789155
-0.014894599 -0.021769017 0.73789161
-0.014894599 -0.022914737 0.73789155
-0.014894599 -0.024060488 0.73789161
-0.014894599 -0.025206208 0.73789161
-0.014894599 -0.026351959 0.73789161
-0.014894599 -0.027497709 0.73789161
-0.014894599 -0.028643429 0.73789155
-0.014894599 -0.02978918 0.73789161
-0.014894599 -0.03093493 0.73789155
-0.014894599 -0.03208068 0.73789161
-0.014894599 -0.033226401 0.73789167
-0.014894599 -0.034372151 0.73789161
-0.014894599 -0.035517871 0.73789155
-0.014894599 -0.036663622 0.73789161
-0.014894599 -0.037809312 0.73789155
-0.014894599 -0.038955063 0.73789161
-0.014894599 -0.040100813 0.73789155
-0.014894599 -0.041246563 0.73789161
-0.014894599 -0.042392313 0.73789167
-0.014894599 -0.043538064 0.73789161
-0.014894599 -0.044683754 0.73789155
-0.014894599 -0.045829505 0.73789161
-0.014894599 -0.046975225 0.73789155
-0.014894599 -0.048121005 0.73789155
-0.014894599 -0.049266756 0.73789155
-0.014894599 -0.050412476 0.73789161
-0.014924728 -0.051662475 0.73821175
-0.015091699 -0.053401381 0.73998588
-0.015420971 -0.055752724 0.74348468
-0.01579172 -0.058307916 0.74742407
-0.015928742 -0.060039103 0.74887997
-0.014315999 0.060843021 0.74441999
-0.014315827 0.059649318 0.74441797
-0.014337624 0.058545321 0.74466896
-0.014325595 0.057302386 0.7445305
-0.014313013 0.056059331 0.7443856
-0.014254756 0.054643214 0.74371505
-0.014153562 0.05307588 0.74255013
-0.014062542 0.051562697 0.7415024
-0.013976518 0.050082564 0.74051219
-0.013902253 0.048657894 0.73965734
-0.013831347 0.047257125 0.73884106
-0.013766734 0.045889139 0.73809737
-0.013712041 0.044564158 0.73746771
-0.013701617 0.043388456 0.73734778
-0.013701617 0.04224667 0.73734778
-0.013701617 0.041104883 0.73734778
-0.013701617 0.039963067 0.73734778
-0.013701617 0.03882128 0.73734778
-0.013701617 0.037679493 0.73734778
-0.013701617 0.036537647 0.73734778
-0.013701617 0.035395861 0.73734772
-0.013701617 0.034254074 0.73734772
-0.013701565 0.033112139 0.73734719
-0.013701565 0.031970322 0.73734713
-0.013701565 0.030828506 0.73734719
-0.013701565 0.029686749 0.73734719
-0.013701565 0.028544933 0.73734719
-0.013701565 0.027403146 0.73734719
-0.013701565 0.02626133 0.73734719
-0.013701565 0.025119543 0.73734719
-0.013701565 0.023977757 0.73734725
-0.013701565 0.02283594 0.73734713
-0.013701512 0.021694094 0.73734659
-0.013701512 0.020552278 0.73734653
-0.013701512 0.019410491 0.73734653
-0.013701512 0.018268704 0.73734659
-0.013701512 0.017126888 0.73734653
-0.013701512 0.015985131 0.73734653
-0.013701512 0.014843315 0.73734659
-0.013701512 0.013701558 0.73734653
-0.013701512 0.012559712 0.73734659
-0.013701459 0.011417925 0.73734593
-0.013701459 0.010276109 0.73734593
-0.013701459 0.0091343224 0.73734593
-0.013701459 0.0079925358 0.73734593
-0.013701459 0.0068507195 0.73734599
-0.013701459 0.0057089329 0.73734599
-0.013701459 0.0045671761 0.73734593
-0.013701459 0.0034253895 0.73734593
-0.013701459 0.0022835732 0.73734599
-0.013701459 0.0011418164 0.73734593
-0.013701407 -0 0.73734534
-0.013701407 -0.0011417866 0.73734534
-0.013701407 -0.0022835433 0.73734534
-0.013701407 -0.0034253001 0.73734534
-0.013701407 -0.0045671165 0.73734534
-0.013701407 -0.0057089031 0.73734534
-0.013701407 -0.0068506896 0.73734534
-0.013701407 -0.0079924762 0.73734534
-0.013701407 -0.0091342628 0.7373454
-0.013701407 -0.010276049 0.7373454
-0.013701354 -0.011417776 0.73734474
-0.013701354 -0.012559593 0.7373448
-0.013701354 -0.01370132 0.73734474
-0.013701354 -0.014843136 0.73734474
-0.013701354 -0.015984923 0.73734474
-0.013701354 -0.017126679 0.7373448
-0.013701354 -0.018268466 0.7373448
-0.013701354 -0.019410223 0.73734474
-0.013701354 -0.020552009 0.73734474
-0.013701354 -0.021693766 0.73734474
-0.013701301 -0.022835493 0.73734421
-0.013701301 -0.02397725 0.73734415
-0.013701301 -0.025119036 0.73734415
-0.013701301 -0.026260823 0.73734415
-0.013701301 -0.02740258 0.73734415
-0.013701301 -0.028544366 0.73734415
-0.013701301 -0.029686123 0.73734409
-0.013701301 -0.03082791 0.73734415
-0.013701301 -0.031969696 0.73734415
-0.013701301 -0.033111513 0.73734415
-0.013701301 -0.03425324 0.73734415
-0.013701301 -0.035394996 0.73734415
-0.013701301 -0.036536783 0.73734415
-0.013701301 -0.037678599 0.73734415
-0.013701301 -0.038820326 0.73734415
-0.013701354 -0.039962292 0.73734474
-0.013701354 -0.041104048 0.73734474
-0.013701354 -0.042245805 0.73734474
-0.013701354 -0.043387592 0.73734474
-0.013701354 -0.044529408 0.73734474
-0.013701354 -0.045671195 0.73734474
-0.013701354 -0.046812952 0.73734474
-0.013701354 -0.047954738 0.7373448
-0.013701354 -0.049096495 0.73734474
-0.013701354 -0.050238281 0.73734474
-0.013720053 -0.051450163 0.73755991
-0.013832259 -0.053023636 0.73885161
-0.014108798 -0.055259436 0.74203485
-0.014424201 -0.05769679 0.74566543
-0.014585015 -0.059555441 0.74751663
-0.013068009 0.060588062 0.74372941
-0.013067904 0.059399605 0.74372804
-0.013085101 0.058288246 0.74394405
-0.01307412 0.057050705 0.74380618
-0.013062113 0.055810869 0.74365538
-0.012996675 0.05434972 0.74283367
-0.012909537 0.052811772 0.74173939
-0.012831256 0.051325023 0.74075639
-0.012756902 0.049867898 0.73982263
-0.012691179 0.048457235 0.73899734
-0.012629542 0.047073752 0.73822337
-0.01257251 0.045718223 0.73750716
-0.012527254 0.044414818 0.73693895
-0.012521118 0.043254763 0.73686182
-0.012521118 0.042116523 0.73686182
-0.012521118 0.040978223 0.73686182
-0.012521118 0.039839923 0.73686182
-0.012521118 0.038701683 0.73686182
-0.012521118 0.037563354 0.73686182
-0.012521118 0.036425084 0.73686182
-0.012521118 0.035286814 0.73686182
-0.012521118 0.034148514 0.73686182
-0.012521118 0.033010244 0.73686182
-0.012521118 0.031871945 0.73686182
-0.012521118 0.030733675 0.73686182
-0.012521118 0.029595375 0.73686182
-0.012521118 0.028457075 0.73686182
-0.012521069 0.027318716 0.73686117
-0.012521069 0.026180446 0.73686123
-0.012521069 0.025042146 0.73686123
-0.012521069 0.023903877 0.73686123
-0.012521069 0.022765577 0.73686123
-0.012521069 0.021627307 0.73686123
-0.012521069 0.020489037 0.73686123
-0.012521069 0.019350737 0.73686123
-0.012521069 0.018212467 0.73686123
-0.012521069 0.017074198 0.73686123
-0.012521069 0.015935898 0.73686123
-0.012521069 0.014797658 0.73686123
-0.012521069 0.013659358 0.73686123
-0.012521069 0.012521058 0.73686123
-0.012521069 0.011382818 0.73686123
-0.012521069 0.010244519 0.73686123
-0.012521069 0.0091062188 0.73686123
-0.012521069 0.0079679787 0.73686123
-0.012521022 0.006829679 0.73686057
-0.012521022 0.0056914091 0.73686063
-0.012521022 0.0045531094 0.73686063
-0.012521022 0.0034148395 0.73686063
-0.012521022 0.0022765696 0.73686063
-0.012521022 0.0011382699 0.73686063
-0.012521022 -0 0.73686063
-0.012521022 -0.0011382699 0.73686063
-0.012521022 -0.00227651 0.73686063
-0.012521022 -0.0034148097 0.73686063
-0.012521022 -0.0045530498 0.73686063
-0.012521022 -0.0056913495 0.73686057
-0.012521022 -0.0068296194 0.73686063
-0.012521022 -0.0079678893 0.73686063
-0.012521022 -0.009106189 0.73686063
-0.012521022 -0.010244459 0.73686063
-0.012521022 -0.011382729 0.73686063
-0.012521022 -0.012520999 0.73686063
-0.012520974 -0.013659209 0.73686004
-0.012520974 -0.014797509 0.73686004
-0.012520974 -0.015935779 0.73686004
-0.012520974 -0.017074019 0.73685998
-0.012520974 -0.018212289 0.73685998
-0.012520974 -0.019350559 0.73685998
-0.012520974 -0.020488828 0.73686004
-0.012520974 -0.021627128 0.73685998
-0.012520974 -0.022765368 0.73686004
-0.012520974 -0.023903638 0.73686004
-0.012520974 -0.025041938 0.73686004
-0.012520974 -0.026180208 0.73686004
-0.012520974 -0.027318478 0.73686004
-0.012520974 -0.028456777 0.73686004
-0.012520974 -0.029594988 0.73685998
-0.012520974 -0.030733258 0.73686004
-0.012520974 -0.031871557 0.73685998
-0.012520974 -0.033009827 0.73686004
-0.012520926 -0.034147948 0.73685944
-0.012520926 -0.035286248 0.73685944
-0.012520926 -0.036424488 0.73685944
-0.012520926 -0.037562758 0.73685944
-0.012520926 -0.038701028 0.73685938
-0.012520926 -0.039839268 0.73685938
-0.012520926 -0.040977538 0.73685938
-0.012520926 -0.042115837 0.73685944
-0.012520926 -0.043254077 0.73685938
-0.012520926 -0.044392347 0.73685944
-0.012520926 -0.045530647 0.73685938
-0.012520926 -0.046668887 0.73685944
-0.012520974 -0.047807366 0.73686004
-0.012520974 -0.048945606 0.7368601
-0.012520974 -0.050083876 0.73685998
-0.012533782 -0.051274568 0.73702085
-0.012609876 -0.05273217 0.73797643
-0.012840019 -0.054861873 0.74086642
-0.013100612 -0.057166278 0.74413884
-0.013278699 -0.059150547 0.7463752
-0.011836179 0.060364515 0.74312401
-0.011837167 0.059185863 0.74313766
-0.011849902 0.05806452 0.74331355
-0.011839995 0.056831986 0.7431767
-0.011826247 0.055583388 0.7429868
-0.01176119 0.054101467 0.7420882
-0.011685495 0.052584738 0.74104249
-0.011618161 0.051119924 0.74011242
-0.01155402 0.049682319 0.73922646
-0.011495737 0.048282146 0.73842132
-0.011442 0.046912223 0.73767912
-0.011391641 0.045566589 0.73698348
-0.011356103 0.044288814 0.73649263
-0.011351595 0.04313609 0.73643029
-0.011351595 0.04200089 0.73643029
-0.011351595 0.040865779 0.73643029
-0.011351595 0.039730579 0.73643029
-0.011351595 0.038595438 0.73643029
-0.011351595 0.037460268 0.73643029
-0.011351595 0.036325157 0.73643029
-0.011351595 0.035189956 0.73643035
-0.011351595 0.034054816 0.73643029
-0.011351595 0.032919675 0.73643029
-0.011351595 0.031784505 0.73643035
-0.011351595 0.030649334 0.73643029
-0.011351595 0.029514164 0.73643029
-0.011351595 0.028379023 0.73643029
-0.011351595 0.027243853 0.73643029
-0.011351595 0.026108682 0.73643029
-0.011351595 0.024973512 0.73643035
-0.011351595 0.023838371 0.73643029
-0.011351595 0.02270323 0.73643029
-0.011351595 0.02156803 0.73643035
-0.011351595 0.02043286 0.73643035
-0.011351595 0.019297719 0.73643029
-0.011351595 0.018162608 0.73643029
-0.011351595 0.017027408 0.73643029
-0.011351595 0.015892267 0.73643029
-0.011351595 0.014757097 0.73643029
-0.011351595 0.013621956 0.73643029
-0.011351595 0.012486786 0.73643029
-0.011351595 0.011351615 0.73643029
-0.011351595 0.010216445 0.73643035
-0.011351595 0.0090812743 0.73643035
-0.011351595 0.0079461336 0.73643029
-0.011351595 0.0068109632 0.73643029
-0.011351595 0.0056757927 0.73643035
-0.011351595 0.0045406222 0.73643029
-0.011351595 0.0034054816 0.73643029
-0.011351595 0.0022703111 0.73643035
-0.011351595 0.0011351705 0.73643029
-0.011351595 -0 0.73643035
-0.011351595 -0.0011351407 0.73643035
-0.011351595 -0.0022702813 0.73643029
-0.011351595 -0.0034054518 0.73643029
-0.011351595 -0.0045406222 0.73643029
-0.011351595 -0.0056757629 0.73643029
-0.011351595 -0.0068109334 0.73643029
-0.011351595 -0.007946074 0.73643029
-0.011351595 -0.0090812743 0.73643029
-0.011351595 -0.010216415 0.73643035
-0.011351595 -0.011351585 0.73643029
-0.011351595 -0.012486696 0.73643029
-0.011351595 -0.013621897 0.73643035
-0.011351595 -0.014757067 0.73643035
-0.011351595 -0.015892237 0.73643029
-0.011351595 -0.017027378 0.73643029
-0.011351595 -0.018162549 0.73643029
-0.011351595 -0.019297689 0.73643029
-0.011351595 -0.02043286 0.73643035
-0.011351595 -0.021568 0.73643029
-0.011351595 -0.022703171 0.73643035
-0.011351595 -0.023838311 0.73643035
-0.011351595 -0.024973482 0.73643035
-0.011351595 -0.026108652 0.73643029
-0.011351595 -0.027243793 0.73643029
-0.011351595 -0.028378963 0.73643029
-0.011351552 -0.029514015 0.73642969
-0.011351552 -0.030649155 0.73642969
-0.011351552 -0.031784296 0.73642969
-0.011351552 -0.032919496 0.73642969
-0.011351595 -0.034054756 0.73643029
-0.011351595 -0.035189956 0.73643035
-0.011351595 -0.036325097 0.73643035
-0.011351595 -0.037460238 0.73643029
-0.011351595 -0.038595438 0.73643029
-0.011351595 -0.039730579 0.73643029
-0.011351595 -0.040865719 0.73643029
-0.011351595 -0.04200086 0.73643029
-0.011351595 -0.04313606 0.73643029
-0.011351595 -0.044271201 0.73643029
-0.011351595 -0.045406371 0.73643035
-0.011351595 -0.046541512 0.73643029
-0.011351595 -0.047676682 0.73643029
-0.011351595 -0.048811853 0.73643029
-0.011351595 -0.049947023 0.73643029
-0.011357447 -0.051108509 0.73651117
-0.011412844 -0.052499086 0.73727632
-0.011602568 -0.054532051 0.73989707
-0.011822627 -0.056748629 0.74293679
-0.012004108 -0.058820158 0.74544364
-0.0120957 -0.060478479 0.74670887
-0.010631405 0.061425894 0.74279928
-0.010618161 0.060169607 0.74259603
-0.010633221 0.059073448 0.74282718
-0.010628534 0.057866484 0.74275517
-0.010620562 0.056642979 0.74263287
-0.010604531 0.055379242 0.74238682
-0.010543625 0.053889632 0.74145204
-0.010477915 0.052389592 0.74044347
-0.010420034 0.050942391 0.73955518
-0.010364953 0.049521476 0.73870981
-0.010314189 0.048132926 0.73793066
-0.010266989 0.046771854 0.73720622
-0.010223108 0.045436025 0.73653275
-0.010194295 0.044175327 0.73609048
-0.010191966 0.043032736 0.73605478
-0.010191966 0.041900337 0.73605472
-0.010191966 0.040767878 0.73605478
-0.010191966 0.03963545 0.73605472
-0.010191966 0.038502991 0.73605472
-0.010191966 0.037370563 0.73605472
-0.010191966 0.036238104 0.73605478
-0.010191966 0.035105675 0.73605472
-0.010191966 0.033973217 0.73605472
-0.010191966 0.032840788 0.73605478
-0.010191966 0.03170836 0.73605478
-0.010191966 0.030575901 0.73605472
-0.010191966 0.029443473 0.73605478
-0.010191966 0.028311044 0.73605478
-0.010191966 0.027178615 0.73605472
-0.010191966 0.026046157 0.73605478
-0.010191966 0.024913758 0.73605472
-0.010191966 0.02378127 0.73605472
-0.010191966 0.022648841 0.73605478
-0.010191966 0.021516383 0.73605478
-0.010191966 0.020383954 0.73605472
-0.010191966 0.019251525 0.73605478
-0.010191966 0.018119067 0.73605478
-0.010191966 0.016986638 0.73605478
-0.010191966 0.01585418 0.73605472
-0.010191966 0.014721751 0.73605478
-0.010191966 0.013589323 0.73605478
-0.010191966 0.012456894 0.73605472
-0.010191966 0.011324406 0.73605472
-0.010191966 0.010191977 0.73605478
-0.010191966 0.0090595186 0.73605478
-0.010191966 0.0079271197 0.73605472
-0.010191966 0.0067946613 0.73605478
-0.010191966 0.0056622326 0.73605472
-0.010191966 0.0045297742 0.73605472
-0.010191966 0.0033973455 0.73605478
-0.010191966 0.0022648871 0.73605478
-0.010191966 0.0011324286 0.73605478
-0.010191966 -0 0.73605472
-0.010191966 -0.0011324286 0.73605478
-0.010191966 -0.0022648573 0.73605472
-0.010191966 -0.0033973157 0.73605472
-0.010191966 -0.0045297444 0.73605478
-0.010191966 -0.0056622028 0.73605478
-0.010191966 -0.0067946017 0.73605472
-0.010191966 -0.0079270601 0.73605478
-0.010191966 -0.0090595186 0.73605478
-0.010191966 -0.010191947 0.73605472
-0.010191966 -0.011324346 0.73605478
-0.010191966 -0.012456834 0.73605478
-0.010191966 -0.013589293 0.73605478
-0.010191966 -0.014721692 0.73605478
-0.010191966 -0.01585415 0.73605478
-0.010191966 -0.016986579 0.73605478
-0.010191966 -0.018119037 0.73605472
-0.010191966 -0.019251466 0.73605478
-0.010191966 -0.020383924 0.73605478
-0.010191966 -0.021516353 0.73605478
-0.010191966 -0.022648782 0.73605478
-0.010191966 -0.02378124 0.73605478
-0.010191966 -0.024913669 0.73605472
-0.010191966 -0.026046067 0.73605472
-0.010191966 -0.027178556 0.73605478
-0.010191966 -0.028311014 0.73605478
-0.010191966 -0.029443443 0.73605472
-0.010191966 -0.030575871 0.73605478
-0.010191966 -0.03170833 0.73605478
-0.010191966 -0.032840788 0.73605478
-0.010191966 -0.033973217 0.73605472
-0.010191966 -0.035105646 0.73605478
-0.010191966 -0.036238104 0.73605478
-0.010191966 -0.037370563 0.73605478
-0.010191966 -0.038502961 0.73605478
-0.010191966 -0.03963542 0.73605472
-0.010191966 -0.040767819 0.73605472
-0.010191966 -0.041900307 0.73605472
-0.010191966 -0.043032736 0.73605478
-0.010191966 -0.044165164 0.73605472
-0.010191966 -0.045297593 0.73605472
-0.010191966 -0.046430051 0.73605478
-0.010192005 -0.047562689 0.73605531
-0.010192005 -0.048695117 0.73605537
-0.010192005 -0.049827576 0.73605537
-0.010197286 -0.050986409 0.73613644
-0.01023695 -0.052322149 0.73674512
-0.010389416 -0.054255813 0.7390852
-0.010576498 -0.056407988 0.74195659
-0.010753909 -0.058549047 0.74467951
-0.010820425 -0.06011346 0.74570036
-0.0094147613 0.06119594 0.74218845
-0.009413532 0.060011297 0.74216723
-0.0094284164 0.058927625 0.74242425
-0.0094209863 0.057703555 0.74229598
-0.0094137555 0.056482553 0.74217105
-0.009395984 0.055201441 0.74186426
-0.009340615 0.053708553 0.74090827
-0.0092843724 0.052224606 0.73993707
-0.0092344619 0.050789595 0.7390753
-0.0091874273 0.049382418 0.73826319
-0.0091435388 0.048003584 0.73750538
-0.0091029219 0.046652466 0.73680413
-0.0090645645 0.045322865 0.73614174
-0.0090415878 0.044077754 0.73574495
-0.0090404544 0.042942196 0.7357254
-0.0090404544 0.041812092 0.7357254
-0.0090404544 0.040682048 0.73572546
-0.0090404544 0.039552003 0.73572546
-0.0090404544 0.038421959 0.73572546
-0.0090404544 0.037291855 0.73572546
-0.0090404544 0.03616184 0.7357254
-0.0090404544 0.035031796 0.73572546
-0.0090404544 0.033901691 0.73572546
-0.0090404544 0.032771707 0.73572546
-0.0090404544 0.031641632 0.73572546
-0.0090404544 0.030511558 0.7357254
-0.0090404544 0.029381484 0.73572552
-0.0090404544 0.028251469 0.73572546
-0.0090404544 0.027121365 0.73572546
-0.0090404544 0.025991321 0.73572546
-0.0090404544 0.024861306 0.7357254
-0.0090404544 0.023731202 0.7357254
-0.0090404544 0.022601157 0.73572546
-0.0090404544 0.021471113 0.73572546
-0.0090404544 0.020341039 0.73572546
-0.0090404544 0.019210964 0.73572546
-0.0090404544 0.01808095 0.7357254
-0.0090404544 0.016950846 0.73572552
-0.0090404889 0.015820861 0.73572606
-0.0090404889 0.014690846 0.735726
-0.0090404889 0.013560742 0.73572606
-0.0090404889 0.012430668 0.735726
-0.0090404889 0.011300623 0.735726
-0.0090404889 0.010170579 0.73572606
-0.0090404889 0.0090404749 0.73572606
-0.0090404889 0.0079104602 0.735726
-0.0090404889 0.0067803562 0.73572606
-0.0090404889 0.0056503117 0.735726
-0.0090404889 0.0045202672 0.73572606
-0.0090404889 0.003390193 0.73572606
-0.0090404889 0.0022601187 0.73572606
-0.0090404889 0.0011301041 0.73572606
-0.0090404889 5.9604645e-08 0.735726
-0.0090404889 -0.0011300147 0.735726
-0.0090404889 -0.0022600889 0.73572612
-0.0090404889 -0.0033901632 0.735726
-0.0090404889 -0.0045202076 0.73572606
-0.0090404889 -0.0056502819 0.73572606
-0.0090404889 -0.0067803562 0.73572606
-0.0090404889 -0.0079104304 0.73572606
-0.0090404889 -0.0090404451 0.735726
-0.0090404889 -0.010170519 0.735726
-0.0090404889 -0.011300623 0.73572612
-0.0090404889 -0.012430668 0.73572606
-0.0090404889 -0.013560712 0.735726
-0.0090404889 -0.014690787 0.73572606
-0.0090404889 -0.015820861 0.73572606
-0.0090404889 -0.016950905 0.735726
-0.0090404889 -0.01808095 0.73572606
-0.0090404889 -0.019211054 0.73572606
-0.0090404889 -0.020341039 0.73572606
-0.0090404889 -0.021471143 0.73572606
-0.0090404889 -0.022601187 0.735726
-0.0090405224 -0.023731351 0.73572659
-0.0090405224 -0.024861395 0.73572665
-0.0090405224 -0.025991499 0.73572665
-0.0090405224 -0.027121574 0.73572665
-0.0090405224 -0.028251618 0.73572665
-0.0090405224 -0.029381722 0.73572665
-0.0090405224 -0.030511707 0.73572659
-0.0090405224 -0.031641811 0.73572665
-0.0090405224 -0.032771856 0.73572659
-0.0090405224 -0.03390193 0.73572659
-0.0090405224 -0.035032004 0.73572659
-0.0090405224 -0.036162078 0.73572665
-0.0090405224 -0.037292123 0.73572665
-0.0090405224 -0.038422197 0.73572665
-0.0090405224 -0.039552271 0.73572659
-0.0090405224 -0.040682346 0.73572665
-0.0090405224 -0.04181242 0.73572665
-0.0090405224 -0.042942464 0.73572665
-0.0090405224 -0.044072509 0.73572665
-0.0090405224 -0.045202613 0.73572665
-0.0090405568 -0.046332836 0.73572725
-0.0090405568 -0.04746291 0.73572719
-0.0090405568 -0.048592955 0.73572719
-0.0090405913 -0.049723238 0.73572785
-0.0090434095 -0.050869167 0.73577642
-0.0090733459 -0.052171707 0.73629338
-0.0091960207 -0.054026604 0.73841155
-0.0093547916 -0.056128711 0.741153
-0.009514953 -0.058279067 0.74391842
-0.0095778871 -0.059861779 0.74500507
-0.0082164565 0.061036587 0.74176502
-0.0082161333 0.059860379 0.74175858
-0.0082287332 0.058776706 0.74200726
-0.0082225902 0.057558179 0.74188602
-0.0082168458 0.056344092 0.74177265
-0.0081990147 0.055050522 0.74142087
-0.0081498092 0.053555906 0.74044979
-0.0081022624 0.052085996 0.73951155
-0.0080593526 0.050658822 0.73866487
-0.0080195507 0.049262971 0.7378794
-0.0079820687 0.047892392 0.73713976
-0.0079476936 0.046550781 0.7364614
-0.0079144575 0.045225501 0.73580551
-0.0078971041 0.043998152 0.73546314
-0.0078960555 0.042864323 0.73544246
-0.0078960555 0.041736335 0.7354424
-0.0078960555 0.040608287 0.73544246
-0.0078960555 0.039480299 0.73544246
-0.0078960555 0.038352281 0.73544246
-0.0078960555 0.037224263 0.73544246
-0.0078960555 0.036096275 0.7354424
-0.0078960555 0.034968227 0.73544246
-0.0078960555 0.033840239 0.7354424
-0.0078960555 0.032712221 0.73544246
-0.0078960555 0.031584233 0.7354424
-0.0078960555 0.030456245 0.73544246
-0.0078960555 0.029328197 0.73544252
-0.0078960555 0.028200209 0.73544246
-0.0078960555 0.027072191 0.7354424
-0.0078960555 0.025944173 0.73544246
-0.0078960555 0.024816185 0.73544246
-0.0078960555 0.023688197 0.7354424
-0.0078960555 0.022560179 0.73544246
-0.0078960555 0.021432161 0.7354424
-0.0078960853 0.020304263 0.735443
-0.0078960853 0.019176215 0.73544306
-0.0078960853 0.018048227 0.735443
-0.0078960853 0.016920209 0.73544306
-0.0078960853 0.015792191 0.735443
-0.0078960853 0.014664203 0.735443
-0.0078960853 0.013536155 0.735443
-0.0078960853 0.012408167 0.73544306
-0.0078960853 0.011280149 0.735443
-0.0078960853 0.010152131 0.73544306
-0.0078960853 0.0090241432 0.735443
-0.0078960853 0.0078960955 0.73544306
-0.0078960853 0.0067681074 0.735443
-0.0078960853 0.0056401193 0.735443
-0.0078960853 0.0045120716 0.73544306
-0.0078960853 0.0033840239 0.73544306
-0.0078960853 0.002256006 0.73544306
-0.007896116 0.0011280477 0.73544359
-0.007896116 2.9802322e-08 0.73544359
-0.007896116 -0.0011279881 0.73544365
-0.007896116 -0.0022560358 0.73544359
-0.007896116 -0.0033839941 0.73544359
-0.007896116 -0.0045120716 0.73544359
-0.007896116 -0.0056400895 0.73544365
-0.007896116 -0.0067680776 0.73544359
-0.007896116 -0.0078960955 0.73544359
-0.007896116 -0.0090241134 0.73544359
-0.007896116 -0.010152131 0.73544359
-0.007896116 -0.011280119 0.73544359
-0.0078961458 -0.012408227 0.73544419
-0.0078961458 -0.013536245 0.73544419
-0.0078961458 -0.014664263 0.73544419
-0.0078961458 -0.01579228 0.73544419
-0.0078961458 -0.016920298 0.73544419
-0.0078961458 -0.018048316 0.73544425
-0.0078961458 -0.019176364 0.73544425
-0.0078961458 -0.020304352 0.73544419
-0.0078961458 -0.0214324 0.73544425
-0.0078961458 -0.022560388 0.73544419
-0.0078961458 -0.023688406 0.73544425
-0.0078961756 -0.024816513 0.73544478
-0.0078961756 -0.025944531 0.73544478
-0.0078961756 -0.027072579 0.73544478
-0.0078961756 -0.028200597 0.73544484
-0.0078961756 -0.029328614 0.73544484
-0.0078961756 -0.030456632 0.73544484
-0.0078961756 -0.03158471 0.73544484
-0.0078961756 -0.032712698 0.73544478
-0.0078961756 -0.033840746 0.73544478
-0.0078961756 -0.034968764 0.73544478
-0.0078961756 -0.036096811 0.73544484
-0.0078961756 -0.037224829 0.73544478
-0.0078962054 -0.038352966 0.73544538
-0.0078962054 -0.039481014 0.73544544
-0.0078962054 -0.040609062 0.73544544
-0.0078962054 -0.04173705 0.73544538
-0.0078962054 -0.042865098 0.73544544
-0.0078962054 -0.043993115 0.73544538
-0.0078962054 -0.045121133 0.73544544
-0.0078962054 -0.046249151 0.73544538
-0.0078962054 -0.047377199 0.73544538
-0.0078962352 -0.048505425 0.73544598
-0.0078962352 -0.049633443 0.73544598
-0.0078986017 -0.05077672 0.73549271
-0.0079214741 -0.052055389 0.73594403
-0.0080179442 -0.053834736 0.73784769
-0.0081522027 -0.055900842 0.74049705
-0.008293841 -0.058056891 0.74329209
-0.0083528757 -0.059663385 0.74445701
-0.0070286961 0.060915381 0.7414431
-0.0070289448 0.059746057 0.74144888
-0.0070390934 0.058659166 0.74168247
-0.0070338212 0.057442904 0.74156117
-0.0070286682 0.056229353 0.74144244
-0.0070100301 0.054911911 0.74101341
-0.0069691264 0.053429991 0.74007165
-0.0069295582 0.051971674 0.73916084
-0.0068931789 0.050549984 0.73832321
-0.0068597365 0.049161494 0.73755336
-0.0068282108 0.047797501 0.73682749
-0.0067995633 0.046463698 0.73616803
-0.0067717205 0.045144826 0.73552704
-0.006758153 0.043928027 0.73521471
-0.0067578205 0.042799562 0.73520696
-0.0067578205 0.041673273 0.73520696
-0.0067578205 0.040546954 0.73520702
-0.0067578205 0.039420635 0.73520696
-0.0067578205 0.038294345 0.73520696
-0.0067578205 0.037168026 0.73520702
-0.0067578205 0.036041766 0.73520696
-0.0067578205 0.034915417 0.73520696
-0.0067578205 0.033789098 0.73520702
-0.0067578205 0.032662839 0.73520696
-0.0067578205 0.03153652 0.73520696
-0.0067578205 0.0304102 0.73520702
-0.0067578205 0.029283911 0.73520696
-0.0067578205 0.028157622 0.73520696
-0.0067578205 0.027031302 0.73520702
-0.0067578205 0.025904983 0.73520696
-0.0067578205 0.024778694 0.73520702
-0.0067578205 0.023652375 0.73520702
-0.0067578205 0.022526085 0.73520696
-0.0067578205 0.021399796 0.73520696
-0.0067578205 0.020273477 0.73520702
-0.0067578205 0.019147187 0.73520696
-0.0067578205 0.018020868 0.73520702
-0.0067578205 0.016894549 0.73520702
-0.0067578205 0.01576826 0.73520696
-0.0067578205 0.014641941 0.73520702
-0.0067578205 0.013515681 0.73520702
-0.0067577949 0.012389332 0.73520637
-0.0067577949 0.011263013 0.73520643
-0.0067577949 0.010136664 0.73520643
-0.0067577949 0.0090104342 0.73520637
-0.0067577949 0.007884115 0.73520637
-0.0067577949 0.0067577958 0.73520643
-0.0067577949 0.0056315064 0.73520637
-0.0067577949 0.0045051873 0.73520643
-0.0067577949 0.0033788979 0.73520643
-0.0067577949 0.0022526085 0.73520643
-0.0067577949 0.001126349 0.73520637
-0.0067577949 -0 0.73520637
-0.0067577949 -0.0011262894 0.73520643
-0.0067577949 -0.0022525489 0.73520637
-0.0067577949 -0.0033788681 0.73520643
-0.0067577949 -0.0045051873 0.73520643
-0.0067577949 -0.0056314766 0.73520637
-0.0067577949 -0.0067577362 0.73520643
-0.0067577949 -0.0078840554 0.73520643
-0.0067577949 -0.0090103745 0.73520643
-0.0067577949 -0.010136664 0.73520637
-0.0067577949 -0.011262983 0.73520643
-0.0067577949 -0.012389272 0.73520643
-0.0067577949 -0.013515592 0.73520637
-0.0067577949 -0.014641851 0.73520637
-0.0067577949 -0.01576817 0.73520643
-0.0067577949 -0.01689446 0.73520637
-0.0067577949 -0.018020749 0.73520637
-0.0067577949 -0.019147068 0.73520643
-0.0067577949 -0.020273387 0.73520637
-0.0067577949 -0.021399647 0.73520637
-0.0067577697 -0.022525907 0.73520583
-0.0067577697 -0.023652196 0.73520583
-0.0067577949 -0.024778575 0.73520643
-0.0067577949 -0.025904864 0.73520643
-0.0067577949 -0.027031183 0.73520637
-0.0067577949 -0.028157473 0.73520643
-0.0067577949 -0.029283762 0.73520637
-0.0067577949 -0.030410051 0.73520643
-0.0067577949 -0.031536341 0.73520643
-0.0067578205 -0.032662779 0.73520696
-0.0067578205 -0.033789068 0.73520696
-0.0067578205 -0.034915417 0.73520702
-0.0067578205 -0.036041707 0.73520696
-0.0067578205 -0.037167996 0.73520702
-0.0067578205 -0.038294256 0.73520696
-0.0067578205 -0.039420605 0.73520696
-0.0067578461 -0.040547043 0.73520756
-0.0067578461 -0.041673362 0.73520756
-0.0067578461 -0.042799681 0.73520762
-0.0067578461 -0.043925971 0.73520756
-0.0067578461 -0.04505226 0.73520756
-0.0067578461 -0.046178609 0.73520762
-0.0067578461 -0.047304899 0.73520756
-0.0067578717 -0.048431426 0.73520821
-0.0067578717 -0.049557716 0.73520815
-0.006759075 -0.050693065 0.73523587
-0.0067755515 -0.051945865 0.73561519
-0.0068522557 -0.053675979 0.7373811
-0.006964176 -0.055713385 0.73995781
-0.0070809652 -0.05782789 0.74264646
-0.0071375561 -0.059479594 0.74394935
-0.0058478718 0.060817868 0.74118412
-0.0058477107 0.059646666 0.7411797
-0.005855747 0.05855751 0.74140167
-0.0058513461 0.057343185 0.74128014
-0.0058472506 0.056133628 0.74116701
-0.0058301478 0.054803431 0.74069446
-0.0057963543 0.053326488 0.73976082
-0.0057642451 0.051878214 0.73887384
-0.0057345023 0.050463617 0.73805213
-0.005707101 0.049081087 0.73729509
-0.0056808931 0.047719538 0.73657107
-0.0056575285 0.046391726 0.73592567
-0.0056347819 0.045078278 0.7352972
-0.0056246365 0.043872207 0.73501694
-0.0056244242 0.04274565 0.73501104
-0.0056244242 0.041620761 0.73501104
-0.0056244242 0.040495843 0.73501104
-0.0056244242 0.039371014 0.73501104
-0.0056244242 0.038246125 0.73501104
-0.0056244242 0.037121236 0.73501104
-0.0056244242 0.035996318 0.73501104
-0.0056244242 0.034871429 0.73501104
-0.0056244242 0.03374657 0.73501104
-0.0056244242 0.032621682 0.73501104
-0.0056244242 0.031496793 0.73501104
-0.0056244242 0.030371934 0.73501104
-0.0056244242 0.029247016 0.73501104
-0.0056244242 0.028122127 0.73501104
-0.0056244242 0.026997268 0.73501104
-0.0056244242 0.025872409 0.73501104
-0.0056244242 0.024747491 0.73501104
-0.0056244242 0.023622572 0.73501104
-0.0056244242 0.022497714 0.73501104
-0.0056244242 0.021372825 0.73501104
-0.0056244242 0.020247936 0.7350111
-0.0056244242 0.019123048 0.73501098
-0.0056244028 0.017998099 0.73501039
-0.0056244028 0.01687324 0.73501039
-0.0056244028 0.015748382 0.7350105
-0.0056244028 0.014623463 0.7350105
-0.0056244028 0.013498574 0.73501039
-0.0056244028 0.012373716 0.73501039
-0.0056244028 0.011248827 0.73501039
-0.0056244028 0.010123938 0.73501039
-0.0056244028 0.0089990497 0.7350105
-0.0056244028 0.007874161 0.7350105
-0.0056244028 0.006749332 0.73501045
-0.0056244028 0.0056244135 0.73501045
-0.0056244028 0.0044995546 0.73501045
-0.0056244028 0.003374666 0.73501045
-0.0056244028 0.0022497773 0.73501045
-0.0056244028 0.0011249185 0.73501045
-0.0056244028 -0 0.73501045
-0.0056244028 -0.0011248589 0.73501045
-0.0056244028 -0.0022497475 0.7350105
-0.0056244028 -0.0033746362 0.73501045
-0.0056244028 -0.004499495 0.73501045
-0.0056244028 -0.0056244135 0.73501045
-0.0056244028 -0.0067492425 0.73501045
-0.0056244028 -0.0078741312 0.73501045
-0.0056244028 -0.0089990497 0.73501045
-0.0056244028 -0.010123909 0.73501045
-0.0056244028 -0.011248797 0.73501045
-0.0056244028 -0.012373656 0.73501045
-0.0056244028 -0.013498545 0.73501045
-0.0056244028 -0.014623463 0.73501045
-0.0056244028 -0.015748292 0.73501045
-0.0056244028 -0.016873211 0.73501045
-0.0056244028 -0.01799804 0.73501039
-0.0056244028 -0.019122958 0.73501039
-0.0056244028 -0.020247817 0.73501045
-0.0056244028 -0.021372706 0.73501045
-0.0056243818 -0.022497505 0.73500985
-0.0056243818 -0.023622394 0.73500985
-0.0056243818 -0.024747223 0.73500991
-0.0056244028 -0.025872231 0.7350105
-0.0056244028 -0.026997119 0.73501045
-0.0056244028 -0.028122008 0.7350105
-0.0056244028 -0.029246867 0.73501039
-0.0056244242 -0.030371845 0.7350111
-0.0056244242 -0.031496763 0.73501104
-0.0056244242 -0.032621652 0.73501098
-0.0056244242 -0.033746541 0.73501098
-0.0056244242 -0.034871399 0.73501104
-0.0056244242 -0.035996288 0.73501104
-0.0056244242 -0.037121177 0.73501098
-0.0056244242 -0.038246065 0.73501098
-0.0056244452 -0.039371103 0.73501164
-0.0056244452 -0.040495992 0.73501164
-0.0056244452 -0.04162091 0.73501164
-0.0056244452 -0.042745799 0.73501158
-0.0056244452 -0.043870658 0.7350117
-0.0056244452 -0.044995546 0.73501164
-0.0056244452 -0.046120435 0.73501158
-0.0056244666 -0.047245502 0.73501223
-0.0056244666 -0.048370421 0.73501223
-0.0056244666 -0.04949531 0.73501223
-0.0056252535 -0.050627261 0.73503399
-0.00563773 -0.051867068 0.73537862
-0.0056965188 -0.053547293 0.73700279
-0.0057878033 -0.055562884 0.7395246
-0.0058826427 -0.05764991 0.7421447
-0.0059350724 -0.059350669 0.74359322
-0.0046719033 0.060734749 0.74096334
-0.004672362 0.059572637 0.74097919
-0.0046782969 0.058478713 0.74118412
-0.0046748226 0.057266593 0.74106419
-0.004671793 0.056061536 0.74095953
-0.0046567423 0.054716736 0.74043977
-0.0046299901 0.053244919 0.7395159
-0.0046048276 0.051804334 0.73864698
-0.0045813825 0.05039525 0.73783737
-0.0045598876 0.0490188 0.73709512
-0.0045392346 0.04766196 0.73638183
-0.0045206733 0.046336949 0.7357409
-0.0045027751 0.045027763 0.7351228
-0.0044951015 0.043827266 0.7348578
-0.0044949995 0.042702526 0.73485422
-0.0044949995 0.04157877 0.73485428
-0.0044949995 0.040455014 0.73485428
-0.0044949995 0.039331257 0.73485428
-0.0044949995 0.038207531 0.73485422
-0.0044949995 0.037083775 0.73485428
-0.0044949995 0.035960019 0.73485422
-0.0044949995 0.034836262 0.73485428
-0.0044949995 0.033712506 0.73485434
-0.0044949995 0.03258878 0.73485422
-0.0044949995 0.031465024 0.73485422
-0.0044949995 0.030341268 0.73485428
-0.0044949995 0.029217511 0.73485422
-0.0044949995 0.028093755 0.73485428
-0.0044949995 0.026970029 0.73485434
-0.0044949995 0.025846273 0.73485428
-0.0044949995 0.024722517 0.73485422
-0.0044949995 0.02359879 0.73485428
-0.0044949995 0.022475004 0.73485422
-0.0044949995 0.021351248 0.73485428
-0.0044949995 0.020227522 0.73485422
-0.0044949995 0.019103765 0.73485428
-0.0044949995 0.017980009 0.73485422
-0.0044949995 0.016856253 0.73485428
-0.0044949995 0.015732497 0.73485434
-0.0044950168 0.01460883 0.73485482
-0.0044950168 0.013485074 0.73485488
-0.0044950168 0.012361288 0.73485482
-0.0044950168 0.011237562 0.73485488
-0.0044950168 0.010113776 0.73485488
-0.0044950168 0.0089900494 0.73485482
-0.0044950168 0.0078662932 0.73485482
-0.0044950168 0.0067425668 0.73485482
-0.0044950168 0.0056188107 0.73485488
-0.0044950168 0.0044950247 0.73485482
-0.0044950168 0.0033712983 0.73485488
-0.0044950168 0.0022475421 0.73485482
-0.0044950168 0.001123786 0.73485488
-0.0044950168 -2.9802322e-08 0.73485488
-0.0044950168 -0.0011237264 0.73485488
-0.0044950168 -0.0022474825 0.73485482
-0.0044950168 -0.0033712685 0.73485488
-0.0044950168 -0.0044949949 0.73485488
-0.0044950168 -0.0056187809 0.73485488
-0.0044950168 -0.0067425072 0.73485488
-0.0044950168 -0.0078662634 0.73485482
-0.0044950168 -0.0089899898 0.73485482
-0.0044950168 -0.010113746 0.73485488
-0.0044950168 -0.011237502 0.73485488
-0.0044950168 -0.012361258 0.73485488
-0.0044950168 -0.013485074 0.73485488
-0.0044950168 -0.0146088 0.73485494
-0.0044950168 -0.015732586 0.73485488
-0.0044950168 -0.016856283 0.73485482
-0.0044950168 -0.017980039 0.73485488
-0.0044950168 -0.019103795 0.73485482
-0.0044950168 -0.020227551 0.73485488
-0.0044950168 -0.021351278 0.73485482
-0.0044950168 -0.022475034 0.73485482
-0.0044950168 -0.02359882 0.73485482
-0.0044950335 -0.024722666 0.73485547
-0.0044950335 -0.025846422 0.73485541
-0.0044950503 -0.026970297 0.73485601
-0.0044950503 -0.028094053 0.73485601
-0.0044950503 -0.029217809 0.73485601
-0.0044950503 -0.030341566 0.73485601
-0.0044950503 -0.031465352 0.73485601
-0.0044950675 -0.032589257 0.73485661
-0.0044950675 -0.033713013 0.73485667
-0.0044950675 -0.034836769 0.73485661
-0.0044950675 -0.035960555 0.73485661
-0.0044950675 -0.037084311 0.73485667
-0.0044950675 -0.038208097 0.73485661
-0.0044950675 -0.039331824 0.73485667
-0.0044950675 -0.04045558 0.73485661
-0.0044950675 -0.041579336 0.73485661
-0.0044950675 -0.042703122 0.73485661
-0.0044950675 -0.043826878 0.73485661
-0.0044950675 -0.044950634 0.73485661
-0.0044950675 -0.04607442 0.73485661
-0.0044950848 -0.047198385 0.7348572
-0.0044950848 -0.048322141 0.7348572
-0.0044950848 -0.049445897 0.7348572
-0.0044954582 -0.050573885 0.73487008
-0.0045040539 -0.051796615 0.73516703
-0.0045486768 -0.053446949 0.73670793
-0.0046205129 -0.055446148 0.73918867
-0.0046947845 -0.057511091 0.74175346
-0.0047386205 -0.059232712 0.74326724
-0.0035009163 0.060682535 0.7408247
-0.0035010537 0.05951792 0.74083096
-0.0035053592 0.058422655 0.74102926
-0.0035027857 0.057212144 0.74091077
-0.0034999964 0.055999935 0.74078232
-0.0034883234 0.054650396 0.74024487
-0.0034685237 0.053184032 0.73933315
-0.0034499215 0.051748842 0.73847663
-0.0034325074 0.050343484 0.73767483
-0.0034166155 0.048971474 0.73694313
-0.003401285 0.047618032 0.73623723
-0.0033875187 0.04629609 0.73560333
-0.0033741184 0.044988275 0.73498636
-0.0033687549 0.043793827 0.73473942
-0.0033687167 0.042670429 0.73473763
-0.0033687167 0.041547507 0.73473763
-0.0033687167 0.040424615 0.73473763
-0.0033687167 0.039301693 0.73473763
-0.0033687167 0.038178802 0.73473763
-0.0033687167 0.03705591 0.73473763
-0.0033687167 0.035933018 0.73473763
-0.0033687167 0.034810096 0.73473763
-0.0033687167 0.033687204 0.73473763
-0.0033687039 0.032564163 0.73473704
-0.0033687039 0.031441271 0.7347371
-0.0033687039 0.030318379 0.73473704
-0.0033687039 0.029195428 0.73473704
-0.0033687039 0.028072536 0.73473704
-0.0033687039 0.026949644 0.73473704
-0.0033687167 0.025826842 0.73473763
-0.0033687167 0.02470395 0.73473758
-0.0033687167 0.023581028 0.73473763
-0.0033687167 0.022458166 0.73473763
-0.0033687167 0.021335214 0.73473769
-0.0033687167 0.020212293 0.73473763
-0.0033687167 0.019089401 0.73473763
-0.0033687167 0.017966509 0.73473763
-0.0033687167 0.016843617 0.73473763
-0.0033687167 0.015720695 0.73473763
-0.0033687167 0.014597774 0.73473763
-0.0033687167 0.013474882 0.73473763
-0.0033687167 0.01235199 0.73473763
-0.0033687167 0.011229098 0.73473763
-0.0033687167 0.010106206 0.73473763
-0.0033687293 0.008983314 0.73473823
-0.0033687293 0.0078603923 0.73473823
-0.0033687293 0.0067374706 0.73473823
-0.0033687293 0.0056145787 0.73473823
-0.0033687293 0.004491657 0.73473817
-0.0033687293 0.0033687353 0.73473823
-0.0033687293 0.0022458732 0.73473823
-0.0033687293 0.0011229515 0.73473823
-0.0033687293 -0 0.73473823
-0.0033687293 -0.0011228919 0.73473823
-0.0033687293 -0.0022458136 0.73473823
-0.0033687293 -0.0033687055 0.73473823
-0.0033687293 -0.0044915974 0.73473823
-0.0033687293 -0.0056145191 0.73473823
-0.0033687293 -0.0067374408 0.73473817
-0.0033687421 -0.0078603625 0.73473883
-0.0033687421 -0.0089832842 0.73473883
-0.0033687421 -0.010106206 0.73473877
-0.0033687421 -0.011229128 0.73473883
-0.0033687421 -0.012352049 0.73473883
-0.0033687421 -0.013474971 0.73473883
-0.0033687421 -0.014597863 0.73473877
-0.0033687421 -0.015720785 0.73473883
-0.0033687421 -0.016843677 0.73473883
-0.0033687421 -0.017966598 0.73473883
-0.0033687421 -0.01908952 0.73473877
-0.0033687421 -0.020212442 0.73473877
-0.0033687421 -0.021335363 0.73473883
-0.0033687421 -0.022458255 0.73473883
-0.0033687421 -0.023581177 0.73473883
-0.0033687549 -0.024704158 0.73473936
-0.0033687549 -0.02582708 0.73473936
-0.0033687549 -0.026950032 0.73473942
-0.0033687549 -0.028072953 0.73473942
-0.0033687549 -0.029195845 0.73473942
-0.0033687549 -0.030318767 0.73473936
-0.0033687549 -0.031441689 0.73473942
-0.0033687549 -0.03256461 0.73473942
-0.0033687549 -0.033687532 0.73473936
-0.0033687549 -0.034810454 0.73473936
-0.0033687549 -0.035933375 0.73473942
-0.0033687549 -0.037056297 0.73473942
-0.0033687549 -0.038179219 0.73473936
-0.0033687549 -0.039302111 0.73473936
-0.0033687549 -0.040425032 0.73473942
-0.0033687677 -0.041548103 0.73473996
-0.0033687677 -0.042671025 0.73474002
-0.0033687677 -0.043793947 0.73474002
-0.0033687677 -0.044916898 0.73473996
-0.0033687677 -0.04603979 0.73473996
-0.0033687677 -0.047162741 0.73474002
-0.0033687677 -0.048285663 0.73473996
-0.0033687677 -0.049408585 0.73473996
-0.0033689709 -0.050534546 0.73474932
-0.0033753822 -0.051755816 0.73504454
-0.0034067268 -0.053372055 0.73648781
-0.0034599553 -0.055359304 0.73893869
-0.0035148601 -0.057409376 0.74146664
-0.0035496384 -0.05916059 0.74306804
-0.0023324708 0.060644269 0.74072289
-0.0023324341 0.059477091 0.74072039
-0.0023350895 0.058377236 0.74090379
-0.0023335137 0.057171106 0.74079496
-0.0023319859 0.055967689 0.7406894
-0.0023236864 0.054606646 0.74011618
-0.0023105708 0.053143173 0.73921031
-0.002298268 0.051711053 0.73836064
-0.0022867196 0.05030784 0.73756301
-0.0022762183 0.048938721 0.73683774
-0.0022660547 0.047587186 0.73613572
-0.0022569748 0.046267986 0.73550868
-0.002248188 0.044963807 0.73490179
-0.0022447431 0.043772519 0.73466384
-0.0022447347 0.042649955 0.73466325
-0.0022447347 0.041527599 0.73466337
-0.0022447347 0.040405273 0.73466325
-0.0022447347 0.039282858 0.73466331
-0.0022447347 0.038160533 0.73466325
-0.0022447347 0.037038118 0.73466331
-0.0022447347 0.035915762 0.73466331
-0.0022447263 0.034793288 0.73466271
-0.0022447263 0.033670902 0.73466271
-0.0022447263 0.032548577 0.73466271
-0.0022447263 0.031426162 0.73466271
-0.0022447263 0.030303866 0.73466271
-0.0022447263 0.029181451 0.73466271
-0.0022447263 0.028059095 0.73466277
-0.0022447263 0.02693671 0.73466265
-0.0022447179 0.025814295 0.73466212
-0.0022447179 0.02469191 0.73466212
-0.0022447179 0.023569584 0.73466212
-0.0022447179 0.022447199 0.73466212
-0.0022447179 0.021324873 0.73466212
-0.0022447179 0.020202488 0.73466212
-0.0022447179 0.019080132 0.73466218
-0.0022447179 0.017957747 0.73466206
-0.0022447093 0.016835302 0.73466152
-0.0022447093 0.015713006 0.73466152
-0.0022447093 0.014590621 0.73466152
-0.0022447093 0.013468295 0.73466152
-0.0022447093 0.01234588 0.73466152
-0.0022447093 0.011223584 0.73466152
-0.0022447093 0.010101199 0.73466152
-0.0022447093 0.0089788735 0.73466152
-0.0022447007 0.0078564584 0.73466092
-0.0022447007 0.0067341328 0.73466092
-0.0022447007 0.0056117475 0.73466098
-0.0022447007 0.0044894516 0.73466092
-0.0022447007 0.0033670664 0.73466098
-0.0022447007 0.0022447407 0.73466092
-0.0022447007 0.0011223555 0.73466098
-0.0022447007 2.9802322e-08 0.73466092
-0.0022447007 -0.0011223555 0.73466098
-0.0022447007 -0.0022446811 0.73466092
-0.0022447093 -0.0033670366 0.73466152
-0.0022447093 -0.004489392 0.73466152
-0.0022447093 -0.0056117475 0.73466152
-0.0022447093 -0.0067341328 0.73466158
-0.0022447093 -0.0078564584 0.73466158
-0.0022447093 -0.0089788139 0.73466146
-0.0022447093 -0.010101169 0.73466158
-0.0022447093 -0.011223555 0.73466158
-0.0022447093 -0.01234588 0.73466158
-0.0022447093 -0.013468236 0.73466146
-0.0022447093 -0.014590561 0.73466158
-0.0022447093 -0.015712976 0.73466158
-0.0022447093 -0.016835272 0.73466158
-0.0022447093 -0.017957687 0.73466158
-0.0022447093 -0.019080013 0.73466158
-0.0022447093 -0.020202368 0.73466158
-0.0022447093 -0.021324724 0.73466158
-0.0022447093 -0.022447109 0.73466152
-0.0022447093 -0.023569435 0.73466152
-0.0022447093 -0.024691761 0.73466158
-0.0022447179 -0.025814205 0.73466206
-0.0022447179 -0.026936591 0.73466212
-0.0022447179 -0.028058976 0.73466212
-0.0022447179 -0.029181302 0.73466212
-0.0022447179 -0.030303687 0.73466212
-0.0022447179 -0.031426013 0.73466212
-0.0022447179 -0.032548398 0.73466212
-0.0022447179 -0.033670753 0.73466212
-0.0022447179 -0.034793109 0.73466212
-0.0022447179 -0.035915434 0.73466212
-0.0022447179 -0.03703782 0.73466218
-0.0022447179 -0.038160145 0.73466212
-0.0022447179 -0.03928256 0.73466218
-0.0022447179 -0.040404856 0.73466212
-0.0022447179 -0.041527271 0.73466218
-0.0022447179 -0.042649627 0.73466212
-0.0022447179 -0.043771982 0.73466218
-0.0022447179 -0.044894338 0.73466212
-0.0022447179 -0.046016693 0.73466212
-0.0022447179 -0.047139049 0.73466212
-0.0022447179 -0.048261404 0.73466212
-0.0022447263 -0.049383938 0.73466277
-0.0022448108 -0.050508231 0.73466855
-0.0022488509 -0.05172354 0.73494756
-0.0022690459 -0.053322583 0.73634237
-0.0023042243 -0.055301338 0.73877198
-0.0023405661 -0.057343841 0.74128205
-0.0023640462 -0.059101135 0.74290371
-0.0011658925 0.060626417 0.74067551
-0.0011660021 0.059466153 0.74069071
-0.0011673203 0.05836606 0.74087274
-0.0011664366 0.05715543 0.74075067
-0.0011654949 0.055943787 0.74062061
-0.001161385 0.054585129 0.74005294
-0.0011548636 0.053123742 0.73915207
-0.0011487523 0.051693887 0.73830783
-0.0011429775 0.050291002 0.73751026
-0.001137739 0.048922777 0.73678666
-0.0011326607 0.047571748 0.73608512
-0.0011281406 0.0462538 0.73546076
-0.0011238306 0.044953257 0.73486537
-0.0011220879 0.043761402 0.73462474
-0.0011220879 0.042639345 0.73462468
-0.0011220879 0.041517258 0.73462468
-0.0011220879 0.04039517 0.73462468
-0.0011220879 0.039273113 0.73462468
-0.0011220879 0.038151026 0.73462468
-0.0011220879 0.037028909 0.73462468
-0.0011220879 0.035906821 0.73462474
-0.0011220879 0.034784734 0.73462468
-0.0011220879 0.033662647 0.73462468
-0.0011220879 0.03254056 0.73462462
-0.0011220879 0.031418473 0.73462462
-0.0011220879 0.030296385 0.73462462
-0.0011220879 0.029174328 0.73462468
-0.0011220879 0.028052211 0.73462474
-0.0011220879 0.026930124 0.73462474
-0.0011220879 0.025808036 0.73462462
-0.0011220879 0.024685949 0.73462462
-0.0011220879 0.023563862 0.73462468
-0.0011220879 0.022441775 0.73462474
-0.0011220879 0.021319717 0.73462462
-0.0011220879 0.02019757 0.73462474
-0.0011220879 0.019075513 0.73462474
-0.0011220879 0.017953426 0.73462474
-0.0011220879 0.016831338 0.73462462
-0.0011220879 0.015709251 0.73462462
-0.0011220879 0.014587134 0.73462468
-0.0011220879 0.013465047 0.73462468
-0.0011220879 0.012342989 0.73462468
-0.0011220879 0.011220902 0.73462468
-0.0011220879 0.010098815 0.73462468
-0.0011220879 0.0089767277 0.73462468
-0.0011220835 0.0078546107 0.73462409
-0.0011220835 0.0067324936 0.73462409
-0.0011220835 0.005610466 0.73462403
-0.0011220835 0.004488349 0.73462409
-0.0011220835 0.0033662617 0.73462409
-0.0011220835 0.0022442043 0.73462415
-0.0011220835 0.001122117 0.73462415
-0.0011220835 2.9802322e-08 0.73462409
-0.0011220835 -0.0011220574 0.73462409
-0.0011220835 -0.0022441447 0.73462409
-0.0011220835 -0.0033662617 0.73462409
-0.0011220835 -0.0044883192 0.73462415
-0.0011220835 -0.0056104064 0.73462409
-0.0011220835 -0.0067324936 0.73462409
-0.0011220835 -0.0078545511 0.73462415
-0.0011220835 -0.0089766383 0.73462415
-0.0011220835 -0.010098726 0.73462409
-0.0011220835 -0.011220843 0.73462409
-0.0011220793 -0.01234284 0.73462355
-0.0011220793 -0.013464957 0.73462349
-0.0011220793 -0.014587015 0.73462349
-0.0011220793 -0.015709072 0.73462349
-0.0011220793 -0.016831189 0.73462349
-0.0011220793 -0.017953277 0.73462349
-0.0011220793 -0.019075304 0.73462349
-0.0011220793 -0.020197392 0.73462349
-0.0011220793 -0.021319509 0.73462349
-0.0011220793 -0.022441566 0.73462355
-0.0011220793 -0.023563623 0.73462343
-0.0011220793 -0.02468574 0.73462355
-0.0011220793 -0.025807798 0.73462355
-0.0011220793 -0.026929885 0.73462355
-0.0011220793 -0.028051972 0.73462355
-0.0011220793 -0.02917406 0.73462355
-0.0011220793 -0.030296087 0.73462355
-0.0011220793 -0.031418204 0.73462355
-0.0011220793 -0.032540292 0.73462349
-0.0011220793 -0.033662349 0.73462349
-0.0011220793 -0.034784466 0.73462355
-0.0011220793 -0.035906523 0.73462349
-0.0011220793 -0.037028611 0.73462355
-0.0011220793 -0.038150698 0.73462355
-0.0011220793 -0.039272785 0.73462355
-0.0011220793 -0.040394843 0.73462355
-0.0011220793 -0.04151693 0.73462349
-0.0011220793 -0.042638987 0.73462349
-0.0011220793 -0.043761075 0.73462349
-0.0011220793 -0.044883162 0.73462349
-0.0011220793 -0.046005219 0.73462349
-0.0011220793 -0.047127306 0.73462349
-0.0011220793 -0.048249394 0.73462349
-0.0011220793 -0.049371481 0.73462355
-0.0011221132 -0.050495088 0.7346282
-0.0011241365 -0.051710248 0.73490763
-0.0011339951 -0.053297758 0.73626947
-0.0011515144 -0.055272669 0.73868948
-0.0011696157 -0.057311177 0.7411899
-0.0011816145 -0.05908069 0.7428472
0 0.060623825 0.74066854
0 0.059453994 0.74065781
0 0.058356643 0.74084687
0 0.057151347 0.74073935
0 0.05594641 0.74062824
0 0.054584682 0.74005163
0 0.053124785 0.73915511
0 0.051695496 0.73831278
0 0.050293177 0.73751688
0 0.048924863 0.73679322
0 0.047573745 0.73609167
0 0.046254814 0.73546427
0 0.044950366 0.73485541
0 0.043760926 0.73462296
0 0.042638868 0.73462296
0 0.041516811 0.7346229
