# .PCD v0.7 - Point Cloud Data file format
VERSION 0.7
FIELDS x y z
SIZE 4 4 4
TYPE F F F
COUNT 1 1 1
WIDTH 1327
HEIGHT 1
VIEWPOINT 0 0 0 1 0 0 0
POINTS 1327
DATA ascii
-0.0084870569 -0.021217644 0.72617018
-0.0084672729 -0.022226602 0.72582859
-0.0084475819 -0.023230821 0.72548854
-0.0084280102 -0.02423054 0.72515064
-0.0084084999 -0.02522549 0.72481376
-0.0083890799 -0.026215851 0.72447842
-0.0083697503 -0.027201682 0.7241447
-0.008350919 -0.028184295 0.72381949
-0.0083322311 -0.029162794 0.72349679
-0.0083136261 -0.030136853 0.72317559
-0.0082951039 -0.031106621 0.72285581
-0.0082766358 -0.032071978 0.72253692
-0.0082582785 -0.033033103 0.72221994
-0.008240087 -0.033990324 0.72190583
-0.0082223173 -0.034944832 0.72159898
-0.0082046241 -0.035895228 0.72129351
-0.0081870072 -0.036841512 0.72098929
-0.0081754727 -0.037811548 0.72079021
-0.0081812069 -0.038860708 0.72088915
-0.0082117599 -0.040032297 0.72141677
-0.0082580205 -0.041290104 0.72221541
-0.00830492 -0.042562664 0.72302532
-0.0083523849 -0.043850005 0.72384483
-0.0084004551 -0.045152426 0.72467482
-0.0084495014 -0.046472222 0.72552168
-0.0084784376 -0.047691196 0.72602129
-0.0084943296 -0.048842341 0.72629571
-0.009649476 0.064789355 0.77004313
-0.0096121831 0.063165814 0.76930726
-0.0095312083 0.061272055 0.76770931
-0.0092305634 0.058020711 0.76177669
-0.0090460582 0.055568665 0.75813574
-0.0089153871 0.053492337 0.75555718
-0.0088714287 0.051961273 0.75468975
-0.0088376468 0.05050084 0.75402313
-0.008804569 0.049054056 0.75337034
-0.0087719578 0.047619194 0.75272691
-0.0087396614 0.046195388 0.7520895
-0.0087081483 0.044784784 0.7514677
-0.0086768977 0.043384492 0.75085104
-0.0086461222 0.041995466 0.75024372
-0.008615992 0.040618241 0.74964917
-0.0085860351 0.039250463 0.74905801
-0.0085566379 0.037893653 0.74847794
-0.0085276514 0.036547095 0.74790591
-0.008498895 0.035209745 0.74733841
-0.008470607 0.033882439 0.74678028
-0.0084428154 0.032565147 0.74623185
-0.0084151719 0.031256378 0.74568623
-0.0083880126 0.029957175 0.74515033
-0.0083612632 0.028667182 0.74462253
-0.0083346497 0.027385265 0.74409735
-0.0083084377 0.026112288 0.7435801
-0.0082827201 0.024848193 0.74307263
-0.0082570966 0.023591727 0.74256694
-0.0082316287 0.02234301 0.74206442
-0.0082067074 0.021102995 0.74157262
-0.0081820004 0.019870579 0.74108505
-0.0081576016 0.018645972 0.74060357
-0.0081334114 0.017428726 0.74012625
-0.0081094904 0.01621902 0.73965418
-0.0080858041 0.015016526 0.73918682
-0.0080625676 0.013821542 0.73872828
-0.0080395266 0.012633592 0.73827356
-0.0080165863 0.011452287 0.73782092
-0.0079938378 0.010277778 0.73737204
-0.0079714321 0.0091102421 0.73692983
-0.0079493327 0.0079493225 0.73649377
-0.0079274159 0.0067949593 0.73606128
-0.0079056816 0.005646944 0.7356323
-0.0078840945 0.0045051873 0.73520643
-0.0078627737 0.0033697784 0.73478568
-0.007841656 0.0022404492 0.73436904
-0.0078209164 0.0011172891 0.73395973
-0.0078002857 2.9802322e-08 0.73355263
-0.007779764 -0.0011113584 0.73314768
-0.0077593792 -0.002216965 0.73274541
-0.0077391868 -0.0033167601 0.73234689
-0.0077194148 -0.0044110715 0.73195672
-0.0076997424 -0.00549981 0.73156852
-0.0076802275 -0.0065830052 0.73118341
-0.0076608113 -0.0076608062 0.73080033
-0.0076414929 -0.0087331235 0.73041904
-0.0076225223 -0.0098003447 0.73004472
-0.007603785 -0.010862529 0.72967499
-0.0075851954 -0.011919588 0.72930819
-0.0075666956 -0.012971491 0.72894311
-0.0075483131 -0.014018267 0.72858036
-0.0075299931 -0.015059978 0.72821885
-0.007511897 -0.01609689 0.72786176
-0.0074941847 -0.01712954 0.72751224
-0.0074765556 -0.018157333 0.72716433
-0.0074590095 -0.019180298 0.72681808
-0.0074415714 -0.020198524 0.72647405
-0.0074241883 -0.021211982 0.72613096
-0.0074069398 -0.02222082 0.72579062
-0.0073900591 -0.023225874 0.72545749
-0.0073733339 -0.024226606 0.7251274
-0.0073566837 -0.025222898 0.72479886
-0.0073400834 -0.02621454 0.72447121
-0.0073235827 -0.027201891 0.72414571
-0.0073071565 -0.028184742 0.72382152
-0.0072909319 -0.029163688 0.72350138
-0.0072750584 -0.030139506 0.72318816
-0.0072592287 -0.031110972 0.72287577
-0.0072434675 -0.032078177 0.72256476
-0.0072277747 -0.033041239 0.72225511
-0.0072121499 -0.034000099 0.72194672
-0.0071966173 -0.034954995 0.72164023
-0.0071813739 -0.035906851 0.72133946
-0.0071663191 -0.03685534 0.72104239
-0.0071546691 -0.037817538 0.72081244
-0.0071569076 -0.038851768 0.72085667
-0.0071785264 -0.039994597 0.72128326
-0.0072190771 -0.041251838 0.72208345
-0.0072604436 -0.04252544 0.72289973
-0.0073023639 -0.043814182 0.72372699
-0.007344848 -0.045118332 0.72456539
-0.0073882495 -0.046440393 0.72542179
-0.0074195843 -0.047697306 0.72604012
-0.0074341842 -0.048853189 0.72632819
-0.0074584479 -0.050078124 0.726807
-0.008224925 0.065799415 0.76898289
-0.0082046548 0.064269811 0.76851618
-0.0081486404 0.06247291 0.76722664
-0.008013064 0.060097992 0.76410538
-0.0078218086 0.057359964 0.75970227
-0.0076907366 0.055116951 0.75668472
-0.0075976392 0.053183466 0.75454146
-0.0075674164 0.051710695 0.75384557
-0.0075398851 0.050265908 0.7532118
-0.0075125531 0.048831612 0.75258255
-0.0074859215 0.047410846 0.75196946
-0.0074595404 0.04600051 0.75136209
-0.0074333753 0.044600308 0.75075972
-0.007407885 0.043212682 0.75017285
-0.0073825694 0.041834563 0.74959004
-0.0073574563 0.04046604 0.74901187
-0.007332935 0.039109021 0.74844736
-0.007308607 0.037761122 0.74788731
-0.0072845588 0.036422789 0.74733365
-0.0072609638 0.035094678 0.74679041
-0.0072375503 0.03377524 0.7462514
-0.007214346 0.032464594 0.74571717
-0.0071916664 0.031163931 0.74519503
-0.0071691293 0.029871374 0.74467623
-0.0071467329 0.028586954 0.74416059
-0.0071247034 0.027311385 0.74365342
-0.0071029789 0.026044309 0.74315327
-0.0070814146 0.024784982 0.74265683
-0.0070601488 0.023533851 0.74216723
-0.0070391209 0.022290558 0.74168313
-0.0070183012 0.021054924 0.74120378
-0.0069977138 0.019826859 0.74072987
-0.0069774655 0.018606603 0.7402637
-0.0069573605 0.01739341 0.73980081
-0.0069373716 0.016187251 0.7393406
-0.0069175502 0.014988035 0.73888433
-0.0068981359 0.0137963 0.73843735
-0.0068788561 0.01261127 0.73799354
-0.0068597896 0.011432976 0.73755455
-0.0068408023 0.010261238 0.73711741
-0.0068220757 0.0090961158 0.73668629
-0.0068035037 0.0079374313 0.73625875
-0.0067852391 0.0067852736 0.73583823
-0.0067671239 0.0056392848 0.73542118
-0.0067491047 0.0044994652 0.73500633
-0.0067312066 0.0033656359 0.73459429
-0.0067134537 0.0022378266 0.73418558
-0.0066960705 0.0011160076 0.73378539
-0.0066788271 -0 0.73338836
-0.0066616973 -0.0011102557 0.73299402
-0.0066446555 -0.002214849 0.7326017
-0.0066277003 -0.0033138394 0.73221135
-0.0066110273 -0.0044073462 0.7318275
-0.0065945354 -0.005495429 0.73144782
-0.0065782228 -0.006578207 0.73107231
-0.0065620146 -0.0076556504 0.73069912
-0.0065458622 -0.0087278187 0.73032725
-0.0065298369 -0.0097947121 0.7299583
-0.0065139374 -0.010856539 0.72959232
-0.0064983992 -0.011913747 0.72923458
-0.0064829583 -0.012965918 0.72887909
-0.0064675673 -0.014013022 0.72852474
-0.0064522726 -0.015055299 0.7281726
-0.0064370269 -0.016092569 0.72782165
-0.0064219222 -0.01712507 0.72747386
-0.0064071189 -0.018153489 0.7271331
-0.0063924515 -0.019177318 0.72679543
-0.0063778288 -0.020196408 0.72645879
-0.0063632955 -0.021210939 0.72612417
-0.0063488279 -0.02222088 0.7257911
-0.0063344487 -0.023226261 0.72546005
-0.0063202912 -0.024227738 0.72513413
-0.006306353 -0.025225401 0.72481322
-0.0062924982 -0.026218712 0.72449428
-0.006278682 -0.027207643 0.72417617
-0.0062649264 -0.028192133 0.72385949
-0.0062512313 -0.029172361 0.72354418
-0.0062376172 -0.030148447 0.72323084
-0.0062243231 -0.031121612 0.72292471
-0.0062111286 -0.032090843 0.72262096
-0.0061980113 -0.033056051 0.72231901
-0.0061849281 -0.034017086 0.72201777
-0.0061719003 -0.034974068 0.72171783
-0.0061589479 -0.035927176 0.72141963
-0.0061460291 -0.036876172 0.72112226
-0.0061357366 -0.037836999 0.72088528
-0.0061343866 -0.038851112 0.72085422
-0.0061501386 -0.039975882 0.72121692
-0.0061835777 -0.041223854 0.72198671
-0.0062192464 -0.042498171 0.72280782
-0.0062555703 -0.04378897 0.72364408
-0.0062924763 -0.045096099 0.7244938
-0.006330112 -0.046420783 0.72536021
-0.0063623423 -0.047717571 0.72610229
-0.0063752537 -0.048876911 0.72639948
-0.0063903909 -0.050058037 0.72674793
-0.0067936359 0.065218925 0.76731241
-0.0067725959 0.06366238 0.76673102
-0.0067311772 0.061926842 0.76558685
-0.0065898704 0.059308857 0.76168299
-0.0064631547 0.056875765 0.75818229
-0.0063669337 0.054755658 0.75552404
-0.0063028121 0.052943647 0.75375253
-0.0062795756 0.051492542 0.75311065
-0.0062575103 0.050060093 0.75250101
-0.0062358086 0.048639327 0.75190151
-0.0062142834 0.047228575 0.75130677
-0.0061931633 0.045829415 0.7507233
-0.0061723408 0.044440866 0.75014806
-0.0061516576 0.043061614 0.74957663
-0.0061313901 0.041693449 0.74901682
-0.0061113569 0.04033497 0.74846339
-0.0060914541 0.038985342 0.74791348
-0.0060719033 0.037645817 0.74737328
-0.0060526505 0.036315888 0.74684149
-0.0060334946 0.034994304 0.74631226
-0.0060145082 0.033681244 0.74578774
-0.0059959311 0.032378048 0.74527454
-0.0059774686 0.031082869 0.74476445
-0.0059592621 0.029796332 0.7442615
-0.0059412378 0.028517962 0.74376351
-0.0059234402 0.027247846 0.74327183
-0.0059057255 0.025985211 0.74278241
-0.005888443 0.024731487 0.74230492
-0.005871261 0.023485035 0.74183035
-0.0058541796 0.022245884 0.7413584
-0.0058371969 0.021013916 0.74088919
-0.0058206087 0.019790083 0.74043089
-0.0058041145 0.018573195 0.73997521
-0.0057877586 0.01736328 0.73952341
-0.0057715611 0.016160369 0.73907596
-0.0057555665 0.014964491 0.73863405
-0.0057396819 0.013775229 0.73819518
-0.0057240166 0.012592882 0.73776239
-0.0057085468 0.011417091 0.73733509
-0.0056931605 0.010247707 0.73690999
-0.0056778998 0.0090846717 0.73648834
-0.0056627207 0.007927835 0.73606902
-0.0056478586 0.0067774653 0.73565847
-0.0056331172 0.0056331456 0.73525119
-0.0056184949 0.0044947863 0.73484719
-0.0056039481 0.0033623874 0.73444533
-0.0055894763 0.0022358 0.73404551
-0.0055752676 0.0011150539 0.73365295
-0.0055611725 -0 0.73326361
-0.0055472725 -0.0011093915 0.73287964
-0.0055334214 -0.0022133291 0.73249698
-0.0055196392 -0.0033117831 0.73211622
-0.0055059665 -0.0044047236 0.73173845
-0.0054924218 -0.0054923892 0.73136425
-0.0054791658 -0.0065749586 0.73099804
-0.0054659736 -0.0076523721 0.73063362
-0.0054528452 -0.0087245107 0.73027086
-0.0054397788 -0.009791553 0.7299099
-0.0054267957 -0.010853559 0.7295512
-0.0054139718 -0.011910737 0.72919697
-0.0054013273 -0.012963176 0.72884762
-0.0053887996 -0.014010876 0.72850156
-0.0053763497 -0.015053779 0.72815758
-0.005363957 -0.016091853 0.72781527
-0.0053516212 -0.017125189 0.72747445
-0.0053393999 -0.018153906 0.72713679
-0.0053273677 -0.01917851 0.72680438
-0.0053154654 -0.020198762 0.72647554
-0.0053036539 -0.021214575 0.7261492
-0.0052918764 -0.022225827 0.72582388
-0.0052801506 -0.023232639 0.72549999
-0.0052684774 -0.02423501 0.72517747
-0.0052569294 -0.025233239 0.72485846
-0.0052456167 -0.02622804 0.72454584
-0.0052343714 -0.027218729 0.72423524
-0.0052231927 -0.028205216 0.72392637
-0.0052120434 -0.029187441 0.72361839
-0.0052009597 -0.030165553 0.72331214
-0.0051899045 -0.031139404 0.72300673
-0.0051790229 -0.032109946 0.7227062
-0.0051683309 -0.03307727 0.72241068
-0.0051576998 -0.034040809 0.72211707
-0.0051471135 -0.035000354 0.72182459
-0.00513657 -0.035955966 0.7215333
-0.0051260693 -0.036907673 0.7212432
-0.0051163686 -0.037861109 0.72097522
-0.005113659 -0.038863778 0.72090042
-0.0051237382 -0.039965153 0.72117877
-0.0051505542 -0.041204453 0.72191966
-0.0051805926 -0.042480856 0.72274953
-0.0052112029 -0.043774098 0.72359514
-0.0052424176 -0.045084745 0.7244575
-0.0052742511 -0.046413422 0.72533697
-0.0053040134 -0.047736108 0.72615921
-0.0053172708 -0.048918843 0.72652543
-0.0053279209 -0.050082445 0.72681969
-0.0054187179 0.066379309 0.7667532
-0.0054006614 0.064807951 0.76612967
-0.005377104 0.063181013 0.76531613
-0.0053400043 0.061410099 0.76403499
-0.0052241343 0.058771521 0.76003361
-0.005136278 0.056499094 0.75699961
-0.0050662365 0.054462075 0.75458091
-0.005022367 0.052734852 0.753066
-0.0050051026 0.051302314 0.75246978
-0.0049881032 0.049881041 0.75188273
-0.0049713021 0.048470229 0.75130254
-0.0049548405 0.04707098 0.75073409
-0.0049384874 0.04568103 0.75016934
-0.0049223034 0.044300735 0.74961048
-0.0049064881 0.042931795 0.74906427
-0.0048907539 0.041571409 0.74852097
-0.0048751202 0.040219754 0.74798107
-0.0048598046 0.038878471 0.74745214
-0.0048446441 0.037546009 0.74692863
-0.0048296172 0.03622216 0.74640971
-0.0048148008 0.034907311 0.74589801
-0.0048001902 0.033601314 0.74539351
-0.004785649 0.032303154 0.74489135
-0.0047714063 0.031014144 0.74439949
-0.004757267 0.029732943 0.74391121
-0.0047432496 0.028459519 0.74342716
-0.0047293138 0.027193546 0.74294591
-0.0047156657 0.025936186 0.74247462
-0.0047021336 0.024686217 0.74200726
-0.0046886969 0.02344355 0.74154323
-0.0046753921 0.022208124 0.7410838
-0.0046622721 0.020980269 0.74063069
-0.0046492619 0.019759387 0.74018145
-0.0046363603 0.018545479 0.7397359
-0.0046236557 0.017338693 0.73929721
-0.0046110209 0.016138613 0.73886085
-0.0045985081 0.014945149 0.73842877
-0.0045860806 0.013758242 0.73799962
-0.0045738961 0.012578219 0.73757881
-0.004561794 0.011404514 0.73716092
-0.0045497902 0.010237068 0.73674637
-0.0045378669 0.0090757608 0.73633456
-0.0045260056 0.0079205334 0.73592502
-0.0045143603 0.0067715645 0.73552287
-0.0045027919 0.0056285262 0.73512334
-0.0044913851 0.0044913888 0.73472941
-0.004480035 0.0033600926 0.73433751
-0.0044687595 0.0022343993 0.73394811
-0.0044575902 0.001114428 0.73356241
-0.0044464772 2.9802322e-08 0.73317862
-0.0044356012 -0.0011088848 0.73280305
-0.0044248104 -0.0022123754 0.7324304
-0.0044140569 -0.0033105314 0.73205906
-0.0044033541 -0.0044033527 0.73168951
-0.0043927203 -0.0054908693 0.73132223
-0.0043822345 -0.0065733492 0.73096013
-0.0043718787 -0.007650733 0.7306025
-0.0043616365 -0.0087232292 0.73024881
-0.0043514408 -0.0097906888 0.72989672
-0.0043412936 -0.010853201 0.72954631
-0.0043311934 -0.011910766 0.7291975
-0.0043212031 -0.012963623 0.72885251
-0.004311352 -0.01401186 0.72851235
-0.0043016393 -0.015055716 0.72817695
-0.0042919707 -0.016094863 0.72784305
-0.0042823297 -0.017129302 0.72751009
-0.004272732 -0.018159091 0.72717863
-0.004263177 -0.019184262 0.72684866
-0.0042537712 -0.020205379 0.72652388
-0.0042445129 -0.021222532 0.72620416
-0.0042353244 -0.022235423 0.72588688
-0.0042261616 -0.023243845 0.72557044
-0.0042170375 -0.024247974 0.72525537
-0.0042079678 -0.025247753 0.72494215
-0.0041989377 -0.026243359 0.7246303
-0.0041900934 -0.027235568 0.72432482
-0.0041813594 -0.02822417 0.72402328
-0.0041726618 -0.029208601 0.72372288
-0.004164001 -0.030188978 0.72342378
-0.0041553755 -0.031165332 0.72312599
-0.0041467859 -0.032137573 0.72282934
-0.0041382317 -0.03310582 0.72253394
-0.0041298843 -0.034071505 0.72224569
-0.0041216137 -0.035033703 0.72196007
-0.0041133906 -0.035992146 0.72167611
-0.0041051861 -0.036946654 0.72139275
-0.0040970282 -0.037897497 0.72111106
-0.0040943348 -0.038896143 0.72101796
-0.0040997956 -0.039973021 0.72120667
-0.0041193021 -0.041192979 0.7218802
-0.0041437238 -0.042473167 0.7227236
-0.0041685388 -0.043769658 0.72358048
-0.0041939043 -0.045084447 0.72445643
-0.0042198203 -0.046418011 0.72535145
-0.0042460728 -0.047768325 0.72625804
-0.0042579887 -0.048966855 0.72666955
-0.0042668008 -0.050134897 0.72697383
-0.0040382128 0.065957516 0.76556408
-0.0040298589 0.064477772 0.76517946
-0.004007828 0.062789321 0.76416504
-0.0039693145 0.060862809 0.76239169
-0.003891509 0.058372647 0.75880921
-0.0038317433 0.056198925 0.75605738
-0.0037829701 0.054222614 0.7538116
-0.0037542062 0.052558929 0.75248724
-0.0037416893 0.051136434 0.75191092
-0.0037294272 0.049725711 0.75134629
-0.003717307 0.048325032 0.75078821
-0.0037052655 0.046933383 0.75023377
-0.0036934239 0.045552254 0.74968857
-0.003681734 0.04418081 0.74915028
-0.0036701327 0.042818218 0.7486161
-0.0036586944 0.041465223 0.74808943
-0.0036474464 0.040121913 0.74757159
-0.0036362526 0.038786709 0.74705613
-0.0036252008 0.037460446 0.74654728
-0.0036143332 0.036143333 0.7460469
-0.0036035453 0.034834296 0.74555016
-0.0035928213 0.033533007 0.74505639
-0.003582262 0.032240361 0.74457014
-0.0035718642 0.030956179 0.74409139
-0.0035615128 0.029679328 0.74361479
-0.0035512634 0.028410107 0.74314284
-0.0035411571 0.027148873 0.74267757
-0.0035311501 0.025895119 0.74221677
-0.0035211996 0.024648398 0.74175858
-0.0035114295 0.023409545 0.74130869
-0.003501727 0.022177607 0.74086207
-0.0034921055 0.020952642 0.74041897
-0.0034825366 0.019734383 0.73997843
-0.0034731417 0.018523455 0.73954576
-0.0034638376 0.017319202 0.73911738
-0.0034545967 0.016121477 0.73869193
-0.0034454316 0.014930218 0.73826993
-0.0034363281 0.013745308 0.73785079
-0.0034273781 0.012567073 0.73743862
-0.0034184745 0.011394948 0.73702872
-0.0034097082 0.010229141 0.73662508
-0.0034009998 0.0090693831 0.73622411
-0.0033923229 0.007915467 0.73582458
-0.0033837415 0.0067675114 0.73542941
-0.0033752162 0.0056253672 0.73503685
-0.0033668731 0.0044891834 0.73465276
-0.0033585718 0.0033585727 0.73427051
-0.003350311 0.0022335649 0.73389012
-0.0033420906 0.0011140704 0.73351169
-0.0033339106 2.9802322e-08 0.7331351
-0.0033258945 -0.0011086464 0.73276591
-0.0033179293 -0.0022119582 0.73239911
-0.0033100634 -0.0033100247 0.73203701
-0.0033022347 -0.0044029653 0.73167646
-0.003294443 -0.0054907501 0.73131776
-0.0032866881 -0.006573379 0.73096073
-0.0032790417 -0.0076510906 0.73060864
-0.0032715029 -0.0087240338 0.7302615
-0.0032640346 -0.0097920895 0.72991765
-0.0032566122 -0.010855377 0.72957587
-0.0032492115 -0.011913776 0.72923511
-0.0032418442 -0.012967348 0.7288959
-0.0032345105 -0.014016181 0.72855818
-0.0032273384 -0.015060931 0.72822803
-0.0032202327 -0.016101152 0.72790086
-0.0032131698 -0.017136902 0.7275756
-0.003206138 -0.018168062 0.72725177
-0.0031991482 -0.019194871 0.72693002
-0.0031921775 -0.020217121 0.72660899
-0.0031852939 -0.021235287 0.72629207
-0.0031785418 -0.022249788 0.72598118
-0.0031718409 -0.023260176 0.7256726
-0.0031651682 -0.024266273 0.7253654
-0.0031585235 -0.025268167 0.72505945
-0.0031519067 -0.026265889 0.72475475
-0.0031453175 -0.027259409 0.72445136
-0.0031387887 -0.028249085 0.72415078
-0.0031324083 -0.02923584 0.72385705
-0.0031260645 -0.030218631 0.72356492
-0.0031197572 -0.031197548 0.72327447
-0.0031134647 -0.032172441 0.72298467
-0.0031072083 -0.03314355 0.72269666
-0.0031009661 -0.034110636 0.72240931
-0.0030948026 -0.035074383 0.72212541
-0.0030887811 -0.036035776 0.72184825
-0.0030827725 -0.036993235 0.72157156
-0.0030767871 -0.037947029 0.72129601
-0.0030733214 -0.038928717 0.72113639
-0.0030763522 -0.039992571 0.72127593
-0.003089241 -0.041189849 0.72186941
-0.003107901 -0.042474627 0.72272855
-0.0031268096 -0.04377532 0.7235992
-0.0031461604 -0.045094937 0.72449023
-0.0031659883 -0.046434462 0.72540313
-0.0031861698 -0.047792554 0.72633243
-0.0031982192 -0.049039334 0.72688723
-0.0032054007 -0.050217956 0.72721791
-0.0026773335 0.065594703 0.76454139
-0.0026711295 0.06410712 0.76411283
-0.0026577141 0.06245628 0.76318634
-0.0026263576 0.060406268 0.7610206
-0.0025803945 0.058058888 0.75784612
-0.0025434843 0.055956662 0.75529689
-0.0025129446 0.054028302 0.75318754
-0.002495527 0.052406102 0.7519846
-0.0024875326 0.050994396 0.75143254
-0.0024795891 0.04959178 0.75088382
-0.0024717064 0.048198283 0.75033939
-0.0024640064 0.04681617 0.7498076
-0.0024563442 0.045442402 0.74927837
-0.0024487395 0.044077307 0.74875319
-0.0024412919 0.042722613 0.7482388
-0.0024339096 0.041376472 0.74772888
-0.0024265815 0.040038586 0.74722278
-0.0024193171 0.038709104 0.74672103
-0.0024121939 0.03738904 0.74622911
-0.0024051126 0.036076725 0.74574
-0.0023981018 0.034772515 0.74525583
-0.0023911796 0.033476561 0.74477774
-0.0023843357 0.032188535 0.74430501
-0.0023775308 0.030907929 0.74383497
-0.0023708118 0.029635161 0.74337101
-0.002364187 0.028370261 0.74291348
-0.0023576084 0.027112484 0.74245906
-0.0023510668 0.02586174 0.74200726
-0.0023446348 0.024618685 0.74156302
-0.0023382751 0.023382753 0.7411238
-0.0023319495 0.022153556 0.74068689
-0.0023256855 0.020931214 0.74025428
-0.0023194728 0.019715518 0.73982519
-0.0023133564 0.018506885 0.73940271
-0.0023072723 0.017304569 0.7389825
-0.0023012646 0.016108871 0.73856759
-0.0022953057 0.014919519 0.73815602
-0.0022893951 0.013736397 0.73774785
-0.0022835326 0.012559474 0.73734289
-0.0022777088 0.01138857 0.73694068
-0.0022720015 0.010224044 0.73654652
-0.0022663311 0.0090653598 0.73615491
-0.0022606892 0.0079123974 0.73576522
-0.0022550749 0.0067652464 0.73537743
-0.0022495058 0.0056237876 0.7349928
-0.0022440318 0.0044880807 0.73461479
-0.0022385926 0.0033578873 0.7342391
-0.0022332219 0.0022332668 0.73386818
-0.0022278768 0.0011139512 0.73349899
-0.0022225571 -0 0.73313159
-0.0022172797 -0.0011086166 0.73276705
-0.0022120599 -0.0022120774 0.73240656
-0.00220693 -0.0033103824 0.73205233
-0.0022018321 -0.004403621 0.73170018
-0.0021967576 -0.0054918826 0.73134971
-0.0021917147 -0.0065751076 0.73100138
-0.002186687 -0.0076533854 0.73065412
-0.0021816979 -0.0087267458 0.73030955
-0.0021768115 -0.0097956359 0.729972
-0.0021719628 -0.010859787 0.72963715
-0.0021671432 -0.01191926 0.72930431
-0.0021623531 -0.012974113 0.72897351
-0.0021575764 -0.014024228 0.7286436
-0.002152836 -0.015069842 0.72831619
-0.0021481554 -0.016111135 0.72799289
-0.002143557 -0.017148435 0.72767532
-0.0021389856 -0.018181354 0.72735959
-0.0021344339 -0.019209892 0.72704518
-0.0021299017 -0.020234048 0.72673213
-0.0021253882 -0.021253854 0.7264204
-0.0021208944 -0.022269368 0.7261101
-0.0021164869 -0.023281336 0.72580564
-0.0021121427 -0.024289608 0.72550565
-0.0021078165 -0.025293767 0.72520679
-0.0021035154 -0.026293933 0.72490978
-0.0020992244 -0.027289927 0.72461343
-0.002094958 -0.028281927 0.72431874
-0.0020907018 -0.029269785 0.72402477
-0.0020865505 -0.03025496 0.72373813
-0.002082438 -0.031236559 0.723454
-0.0020783411 -0.032214284 0.72317111
-0.0020742679 -0.033188283 0.72288978
-0.0020702032 -0.034158379 0.72260904
-0.0020661545 -0.03512463 0.72232938
-0.0020621286 -0.036087245 0.72205138
-0.002058197 -0.037047535 0.72177982
-0.0020543013 -0.038004547 0.72151071
-0.0020514531 -0.038977593 0.72131401
-0.0020527772 -0.040029109 0.72140551
-0.0020597936 -0.04119584 0.72189009
-0.0020724321 -0.04248485 0.72276294
-0.0020852925 -0.043791115 0.72365123
-0.0020984171 -0.045115918 0.72455764
-0.0021119479 -0.046462834 0.72549218
-0.002125738 -0.047829092 0.72644454
-0.0021357599 -0.049122453 0.72713679
-0.0021406177 -0.050304472 0.72747231
-0.00215152 -0.051636457 0.72822529
-0.0013380405 0.066902041 0.76445484
-0.0013327756 0.065306038 0.76372755
-0.0013293977 0.063811094 0.76326096
-0.0013228693 0.062174857 0.7623592
-0.00130585 0.060069144 0.76000828
-0.0012847185 0.057812363 0.75708932
-0.0012673363 0.055762798 0.75468826
-0.0012527989 0.05387038 0.75268024
-0.0012446876 0.052276909 0.75155973
-0.0012407826 0.050872087 0.75102031
-0.0012369377 0.049477518 0.75048923
-0.0012331475 0.048092753 0.74996573
-0.0012293804 0.046716511 0.74944532
-0.0012256413 0.045348734 0.74892879
-0.0012219852 0.043991506 0.74842381
-0.0012183507 0.042642295 0.74792171
-0.0012147379 0.041301101 0.7474227
-0.0012111858 0.039969146 0.74693209
-0.001207674 0.038645566 0.74644697
-0.0012041826 0.037329644 0.74596465
-0.0012007307 0.036021948 0.74548781
-0.0011973275 0.034722507 0.74501777
-0.0011939531 0.033430725 0.7445516
-0.0011905975 0.032146186 0.74408817
-0.0011872894 0.030869573 0.74363112
-0.0011840279 0.029600739 0.74318063
-0.0011807887 0.028338939 0.74273324
-0.0011775674 0.027084082 0.74228823
-0.0011743821 0.025836438 0.74184823
-0.0011712463 0.024596214 0.74141508
-0.0011681272 0.023362577 0.7409842
-0.0011650475 0.022135943 0.7405588
-0.001161993 0.020915896 0.74013686
-0.0011589637 0.019702405 0.73971838
-0.0011559589 0.018495381 0.73930335
-0.0011529742 0.017294586 0.73889112
-0.0011500538 0.016100794 0.73848766
-0.0011471482 0.014912933 0.73808634
-0.0011442573 0.013731092 0.73768699
-0.0011413808 0.012555212 0.73728961
-0.0011385318 0.011385322 0.73689616
-0.0011357274 0.010221541 0.73650879
-0.0011329411 0.0090635419 0.7361238
-0.00113019 0.0079113543 0.73574382
-0.001127452 0.0067647398 0.73536563
-0.0011247273 0.0056236386 0.73498929
-0.0011220329 0.0044881403 0.73461705
-0.0011193595 0.0033580959 0.7342478
-0.0011167367 0.0022334754 0.73388553
-0.0011141262 0.0011141598 0.73352492
-0.0011115278 2.9802322e-08 0.73316604
-0.0011089457 -0.0011089444 0.73280931
-0.0011063714 -0.002212733 0.73245376
-0.0011038337 -0.0033114851 0.73210323
-0.0011013278 -0.0044052899 0.73175704
-0.0010988496 -0.0054942071 0.73141474
-0.0010963867 -0.0065782964 0.73107451
-0.0010939306 -0.0076574981 0.73073524
-0.0010914855 -0.008731842 0.73039752
-0.0010890714 -0.0098016262 0.73006403
-0.0010866798 -0.010866761 0.72973371
-0.0010843303 -0.011927634 0.72940916
-0.0010819908 -0.012983859 0.72908592
-0.0010796614 -0.014035583 0.72876424
-0.0010773422 -0.015082777 0.72844386
-0.0010750367 -0.01612556 0.72812539
-0.0010727489 -0.017163992 0.72780937
-0.0010705014 -0.01819852 0.72749889
-0.0010682828 -0.019229054 0.7271924
-0.0010660694 -0.020255297 0.72688663
-0.0010638689 -0.021277338 0.72658277
-0.0010616736 -0.022295117 0.7262795
-0.0010594913 -0.023308784 0.72597802
-0.001057333 -0.024318635 0.72567987
-0.001055217 -0.025325209 0.72538769
-0.0010531133 -0.026327819 0.72509706
-0.0010510217 -0.027326584 0.7248081
-0.0010489346 -0.028321207 0.72451985
-0.0010468558 -0.029311955 0.72423267
-0.001044789 -0.030298859 0.72394717
-0.0010427412 -0.031282216 0.72366434
-0.0010407452 -0.03226307 0.72338855
-0.0010387568 -0.033240229 0.72311389
-0.0010367724 -0.034213483 0.72283989
-0.001034799 -0.035183161 0.7225672
-0.0010328298 -0.036149025 0.72229522
-0.0010308714 -0.037111372 0.72202474
-0.0010289346 -0.038070589 0.72175717
-0.0010274275 -0.039042205 0.72154897
-0.0010274665 -0.04007116 0.7215544
-0.0010305499 -0.041221976 0.72198027
-0.0010366748 -0.042503655 0.72282636
-0.0010432643 -0.043817073 0.72373652
-0.0010499716 -0.04514873 0.72466302
-0.0010568933 -0.046503276 0.72561914
-0.0010639792 -0.04787904 0.72659802
-0.0010700816 -0.049223781 0.72744089
-0.0010728843 -0.050425559 0.72782803
-0.0010765116 -0.051672548 0.72832906
0 0.066608965 0.76364511
0 0.065052122 0.76301175
0 0.063560516 0.7625398
0 0.061939865 0.76166844
0 0.059813857 0.7592417
0 0.057621658 0.756504
0 0.055615634 0.75422621
0 0.053749263 0.75229102
0 0.052166641 0.7511971
0 0.050770462 0.7506777
0 0.049382865 0.75016224
0 0.048003584 0.74964982
0 0.046633571 0.74914396
0 0.045272797 0.74864531
0 0.043920219 0.74815029
0 0.042575687 0.74765879
0 0.041240633 0.747177
0 0.039913386 0.74669868
0 0.038593858 0.74622369
0 0.037282139 0.74575275
0 0.035979211 0.74529123
0 0.034683377 0.74483156
0 0.033395022 0.74437565
0 0.032114118 0.74392438
0 0.030841082 0.74348009
0 0.029574931 0.74303818
0 0.028315783 0.7425999
0 0.027063906 0.74216723
0 0.025819182 0.74174005
0 0.024580866 0.74131453
0 0.023349106 0.7408911
0 0.022124738 0.7404775
0 0.020906568 0.7400654
0 0.019694805 0.73965669
0 0.018489093 0.73924941
0 0.017289847 0.73884726
0 0.01609695 0.73845023
0 0.014910072 0.73805571
0 0.013729304 0.73766631
0 0.012554318 0.73727876
0 0.011385143 0.73689371
0 0.010221839 0.7365129
0 0.0090641379 0.73613405
0 0.0079123378 0.73576343
0 0.0067659914 0.73539454
0 0.0056250095 0.73502684
0 0.0044894516 0.73466152
0 0.0033591688 0.73429734
0 0.0022342801 0.73394001
0 0.0011145771 0.73358554
0 5.9604645e-08 0.73323548
0 -0.0011095107 0.73288649
0 -0.0022140145 0.73253906
0 -0.0033134818 0.73219436
0 -0.0044081211 0.73185402
0 -0.0054979026 0.73151684
0 -0.0065830946 0.7311846
0 -0.0076635182 0.7308538
0 -0.008739233 0.73052436
0 -0.0098102391 0.73019636
0 -0.010876656 0.72987032
0 -0.011938781 0.72954965
0 -0.012996554 0.72923189
0 -0.014050066 0.72891808
0 -0.015099108 0.72860515
0 -0.016143829 0.72829407
0 -0.017184168 0.72798383
0 -0.018220335 0.72767639
0 -0.019252658 0.72737342
0 -0.020281255 0.7270754
0 -0.021305621 0.72677803
0 -0.022325873 0.7264818
0 -0.023342162 0.72618741
0 -0.024354249 0.72589362
0 -0.025362432 0.72560203
0 -0.026367605 0.72531676
0 -0.027369201 0.72503471
0 -0.028366834 0.72475326
0 -0.029360741 0.72447336
0 -0.030350685 0.72419405
0 -0.031336933 0.72391629
0 -0.032319278 0.72363907
0 -0.033299506 0.72336996
0 -0.034276307 0.72310287
0 -0.035249382 0.72283632
0 -0.036218941 0.72257119
0 -0.037184805 0.72230661
0 -0.038147271 0.72204351
0 -0.039111972 0.72180247
0 -0.040132463 0.72177148
0 -0.041259438 0.72210962
0 -0.042532682 0.72292423
0 -0.043852925 0.72385448
0 -0.045192629 0.72480398
0 -0.046556115 0.7257849
0 -0.047942847 0.72679383
0 -0.049325615 0.72774684
0 -0.050548822 0.72819042
0 -0.051775604 0.72862577
0.0013275343 0.066376716 0.76300359
0.0013231459 0.064834177 0.76239741
0.0013197404 0.063347578 0.76192695
0.0013137879 0.061748028 0.76110476
0.0012961916 0.059624851 0.75867414
0.0012772972 0.057478368 0.75606418
0.0012614982 0.055505931 0.75388181
0.0012478263 0.053656548 0.7519933
0.0012399392 0.052077472 0.75090379
0.001236254 0.050686449 0.75039476
0.0012325955 0.049303859 0.74988943
0.0012290045 0.047931194 0.7493934
0.0012254495 0.046567112 0.74890232
0.0012219148 0.045210868 0.7484141
0.0012184156 0.043862969 0.74793071
0.001214981 0.042524368 0.74745631
0.0012115657 0.041193247 0.74698454
0.0012081744 0.039869756 0.74651611
0.0012048265 0.03855446 0.74605358
0.0012015263 0.03724736 0.74559772
0.001198244 0.035947353 0.74514437
0.0011949844 0.034654558 0.74469411
0.001191776 0.03336972 0.74425095
0.001188599 0.032092184 0.74381202
0.0011854436 0.030821532 0.74337614
0.0011823003 0.029557526 0.74294198
0.0011792249 0.028301388 0.74251723
0.0011761703 0.027051926 0.74209523
0.0011731359 0.02580902 0.74167609
0.0011701126 0.024572402 0.74125844
0.0011671279 0.02334258 0.74084622
0.0011641856 0.022119552 0.74043977
0.001161258 0.020902663 0.74003541
0.0011583677 0.019692242 0.73963618
0.0011554873 0.018487811 0.73923826
0.0011526435 0.017289698 0.73884541
0.0011498182 0.016097456 0.73845518
0.0011470155 0.014911205 0.73806804
0.001144266 0.013731211 0.73768824
0.0011415296 0.012556851 0.73731023
0.0011387977 0.011388004 0.73693281
0.0011360875 0.010224819 0.7365585
0.0011333901 0.009067148 0.73618591
0.0011307528 0.0079152584 0.7358216
0.0011281234 0.0067687929 0.73545837
0.0011255277 0.0056276619 0.73509979
0.0011229395 0.0044917762 0.73474234
0.0011203674 0.0033611357 0.73438704
0.0011178239 0.002235651 0.73403573
0.0011153003 0.0011152923 0.73368704
0.0011128088 2.9802322e-08 0.73334289
0.0011103451 -0.0011103153 0.73300266
0.0011078921 -0.0022157729 0.73266381
0.0011054461 -0.0033162832 0.73232591
0.0011030189 -0.004412055 0.73199064
0.0011006064 -0.0055029988 0.73165739
0.001098241 -0.0065894127 0.73133063
0.0010958938 -0.007671237 0.73100638
0.0010935685 -0.0087485015 0.73068523
0.0010912493 -0.0098212063 0.73036486
0.0010889438 -0.010889441 0.73004639
0.001086644 -0.011953056 0.7297287
0.0010843816 -0.013012558 0.72941625
0.0010821522 -0.014067978 0.72910827
0.0010799399 -0.015119135 0.72880268
0.0010777365 -0.016166031 0.72849834
0.001075546 -0.017208755 0.72819573
0.0010733606 -0.018247128 0.72789383
0.0010711878 -0.019281387 0.72759378
0.0010690469 -0.020311862 0.72729796
0.0010669413 -0.021338791 0.72700715
0.0010648478 -0.022361785 0.72671795
0.0010627663 -0.023380846 0.72643042
0.0010606892 -0.024395823 0.72614354
0.0010586239 -0.025406986 0.72585821
0.0010565629 -0.026414067 0.72557354
0.0010545473 -0.027418226 0.72529513
0.001052558 -0.028419018 0.72502029
0.0010505798 -0.029416233 0.72474706
0.0010486055 -0.030409545 0.72447437
0.0010466422 -0.03139922 0.72420317
0.0010446826 -0.032385141 0.72393245
0.0010427339 -0.033367485 0.72366333
0.0010408217 -0.034347117 0.72339916
0.0010389382 -0.035323888 0.72313905
0.0010370652 -0.036297262 0.72288024
0.0010351989 -0.037267148 0.72262245
0.0010333357 -0.038233399 0.72236514
0.0010314828 -0.039196312 0.72210914
0.001031075 -0.040211916 0.72205281
0.0010328118 -0.041312456 0.72229272
0.001038347 -0.0425722 0.72305727
0.0010452076 -0.043898672 0.72400498
0.0010522712 -0.045247644 0.72498071
0.001059578 -0.046621442 0.72599006
0.0010671327 -0.048020959 0.72703356
0.0010748658 -0.049443811 0.72810179
0.0010787256 -0.050700098 0.72863495
0.001081857 -0.051929086 0.72906744
0.0026474698 0.066186756 0.76247871
0.0026393635 0.064664423 0.7619189
0.0026327746 0.063186616 0.76146382
0.0026210106 0.061593771 0.76065129
0.0025866337 0.059492588 0.75827706
0.0025501037 0.057377338 0.75575405
0.0025195552 0.055430233 0.75364411
0.0024927869 0.053594947 0.75179535
0.0024763991 0.052004397 0.75066352
0.0024692027 0.050618678 0.75016648
0.0024621501 0.049243033 0.74967933
0.0024551477 0.047875404 0.74919575
0.0024481751 0.046515346 0.74871415
0.0024412919 0.0451639 0.7482388
0.0024345173 0.043821305 0.74777091
0.0024277801 0.042486161 0.74730557
0.0024210799 0.041158378 0.7468428
0.002414505 0.039839357 0.74638867
0.002407985 0.038527787 0.74593842
0.0024015002 0.037223279 0.74549049
0.0023950504 0.035925776 0.74504501
0.00238875 0.034636915 0.74460989
0.0023824733 0.03335464 0.74417639
0.0023762388 0.03207925 0.7437458
0.0023700465 0.030810624 0.74331814
0.0023639521 0.02954942 0.74289727
0.0023579171 0.02829501 0.7424804
0.0023519034 0.027046919 0.74206507
0.0023459666 0.025805652 0.74165505
0.0023400779 0.024570823 0.74124831
0.0023342557 0.02334258 0.74084622
0.0023284622 0.022120416 0.74044609
0.0023227246 0.020904541 0.74004978
0.0023170875 0.019695282 0.73966044
0.0023114777 0.018491834 0.73927301
0.0023058858 0.017294139 0.73888683
0.0023003214 0.016102225 0.7385025
0.0022948275 0.01491642 0.738123
0.002289413 0.013736516 0.73774904
0.0022840325 0.012562215 0.73737741
0.0022787035 0.011393547 0.73700941
0.0022733996 0.010230303 0.73664308
0.002268146 0.0090726316 0.7362802
0.0022629511 0.0079203248 0.73592144
0.0022577799 0.0067733526 0.73556423
0.0022527005 0.0056317449 0.73521346
0.0022476527 0.0044953227 0.73486483
0.0022426271 0.0033639669 0.73451775
0.0022376159 0.0022376478 0.73417163
0.0022326517 0.0011163652 0.73382872
0.0022277432 2.9802322e-08 0.73348975
0.002222898 -0.001111418 0.73315507
0.0022180981 -0.0022180676 0.73282361
0.0022133356 -0.0033200085 0.73249471
0.0022085854 -0.0044171214 0.73216653
0.0022038636 -0.0055096447 0.73184043
0.0021991944 -0.0065976083 0.73151797
0.0021945531 -0.0076808929 0.73119736
0.0021900041 -0.0087600052 0.73088324
0.0021854735 -0.0098346174 0.73057032
0.00218097 -0.010904819 0.7302593
0.0021764769 -0.011970609 0.729949
0.0021720103 -0.013032049 0.72964048
0.0021675776 -0.014089227 0.72933435
0.0021632339 -0.01514262 0.72903436
0.002158931 -0.01619193 0.72873712
0.002154653 -0.017237216 0.72844172
0.0021503845 -0.018278271 0.72814685
0.0021461402 -0.019315273 0.72785372
0.002141905 -0.020348072 0.72756118
0.002137725 -0.021377236 0.72727257
0.00213363 -0.022403091 0.72698969
0.0021295659 -0.023425221 0.72670901
0.0021255098 -0.024443328 0.72642887
0.0021214767 -0.02545771 0.72615033
0.0021174513 -0.026468158 0.72587234
0.0021134485 -0.027474791 0.72559583
0.002109491 -0.028478116 0.72532248
0.0021056302 -0.029478759 0.72505581
0.002101776 -0.030475706 0.72478962
0.0020979431 -0.031469136 0.72452492
0.0020941244 -0.032458931 0.72426116
0.0020903123 -0.033445001 0.72399795
0.0020865214 -0.034427583 0.72373605
0.0020827733 -0.035407096 0.72347718
0.0020791113 -0.036384434 0.72322428
0.0020754691 -0.037358403 0.72297275
0.0020718402 -0.038329035 0.72272205
0.0020682237 -0.03929621 0.72247231
0.0020662334 -0.040291518 0.7223348
0.0020690509 -0.041381031 0.72252941
0.0020790384 -0.042620271 0.72321928
0.0020930634 -0.043954313 0.72418791
0.0021076521 -0.045314491 0.72519547
0.0021227412 -0.046700269 0.7262376
0.0021383937 -0.048113853 0.7273187
0.0021546921 -0.049557894 0.7284444
0.0021646353 -0.050868899 0.7291311
0.0021713916 -0.052113354 0.72959775
0.0039623333 0.066038907 0.7620703
0.0039507356 0.064528704 0.76153624
0.0039404761 0.063047618 0.76106393
0.0039239079 0.061474591 0.76030099
0.0038745755 0.059410185 0.75802952
0.0038209946 0.057314932 0.75556242
0.0037762772 0.055385411 0.75350344
0.0037368154 0.053561062 0.75168645
0.0037108134 0.051951408 0.75048923
0.0037002249 0.050569773 0.75000173
0.0036898497 0.049198002 0.74952394
0.0036795323 0.047833949 0.74904895
0.003669393 0.046479017 0.74858201
0.0036593545 0.045132071 0.74811983
0.0036493859 0.043792665 0.74766082
0.0036394566 0.042460322 0.74720365
0.0036297434 0.041137099 0.74675643
0.0036200967 0.039821088 0.74631226
0.0036105011 0.038512021 0.74587041
0.0036009564 0.037209928 0.74543095
0.0035916208 0.035916209 0.74500108
0.0035823337 0.034629226 0.74457347
0.0035730801 0.033348799 0.74414742
0.0035639312 0.032075375 0.74372613
0.0035548997 0.030809134 0.74331033
0.0035459423 0.029549539 0.74289787
0.0035370297 0.028296232 0.74248749
0.0035282178 0.02704969 0.74208176
0.0035195467 0.025810033 0.74168247
0.0035109182 0.024576426 0.7412852
0.0035023182 0.023348808 0.74088919
0.00349376 0.022127151 0.7404952
0.0034853665 0.0209122 0.74010867
0.00347704 0.019703239 0.73972529
0.0034687666 0.018500119 0.73934436
0.003460573 0.017302871 0.73896706
0.0034524309 0.016111404 0.73859215
0.0034443941 0.014925718 0.73822212
0.0034364075 0.013745666 0.73785442
0.0034284582 0.012571007 0.73748839
0.0034206633 0.01140222 0.73712951
0.003412904 0.010238737 0.73677218
0.0034051796 0.0090805292 0.73641652
0.003397516 0.007927537 0.73606366
0.003389874 0.0067797601 0.73571181
0.0033823818 0.0056372881 0.73536688
0.0033749479 0.0044999421 0.73502451
0.0033675721 0.003367573 0.73468494
0.0033602542 0.002240181 0.734348
0.003352955 0.0011177063 0.73401189
0.0033457126 2.9802322e-08 0.7336784
0.003338564 -0.0011128187 0.73334926
0.0033314831 -0.0022209287 0.73302323
0.003324494 -0.0033244789 0.73270142
0.0033175468 -0.0044233799 0.73238158
0.0033106161 -0.0055176914 0.7320624
0.0033037264 -0.0066074431 0.73174524
0.0032968777 -0.0076926947 0.73142987
0.003290118 -0.0087736249 0.73111868
0.0032834706 -0.0098504126 0.73081255
0.0032768738 -0.010922909 0.7305088
0.0032702917 -0.011991054 0.73020571
0.003263748 -0.013054967 0.72990441
0.0032572185 -0.014114618 0.72960377
0.0032507502 -0.015170157 0.72930598
0.0032444024 -0.016222 0.72901368
0.0032381264 -0.017269969 0.72872466
0.0032318861 -0.018314004 0.72843736
0.0032256583 -0.019353926 0.72815061
0.0032194657 -0.020389915 0.72786552
0.0032132857 -0.021421909 0.72758096
0.0032071637 -0.022450149 0.72729909
0.0032011913 -0.023475379 0.72702402
0.0031952641 -0.024497002 0.72675109
0.0031893475 -0.025514752 0.7264787
0.0031834641 -0.026528895 0.72620785
0.0031776023 -0.027539223 0.7259379
0.0031717508 -0.028545737 0.72566855
0.0031659657 -0.029549003 0.72540218
0.0031603137 -0.030549705 0.72514188
0.0031547039 -0.03154704 0.72488356
0.0031491031 -0.032540679 0.72462571
0.0031435331 -0.03353101 0.72436923
0.0031379829 -0.034517795 0.7241137
0.0031324523 -0.035501093 0.72385895
0.0031269849 -0.03648147 0.7236073
0.0031216675 -0.037460029 0.72336245
0.0031163574 -0.038435042 0.72311795
0.0031110654 -0.039406836 0.72287428
0.0031074679 -0.040397078 0.72270858
0.0031104037 -0.041472048 0.72284377
0.0031227602 -0.042677701 0.72341275
0.0031444083 -0.044021696 0.72440952
0.0031670106 -0.045393795 0.72545028
0.0031904082 -0.046792626 0.72652757
0.0032148487 -0.048222721 0.72765291
0.0032405844 -0.049688965 0.72883791
0.0032593485 -0.051063091 0.72970188
0.0032712512 -0.052339971 0.73024988
0.0052734856 0.065918595 0.76173788
0.0052581015 0.064411759 0.76120657
0.0052461592 0.062953919 0.76079422
0.0052243178 0.061385751 0.76003993
0.0051627373 0.059371531 0.75791335
0.0050929147 0.057295322 0.75550222
0.0050335876 0.055369467 0.75345343
0.0049816696 0.053552985 0.75166053
0.0049446248 0.051918596 0.75038129
0.0049303416 0.050536007 0.749888
0.0049167494 0.049167544 0.74941868
0.0049034748 0.047808915 0.74896026
0.0048902715 0.046457589 0.74850428
0.0048771189 0.045113415 0.74805009
0.0048640971 0.04377687 0.74760044
0.0048513222 0.042449087 0.74715918
0.0048385947 0.041128069 0.74671978
0.0048259534 0.039814144 0.74628317
0.0048134364 0.038507491 0.74585092
0.0048011201 0.037208706 0.74542558
0.0047888667 0.035916507 0.74500245
0.0047766753 0.034630895 0.74458146
0.0047646412 0.033352494 0.74416584
0.0047527817 0.032081306 0.74375629
0.0047409809 0.030816406 0.74334878
0.0047292388 0.029557765 0.74294329
0.0047175544 0.028305352 0.74253982
0.0047061327 0.0270603 0.74214542
0.0046947477 0.025821149 0.74175221
0.0046834173 0.024587959 0.7413609
0.0046722335 0.023361206 0.74097472
0.0046611214 0.022140354 0.74059093
0.0046501523 0.020925701 0.7402122
0.0046392172 0.01971674 0.73983455
0.0046284231 0.01851368 0.73946178
0.0046177688 0.017316639 0.7390939
0.0046071457 0.016125023 0.73872703
0.004596625 0.01493901 0.73836374
0.0045861336 0.013758481 0.73800141
0.004575761 0.012583345 0.73764324
0.0045655402 0.011413902 0.73729026
0.0045553828 0.010249615 0.73693949
0.0045453049 0.0090906322 0.73659146
0.0045353062 0.0079368055 0.73624617
0.0045253341 0.0067880154 0.73590183
0.0045155431 0.0056444407 0.73556364
0.0045057596 0.0045057833 0.73522592
0.0044961376 0.0033721328 0.73489356
0.0044865911 0.0022433102 0.73456383
0.0044770846 0.001119256 0.73423564
0.0044676517 -0 0.73390985
0.0044582416 -0.0011145771 0.73358488
0.0044489047 -0.0022244453 0.73326248
0.0044397558 -0.0033298135 0.73294652
0.004430694 -0.0044306815 0.73263359
0.0044216691 -0.0055270493 0.73232192
0.0044126976 -0.0066190362 0.73201215
0.0044037458 -0.0077065825 0.73170298
0.0043948623 -0.0087896883 0.7313962
0.0043861121 -0.009868741 0.73109406
0.0043774936 -0.010943711 0.7307964
0.0043689408 -0.012014538 0.73050106
0.0043604053 -0.013081223 0.73020631
0.0043519186 -0.014143705 0.72991323
0.0043434496 -0.015202045 0.72962075
0.0043350607 -0.016256452 0.72933102
0.0043268143 -0.017307222 0.72904629
0.0043186774 -0.018354356 0.72876525
0.004310587 -0.019397646 0.72848588
0.004302511 -0.020436913 0.72820699
0.0042944807 -0.021472365 0.72792971
0.0042864801 -0.022504002 0.72765344
0.0042785406 -0.023531944 0.72737926
0.0042707683 -0.024556905 0.72711086
0.0042630853 -0.025578499 0.72684556
0.0042554298 -0.026596427 0.72658116
0.0042477865 -0.0276106 0.72631723
0.004240186 -0.028621256 0.72605473
0.0042326124 -0.029628277 0.72579324
0.0042251106 -0.030631989 0.72553414
0.0042178151 -0.031633586 0.72528219
0.0042105597 -0.032631844 0.72503161
0.004203314 -0.033626497 0.72478139
0.0041960939 -0.034617752 0.72453213
0.004188898 -0.035605609 0.72428358
0.0041817268 -0.036590099 0.72403592
0.0041746246 -0.037571609 0.72379071
0.0041677356 -0.038551539 0.72355276
0.004160855 -0.039528102 0.72331518
0.0041553029 -0.040514201 0.72312343
0.0041566095 -0.041566074 0.72316861
0.0041714623 -0.042757452 0.72368151
0.0042001233 -0.044101238 0.72467124
0.0042312122 -0.045485526 0.72574484
0.0042636045 -0.046899647 0.7268635
0.0042976299 -0.048348308 0.72803843
0.0043337182 -0.049837768 0.7292847
0.0043647406 -0.051285714 0.73035604
0.0043815081 -0.052578062 0.73093498
0.0044085765 -0.054005057 0.73186976
0.0065822862 0.06582287 0.76147354
0.0065630535 0.064317942 0.76094222
0.0065497272 0.062877387 0.76057398
0.0065241223 0.061326802 0.7598666
0.0064539541 0.059376359 0.75792807
0.0063677519 0.057309747 0.75554663
0.0062934491 0.055382401 0.75349385
0.0062291212 0.053570479 0.75171673
0.0061794459 0.05190739 0.7503444
0.0061607561 0.050518215 0.74982804
0.006144362 0.049154907 0.7493751
0.0061280299 0.047798663 0.7489239
0.0061118091 0.046449751 0.74847579
0.006095774 0.045108736 0.74803287
0.0060799718 0.043775827 0.74759626
0.0060642515 0.042449772 0.74716192
0.0060486128 0.041130602 0.74672991
0.006033225 0.0398193 0.74630481
0.0060180132 0.0385153 0.74588454
0.0060028778 0.037217855 0.74546641
0.0059877946 0.035926789 0.74504977
0.0059729065 0.034642905 0.74463838
0.0059582354 0.033366144 0.74423307
0.0059436606 0.03209576 0.74383044
0.0059291562 0.030831635 0.74342978
0.0059147933 0.029574007 0.74303293
0.0059006405 0.028323084 0.74264193
0.0058865547 0.027078182 0.74225283
0.0058725602 0.025839269 0.74186623
0.0058587464 0.024606764 0.74148458
0.0058450899 0.023380399 0.74110723
0.0058314968 0.022159755 0.74073172
0.0058180126 0.020944893 0.74035919
0.0058045671 0.019735545 0.73998779
0.0057913875 0.018532455 0.73962367
0.0057782899 0.017334878 0.73926187
0.0057652732 0.016142756 0.73890221
0.0057523828 0.014956206 0.73854607
0.0057395492 0.013774902 0.73819155
0.0057268827 0.01259917 0.73784167
0.0057143164 0.011428624 0.73749447
0.0057018274 0.010263324 0.73714942
0.0056895446 0.009103328 0.73681009
0.005677314 0.0079482496 0.73647225
0.005665137 0.0067982078 0.73613578
0.0056530549 0.0056530833 0.73580199
0.0056410241 0.0045128465 0.73546964
0.0056292145 0.0033775568 0.73514336
0.005617497 0.0022470057 0.73481965
0.0056058918 0.001121223 0.73449904
0.0055943551 2.9802322e-08 0.73418039
0.0055828448 -0.001116544 0.7338624
0.0055713826 -0.0022285581 0.73354572
0.0055601327 -0.003336072 0.73323488
0.0055489908 -0.0044391751 0.73292708
0.005537976 -0.005537957 0.73262274
0.0055270251 -0.0066324174 0.73232019
0.0055160969 -0.0077225268 0.73201835
0.0055052121 -0.0088083148 0.73171759
0.0054944307 -0.0098899603 0.73141974
0.0054837926 -0.010967582 0.73112589
0.0054732971 -0.012041241 0.73083591
0.0054629012 -0.013110936 0.73054874
0.0054525449 -0.014176607 0.73026264
0.0054422077 -0.015238136 0.72997695
0.0054319296 -0.016295761 0.72969306
0.0054217298 -0.017349541 0.72941136
0.0054116864 -0.018399745 0.72913384
0.0054018181 -0.019446522 0.72886121
0.0053919847 -0.020489544 0.72858953
0.0053821872 -0.021528721 0.72831887
0.0053724064 -0.022564113 0.72804868
0.0053626797 -0.02359578 0.72777998
0.0053530661 -0.024624109 0.72751433
0.0053436784 -0.025649667 0.72725505
0.0053343428 -0.026671708 0.72699708
0.0053250589 -0.027690291 0.7267406
0.0053157881 -0.028705239 0.72648442
0.0053065498 -0.029716641 0.72622931
0.0052973432 -0.030724555 0.72597492
0.0052882256 -0.031729311 0.72572303
0.0052793822 -0.032732159 0.72547871
0.0052705682 -0.033731639 0.72523528
0.0052617653 -0.034727633 0.72499204
0.0052530104 -0.035720438 0.72475016
0.0052442849 -0.036709964 0.72450912
0.0052355877 -0.037696213 0.72426885
0.0052270116 -0.038679868 0.72403187
0.0052186651 -0.039661825 0.72380131
0.0052110204 -0.040645957 0.72359014
0.0052116415 -0.041693121 0.7236073
0.0052263318 -0.042855918 0.72401309
0.0052609839 -0.044192225 0.7249704
0.0053012338 -0.045590609 0.72608238
0.0053434097 -0.047021985 0.7272476
0.0053880378 -0.048492312 0.72848052
0.005435742 -0.050008804 0.72979844
0.0054820343 -0.051531106 0.73107731
0.0055073937 -0.052870929 0.73177785
0.0055360994 -0.054253757 0.73257095
0.0078920703 0.065767288 0.76131988
0.0078703156 0.064274251 0.76081896
0.0078555197 0.062844187 0.76047838
0.007825274 0.061298013 0.75978202
0.007751002 0.059424371 0.75807214
0.0076476224 0.057357192 0.75569212
0.0075588571 0.055431664 0.75364852
0.0074808374 0.053612679 0.75185239
0.0074162288 0.051913619 0.75036496
0.0073927548 0.050517172 0.74982452
0.0073733865 0.049155951 0.74937868
0.0073541207 0.047801793 0.7489351
0.0073351958 0.046456248 0.74849939
0.0073164585 0.045118213 0.74806803
0.0072978465 0.043787122 0.74763954
0.0072792694 0.042462409 0.74721181
0.0072610229 0.041145802 0.74679178
0.0072429557 0.039836258 0.74637586
0.0072250082 0.03853339 0.74596262
0.0072071482 0.037236959 0.74555147
0.0071895225 0.035947591 0.74514568
0.0071720975 0.034665167 0.74474448
0.0071547851 0.033389002 0.74434596
0.0071375561 0.032119006 0.74394929
0.0071206372 0.030856103 0.74355984
0.0071038273 0.029599309 0.74317282
