# .PCD v0.7 - Point Cloud Data file format
VERSION 0.7
FIELDS x y z
SIZE 4 4 4
TYPE F F F
COUNT 1 1 1
WIDTH 1319
HEIGHT 1
VIEWPOINT 0 0 0 1 0 0 0
POINTS 1319
DATA ascii
-0.028223457 0.032565534 0.72957313
-0.028328096 0.03159672 0.730129
-0.028433619 0.030620873 0.7306897
-0.028543619 0.029641449 0.73127413
-0.028655004 0.028655052 0.73186588
-0.028767368 0.027660936 0.73246282
-0.028883532 0.026661694 0.73307997
-0.029002592 0.025656134 0.73371255
-0.029122751 0.024642348 0.73435092
-0.029246451 0.023622155 0.73500812
-0.029374331 0.022595644 0.73568743
-0.029503336 0.021560133 0.73637289
-0.029637795 0.020518482 0.73708725
-0.029775891 0.019468874 0.73782086
-0.029916093 0.018409908 0.7385658
-0.030064279 0.017344773 0.73935306
-0.030214299 0.016269237 0.74015009
-0.03037226 0.015186161 0.74098927
-0.030534538 0.014092892 0.74185145
-0.030705141 0.012990624 0.74275786
-0.030882468 0.011877894 0.74369991
-0.03107122 0.01075545 0.74470276
-0.031268358 0.0096210539 0.74575007
-0.031482626 0.0084761083 0.7468884
-0.031711675 0.0073180795 0.74810535
-0.0319627 0.0061466992 0.749439
-0.032246757 0.0049610436 0.75094813
-0.032583483 0.0037596822 0.75273705
-0.033040714 0.0025416315 0.75516623
-0.027896106 0.04909718 0.73376226
-0.027829802 0.047867298 0.73339587
-0.027733363 0.046592057 0.73286301
-0.027507525 0.045112371 0.73161525
-0.02728834 0.043661416 0.73040414
-0.02707972 0.042244375 0.72925144
-0.026881069 0.040859193 0.72815382
-0.026691057 0.03950277 0.72710401
-0.026563272 0.038251132 0.72639787
-0.026548002 0.037167221 0.72631359
-0.026614619 0.036195874 0.72668165
-0.026704572 0.035250068 0.72717863
-0.026795041 0.034297675 0.72767848
-0.026886316 0.033339083 0.72818285
-0.026981154 0.032377422 0.72870684
-0.02707696 0.031409293 0.72923619
-0.027173446 0.030434281 0.72976935
-0.027271224 0.02945295 0.73030961
-0.027372831 0.028467745 0.73087096
-0.027475301 0.027475327 0.73143715
-0.02757844 0.02647534 0.73200703
-0.027685137 0.025470346 0.73259652
-0.027794221 0.024458915 0.73319924
-0.027904168 0.023439527 0.73380679
-0.028016785 0.022413433 0.734429
-0.0281334 0.021381378 0.73507339
-0.028250881 0.020340651 0.73572242
-0.028370975 0.019292265 0.736386
-0.028496131 0.018237561 0.73707759
-0.028622398 0.017173469 0.73777527
-0.028753126 0.016101748 0.73849756
-0.028888192 0.015021861 0.73924387
-0.029025329 0.013932139 0.74000156
-0.029169725 0.012834698 0.74079937
-0.029316602 0.011726618 0.74161094
-0.029470459 0.010609359 0.74246103
-0.029629361 0.0094814003 0.743339
-0.029795596 0.0083428025 0.74425751
-0.029969141 0.0071926117 0.74521643
-0.030153403 0.0060307086 0.74623448
-0.030346505 0.004855454 0.74730152
-0.030555906 0.0036667585 0.74845845
-0.030779678 0.0024624169 0.74969494
-0.031025516 0.0012410283 0.75105321
-0.031304415 -0 0.75259423
-0.031634741 -0.001265347 0.75441933
-0.032084696 -0.0025667548 0.7569055
-0.026554098 0.04868257 0.73246056
-0.026500368 0.047479868 0.73215133
-0.026395017 0.046191275 0.73154497
-0.026192192 0.044745028 0.73037755
-0.025998237 0.043330401 0.72926128
-0.025813291 0.04194662 0.72819686
-0.025634181 0.040587485 0.72716594
-0.025462169 0.039254218 0.7261759
-0.025369858 0.038054794 0.72564459
-0.025370037 0.036998004 0.7256456
-0.025433319 0.036030561 0.72600985
-0.025515966 0.035084486 0.72648549
-0.025599152 0.034132242 0.72696435
-0.02568279 0.033173621 0.72744572
-0.02576893 0.032211185 0.72794151
-0.025856774 0.031243622 0.72844708
-0.025945125 0.030269355 0.72895563
-0.026034176 0.029288471 0.72946811
-0.02612585 0.028303027 0.72999573
-0.02621942 0.027311921 0.73053432
-0.026313666 0.026313692 0.73107672
-0.026408592 0.025308251 0.73162311
-0.026507454 0.024298549 0.73219204
-0.026607454 0.023281544 0.73276764
-0.026708312 0.022256941 0.73334813
-0.026811549 0.02122581 0.73394233
-0.026918024 0.02018851 0.73455513
-0.027025448 0.019143045 0.73517334
-0.027134765 0.01808989 0.73580259
-0.027248612 0.017030358 0.73645782
-0.027363524 0.015962094 0.7371192
-0.027480252 0.014885187 0.73779106
-0.027602147 0.013801098 0.73849261
-0.027725557 0.012707591 0.73920286
-0.027852355 0.011605203 0.73993266
-0.027984491 0.010494202 0.74069321
-0.028118437 0.0093728304 0.7414642
-0.028258707 0.0082421601 0.74227148
-0.028402418 0.0071006417 0.74309862
-0.028551824 0.0059483349 0.74395853
-0.028707311 0.004784584 0.7448535
-0.028869055 0.003608644 0.74578434
-0.029038893 0.0024199188 0.74676186
-0.029218271 0.0012174547 0.74779427
-0.029407272 -0 0.74888211
-0.029611502 -0.0012337863 0.75005758
-0.029829931 -0.0024858117 0.7513147
-0.030070215 -0.0037587583 0.75269771
-0.030343531 -0.0050572455 0.75427079
-0.030667512 -0.0063890517 0.75613546
-0.031109683 -0.0077773929 0.7586804
-0.025274009 0.048350304 0.73141748
-0.02522275 0.047155619 0.73110968
-0.025102418 0.04583925 0.73038697
-0.024922328 0.044426769 0.72930545
-0.024749015 0.043041795 0.72826457
-0.024581628 0.041681916 0.72725922
-0.02442015 0.040346354 0.72628945
-0.024265772 0.039036274 0.72536224
-0.024191709 0.037865311 0.72491747
-0.02420789 0.036838114 0.72501469
-0.024274126 0.035883516 0.72541243
-0.02435017 0.034937203 0.72586918
-0.024426691 0.033984989 0.72632873
-0.024503607 0.033026606 0.72679061
-0.024582334 0.032063931 0.72726351
-0.024662903 0.031096727 0.72774732
-0.024744002 0.030123174 0.72823441
-0.024825636 0.029143155 0.72872466
-0.024908535 0.028157473 0.7292226
-0.024994181 0.027167618 0.72973692
-0.025080418 0.02617088 0.73025489
-0.025167162 0.025167197 0.73077583
-0.025255717 0.024157643 0.73130763
-0.025346966 0.023142874 0.73185575
-0.025438877 0.022120774 0.73240769
-0.025531456 0.021091223 0.73296368
-0.025626821 0.020055771 0.73353642
-0.025724452 0.019013733 0.73412275
-0.025822733 0.017963678 0.73471308
-0.025922552 0.016906023 0.73531252
-0.026026413 0.01584217 0.73593634
-0.026131209 0.014769822 0.73656571
-0.026237257 0.013689011 0.73720253
-0.026347922 0.012601197 0.73786724
-0.026460037 0.011504382 0.73854059
-0.026573319 0.010398269 0.73922092
-0.026691945 0.0092841685 0.73993331
-0.026812373 0.0081602931 0.74065655
-0.026935589 0.0070266724 0.74139661
-0.027064119 0.0058835745 0.74216855
-0.027194746 0.0047295392 0.742953
-0.027331116 0.003564924 0.74377203
-0.027471287 0.002388835 0.74461389
-0.027616585 0.0012007356 0.7454865
-0.027768157 -0 0.7463969
-0.02792551 -0.0012141168 0.74734181
-0.028090883 -0.0024426877 0.74833506
-0.028265584 -0.0036867857 0.74938428
-0.028450161 -0.0049478412 0.75049281
-0.028649157 -0.0062280893 0.75168794
-0.028861916 -0.0075291991 0.75296569
-0.029096533 -0.0088554025 0.75437474
-0.029363962 -0.010213494 0.75598091
-0.029680973 -0.011614293 0.75788474
-0.030114815 -0.013093382 0.7604903
-0.024099359 0.049294144 0.73094177
-0.024025379 0.048050761 0.73047721
-0.023981877 0.046873689 0.73020411
-0.023850916 0.045533568 0.7293818
-0.023689343 0.044148356 0.72836733
-0.023532735 0.042786807 0.72738409
-0.023380024 0.041446447 0.72642517
-0.023232827 0.040129483 0.72550094
-0.023099456 0.038849115 0.72466356
-0.023049572 0.037717521 0.72435033
-0.023071272 0.036704302 0.72448665
-0.023133924 0.035752445 0.72487998
-0.023203908 0.034805894 0.72531939
-0.023274397 0.03385371 0.72576195
-0.023345236 0.032895565 0.72620678
-0.02341768 0.031933218 0.72666162
-0.023491671 0.030966312 0.72712618
-0.023566132 0.029993296 0.72759372
-0.023641067 0.029014051 0.72806424
-0.02371682 0.028028965 0.72853988
-0.023795055 0.027039856 0.72903109
-0.023873979 0.026044399 0.72952664
-0.023953428 0.025042206 0.73002553
-0.024033586 0.024033606 0.73052877
-0.024116505 0.023020327 0.73104936
-0.024200443 0.022000432 0.73157644
-0.02428497 0.020973384 0.73210716
-0.02437027 0.019939333 0.73264271
-0.024459006 0.018900156 0.73319989
-0.024548482 0.017853439 0.73376161
-0.024638616 0.016799062 0.73432755
-0.024730626 0.015737712 0.7349053
-0.024825497 0.014669657 0.73550099
-0.024921287 0.013593435 0.7361024
-0.025018295 0.012509167 0.7367115
-0.025118668 0.011417598 0.7373417
-0.025220625 0.010317564 0.73798186
-0.025323905 0.0092087388 0.73863029
-0.025430998 0.008091718 0.73930281
-0.025540097 0.006965518 0.73998773
-0.025650136 0.0058296025 0.74067867
-0.025765086 0.0046845376 0.74140042
-0.025882401 0.0035293996 0.74213707
-0.026002025 0.0023638308 0.74288809
-0.026126834 0.0011875927 0.74367177
-0.026254002 -2.9802322e-08 0.74447024
-0.02638614 -0.0011993647 0.74529988
-0.026522623 -0.0024111569 0.74615681
-0.02666368 -0.0036359429 0.74704248
-0.026811184 -0.0048747361 0.74796861
-0.026964221 -0.0061282218 0.74892956
-0.027125083 -0.0073977113 0.74993956
-0.027294595 -0.0086846352 0.75100386
-0.027474774 -0.0099908113 0.75213516
-0.02766799 -0.011318684 0.75334829
-0.027875222 -0.012670577 0.75464952
-0.028104158 -0.014052093 0.75608695
-0.028365143 -0.015471876 0.7577256
-0.028674938 -0.016944259 0.75967067
-0.029099628 -0.018517911 0.76233727
-0.022854095 0.048973083 0.72995615
-0.022809023 0.047790349 0.72965968
-0.022766868 0.046617866 0.7293824
-0.022632631 0.045265287 0.72849941
-0.022486035 0.043901354 0.72753513
-0.022343483 0.042559028 0.72659743
-0.022204386 0.041236758 0.7256825
-0.022068569 0.039933592 0.72478914
-0.021950131 0.038674057 0.72401005
-0.021918777 0.037575066 0.72380382
-0.021948125 0.036580205 0.72399688
-0.022010317 0.035635769 0.72440588
-0.022074731 0.03468889 0.72482967
-0.022139525 0.033736408 0.72525591
-0.022204701 0.032778412 0.72568458
-0.022271773 0.03181681 0.72612578
-0.022339726 0.030850083 0.72657275
-0.022408098 0.029877484 0.72702247
-0.022476889 0.028898895 0.72747493
-0.022546431 0.027914613 0.72793245
-0.022618286 0.026926547 0.728405
-0.022690602 0.025932133 0.7288807
-0.022763381 0.024931341 0.72935939
-0.022836545 0.023924053 0.7298407
-0.022912029 0.022912025 0.73033726
-0.022988694 0.021894008 0.73084152
-0.023065871 0.020869166 0.73134911
-0.023143569 0.01983735 0.73186022
-0.023223346 0.018799871 0.73238492
-0.023304891 0.017756134 0.73292136
-0.023387013 0.016705006 0.7334615
-0.023469802 0.015646577 0.73400605
-0.023555225 0.014581829 0.734568
-0.023642164 0.01350981 0.73513985
-0.023729749 0.012429863 0.73571599
-0.023818621 0.011342227 0.73630059
-0.02391045 0.01024735 0.73690456
-0.02400345 0.009144187 0.73751628
-0.024097456 0.0080325305 0.73813462
-0.024194449 0.0069127381 0.73877263
-0.024293644 0.0057842135 0.73942512
-0.024393847 0.0046464503 0.74008423
-0.024497185 0.0034996271 0.74076396
-0.024603343 0.0023431778 0.74146223
-0.024710227 0.0011766851 0.74216527
-0.024821201 2.9802322e-08 0.74289525
-0.024935167 -0.0011873543 0.74364489
-0.02505119 -0.0023857951 0.74440807
-0.025171949 -0.0035960078 0.74520242
-0.025295516 -0.0048182011 0.74601519
-0.025423305 -0.0060531497 0.7468558
-0.025556155 -0.0073017478 0.7477296
-0.025692726 -0.0085642338 0.74862796
-0.025836 -0.0098422468 0.74957031
-0.025984555 -0.011136204 0.75054753
-0.026140628 -0.012447894 0.75157416
-0.026304901 -0.013778716 0.75265467
-0.02648023 -0.015131533 0.75380796
-0.026667928 -0.016508728 0.75504261
-0.026869399 -0.017912924 0.7563678
-0.027092144 -0.019351512 0.75783294
-0.027346244 -0.020835221 0.75950432
-0.027648292 -0.022381932 0.76149118
-0.028065136 -0.024055809 0.76423311
-0.021657938 0.048730403 0.72921115
-0.021624789 0.04757455 0.72898215
-0.021573493 0.046383023 0.72862792
-0.02144121 0.045026571 0.72771424
-0.021308325 0.043682098 0.72679645
-0.021177076 0.042354196 0.72588992
-0.021049818 0.041047156 0.72501105
-0.020924302 0.039756209 0.72414416
-0.020828461 0.038532645 0.72348225
-0.020811407 0.037460566 0.72336447
-0.020841964 0.036473423 0.72357553
-0.020900995 0.03553167 0.72398317
-0.020960284 0.034584522 0.72439265
-0.021019915 0.033631891 0.72480452
-0.021080183 0.032674283 0.72522074
-0.021142224 0.031713396 0.72564924
-0.021204632 0.030746728 0.7260803
-0.021267487 0.029774517 0.7265144
-0.021330638 0.028796405 0.72695053
-0.021394704 0.027813137 0.72739309
-0.02146055 0.026825696 0.72784781
-0.021526802 0.025832176 0.72830534
-0.021593465 0.024832457 0.72876585
-0.02166062 0.023826689 0.72922969
-0.021729626 0.022816092 0.72970629
-0.021799708 0.021799713 0.73019028
-0.021870246 0.020776749 0.73067743
-0.021941241 0.019747108 0.73116779
-0.022013513 0.018711507 0.73166692
-0.02208774 0.017670214 0.73217964
-0.022162551 0.016621977 0.73269629
-0.022237871 0.015566558 0.73321652
-0.022314457 0.014504403 0.73374546
-0.022393344 0.013436019 0.7342903
-0.022472961 0.012360156 0.73484015
-0.02255323 0.011276633 0.7353946
-0.022635281 0.010185897 0.73596132
-0.022719493 0.009087801 0.73654294
-0.022804422 0.0079815686 0.73712945
-0.022890076 0.0068669915 0.73772109
-0.022978773 0.0057446957 0.73833364
-0.023069054 0.0046138465 0.73895723
-0.023160048 0.0034740269 0.7395857
-0.023253398 0.002325356 0.74023044
-0.023349522 0.001167506 0.74089432
-0.023446627 -0 0.74156499
-0.023546126 -0.0011772811 0.74225217
-0.023649108 -0.0023648739 0.74296349
-0.0237529 -0.0035629272 0.74368024
-0.023859903 -0.0047719479 0.74441934
-0.023970192 -0.0059925616 0.74518102
-0.024082482 -0.0072247386 0.7459566
-0.024199177 -0.0084697008 0.74676251
-0.024318893 -0.0097275376 0.74758941
-0.024442313 -0.010999054 0.74844187
-0.024571255 -0.01228562 0.74933237
-0.024703104 -0.01358667 0.75024301
-0.024842078 -0.014905244 0.75120288
-0.024985986 -0.016240865 0.75219673
-0.025137199 -0.017596006 0.75324106
-0.02529606 -0.018972039 0.75433832
-0.025466425 -0.020373136 0.75551498
-0.025648167 -0.021800935 0.75677025
-0.025843635 -0.023259223 0.75812018
-0.026059903 -0.024756879 0.75961393
-0.026306786 -0.026306748 0.76131904
-0.026600795 -0.027930826 0.76334965
-0.02700907 -0.029709965 0.76616943
-0.02049036 0.048529804 0.7285955
-0.020458458 0.047377467 0.72836351
-0.020397825 0.046163559 0.72792274
-0.020274358 0.04481703 0.72702509
-0.020151729 0.043485314 0.72613358
-0.020031283 0.04217115 0.72525787
-0.019913604 0.040875316 0.72440237
-0.019797575 0.039595157 0.72355884
-0.019720536 0.038403183 0.72299874
-0.019710975 0.037347108 0.72292924
-0.0197499 0.036381423 0.72321224
-0.019804168 0.035439074 0.72360677
-0.019858735 0.034491509 0.72400349
-0.019913604 0.033538729 0.72440237
-0.019969765 0.032582283 0.72481066
-0.020026742 0.031621158 0.72522491
-0.020084042 0.030654609 0.72564149
-0.020141743 0.029682577 0.72606099
-0.020199707 0.028704852 0.72648239
-0.020259093 0.027722985 0.72691417
-0.020319413 0.026736081 0.72735274
-0.020380095 0.025743306 0.72779381
-0.020441141 0.02474457 0.72823763
-0.020502774 0.023740053 0.72868574
-0.020565905 0.022730768 0.72914469
-0.02063003 0.02171585 0.72961086
-0.020694477 0.020694494 0.73007941
-0.020759331 0.019666731 0.73055094
-0.020825358 0.018633217 0.73103094
-0.020893043 0.017594159 0.73152304
-0.020961246 0.016548395 0.73201889
-0.021029897 0.015495688 0.73251796
-0.021099236 0.014436334 0.73302203
-0.021170698 0.013370991 0.73354167
-0.021243045 0.012298644 0.73406768
-0.021315889 0.011218905 0.73459721
-0.021389639 0.010131955 0.73513341
-0.021465369 0.0090380609 0.73568392
-0.021542376 0.0079366863 0.73624378
-0.021619938 0.0068273544 0.73680764
-0.021698726 0.0057102144 0.7373805
-0.021780021 0.0045852661 0.73797154
-0.021862183 0.0034519434 0.73856884
-0.021944966 0.0023100078 0.73917067
-0.022030182 0.0011594892 0.7397902
-0.022117272 -0 0.74042338
-0.022205319 -0.0011686981 0.74106354
-0.022295298 -0.0023468137 0.7417177
-0.022387875 -0.0035349131 0.74239075
-0.022481758 -0.0047329664 0.74307323
-0.022577425 -0.0059414208 0.74376881
-0.022677004 -0.0071611702 0.74449271
-0.022777466 -0.0083917081 0.7452231
-0.022880582 -0.0096339285 0.74597275
-0.022986973 -0.010888547 0.74674624
-0.023095395 -0.012155443 0.74753451
-0.023207799 -0.013436079 0.74835163
-0.023323711 -0.014730752 0.74919432
-0.023442635 -0.01603967 0.75005889
-0.023567395 -0.017365426 0.75096595
-0.023694582 -0.018706232 0.75189066
-0.023828978 -0.02006647 0.75286776
-0.023968058 -0.021445096 0.75387883
-0.024114018 -0.022844821 0.75494003
-0.02426802 -0.024268001 0.75605965
-0.024432451 -0.025718331 0.75725508
-0.02460812 -0.027198434 0.75853223
-0.024797432 -0.028712779 0.75990856
-0.025006929 -0.03027153 0.76143163
-0.025246255 -0.031890005 0.76317155
-0.025531551 -0.033594131 0.76524568
-0.025930496 -0.035483837 0.76814604
-0.019469459 0.049755305 0.72903705
-0.01934262 0.048356593 0.72806364
-0.019312961 0.047209471 0.72783607
-0.019241253 0.045965225 0.72728574
-0.019126445 0.044628412 0.72640473
-0.019013403 0.043308347 0.72553724
-0.018902825 0.042006284 0.72468865
-0.018793855 0.040720016 0.72385246
-0.01868633 0.039448977 0.72302729
-0.018629625 0.038294256 0.72259206
-0.018629234 0.037258506 0.72258908
-0.018668542 0.036299944 0.72289079
-0.018718347 0.035356879 0.72327304
-0.018768486 0.034408927 0.72365773
-0.01881936 0.033456683 0.72404814
-0.018871373 0.032500744 0.72444725
-0.018923674 0.03153947 0.72484869
-0.018976266 0.030572861 0.72525227
-0.019029152 0.029600948 0.72565806
-0.019082537 0.028623819 0.72606778
-0.019137386 0.027642906 0.72648865
-0.019192688 0.026656508 0.72691309
-0.01924824 0.02566433 0.72733939
-0.019304117 0.024666399 0.72776818
-0.019360669 0.023663044 0.72820216
-0.01941875 0.022655219 0.72864789
-0.019477252 0.021641403 0.72909683
-0.019536106 0.020621449 0.72954851
-0.019595319 0.019595325 0.73000294
-0.019655611 0.018563628 0.73046559
-0.019717367 0.017526597 0.73093951
-0.019779513 0.016482949 0.7314164
-0.019842124 0.015432775 0.73189688
-0.019905206 0.014376014 0.73238099
-0.01997018 0.013313442 0.73287964
-0.020035958 0.012244225 0.73338437
-0.020102168 0.011167854 0.7338925
-0.020168817 0.010084391 0.73440397
-0.020237211 0.0089943409 0.73492885
-0.020306839 0.0078971088 0.73546314
-0.020377103 0.0067923963 0.73600233
-0.020448091 0.0056800246 0.73654711
-0.020520518 0.0045601428 0.73710287
-0.020594807 0.0034324825 0.73767304
-0.020669635 0.0022966266 0.73824728
-0.020745413 0.0011525154 0.73882878
-0.020823367 -0 0.73942703
-0.020902563 -0.0011612475 0.74003476
-0.020982444 -0.0023313463 0.74064773
-0.021064183 -0.003510654 0.74127495
-0.021147897 -0.0046995282 0.74191749
-0.021232869 -0.0058979988 0.74256951
-0.021319376 -0.0071064532 0.74323332
-0.021408217 -0.008325398 0.74391508
-0.021498837 -0.009555012 0.74461055
-0.021591097 -0.010795534 0.74531859
-0.021686615 -0.012048095 0.74605161
-0.021783512 -0.013312161 0.74679518
-0.02188253 -0.014588326 0.74755508
-0.021984894 -0.015877932 0.74834061
-0.02208931 -0.017180562 0.74914193
-0.022197669 -0.018498033 0.74997348
-0.022309326 -0.019830495 0.75083029
-0.022424087 -0.021178305 0.75171101
-0.022543924 -0.022543937 0.75263059
-0.02266649 -0.023925722 0.75357121
-0.022796025 -0.025328904 0.75456524
-0.022930093 -0.026751786 0.75559413
-0.023070619 -0.028197408 0.7566725
-0.02321942 -0.029669255 0.75781441
-0.02337781 -0.031170398 0.75902992
-0.023547072 -0.032704234 0.76032883
-0.023730053 -0.034276724 0.76173306
-0.023932366 -0.035898507 0.76328558
-0.024163764 -0.03758803 0.76506132
-0.024440117 -0.039375722 0.76718211
-0.02482882 -0.041381329 0.77016497
-0.018256485 0.049399912 0.72796988
-0.018211309 0.048206419 0.72760278
-0.018183472 0.047063112 0.72737658
-0.018101765 0.045786858 0.7267127
-0.017995838 0.044460356 0.72585201
-0.017891839 0.043150932 0.72500694
-0.017789287 0.041857153 0.72417367
-0.017688397 0.040579319 0.72335386
-0.017592197 0.039323747 0.72257221
-0.017547442 0.038191527 0.72220856
-0.017557068 0.037179649 0.72228682
-0.017596481 0.036228061 0.72260708
-0.017642226 0.03528446 0.72297871
-0.017688397 0.034336329 0.72335386
-0.017735744 0.033384949 0.72373861
-0.017783403 0.032428592 0.7241258
-0.017831324 0.03146708 0.7245152
-0.017879438 0.030500233 0.72490615
-0.017927876 0.02952826 0.72529978
-0.017977536 0.028552592 0.72570324
-0.018027794 0.027571917 0.72611165
-0.018078335 0.026585817 0.72652233
-0.018129157 0.025594085 0.72693527
-0.018180268 0.02459684 0.72735053
-0.018232454 0.023594975 0.72777462
-0.018285539 0.022588044 0.72820592
-0.018338932 0.021575212 0.72863978
-0.018392706 0.020556539 0.72907674
-0.018446727 0.019531876 0.72951561
-0.018502017 0.018502027 0.72996491
-0.018558253 0.017466605 0.73042184
-0.018614827 0.016424894 0.73088157
-0.01867182 0.015376836 0.73134464
-0.018729441 0.014322519 0.73181283
-0.018788394 0.013262421 0.73229182
-0.018848142 0.012195885 0.73277736
-0.01890827 0.011122525 0.73326588
-0.018968927 0.010042369 0.73375881
-0.019030688 0.0089556277 0.73426068
-0.019093936 0.0078622401 0.73477453
-0.019157605 0.0067615211 0.73529184
-0.019221703 0.0056534708 0.73581272
-0.019286962 0.0045381188 0.73634303
-0.019353632 0.0034153461 0.73688465
-0.019421212 0.0022848547 0.73743379
-0.019489266 0.0011464655 0.7379868
-0.019558705 2.9802322e-08 0.73855102
-0.019629786 -0.0011546314 0.73912859
-0.019701768 -0.0023178458 0.73971343
-0.01977459 -0.0034895837 0.74030513
-0.019849041 -0.0046703517 0.74091005
-0.019925155 -0.0058603287 0.74152857
-0.020002013 -0.0070595443 0.74215305
-0.020080106 -0.0082682669 0.7427876
-0.020160258 -0.0094871819 0.7434389
-0.020242022 -0.010716319 0.74410331
-0.020325189 -0.011955947 0.74477899
-0.020410031 -0.013206482 0.74546844
-0.020497248 -0.01446861 0.74617714
-0.020585965 -0.015742183 0.74689794
-0.020677231 -0.017028302 0.74763954
-0.020770505 -0.018326938 0.74839741
-0.02086531 -0.019637942 0.7491678
-0.020963769 -0.020963728 0.74996781
-0.021064037 -0.022303075 0.75078249
-0.021168195 -0.023658544 0.75162882
-0.021275086 -0.02502948 0.75249743
-0.021385688 -0.026417583 0.75339603
-0.021500463 -0.027824134 0.75432867
-0.021618417 -0.029248446 0.75528711
-0.021742627 -0.030695438 0.75629634
-0.021871394 -0.032163799 0.7573427
-0.022006387 -0.033656806 0.75843954
-0.022149751 -0.035178989 0.75960445
-0.022301881 -0.036732495 0.76084059
-0.022464596 -0.038321912 0.76216269
-0.022640748 -0.039954245 0.76359397
-0.022835661 -0.041641474 0.76517779
-0.023058856 -0.043404907 0.76699138
-0.023325782 -0.045279443 0.76916027
-0.023703292 -0.047406554 0.7722277
-0.017124571 0.049233139 0.72746909
-0.017094487 0.048078269 0.72720933
-0.017063409 0.046924382 0.72694105
-0.016977627 0.045627385 0.72620046
-0.016880117 0.044310331 0.72535872
-0.01678402 0.043009073 0.72452903
-0.01668901 0.041722536 0.72370875
-0.016595474 0.040451467 0.72290123
-0.016510768 0.039213091 0.72217
-0.016480688 0.038111657 0.72191024
-0.01649417 0.037111938 0.72202665
-0.016532797 0.036165506 0.72236019
-0.016574837 0.035221517 0.72272307
-0.016617903 0.034274429 0.72309488
-0.016661193 0.033322394 0.72346866
-0.016704712 0.032365382 0.72384429
-0.016748516 0.031403512 0.72422248
-0.016792491 0.030436426 0.72460216
-0.016837353 0.029465407 0.72498941
-0.016882993 0.028490067 0.72538352
-0.016928824 0.027509391 0.72577912
-0.016974963 0.026523381 0.72617751
-0.017021352 0.025532037 0.726578
-0.017068122 0.024535477 0.72698176
-0.017116256 0.023534864 0.72739732
-0.017164662 0.022528648 0.72781521
-0.017213343 0.021516711 0.72823548
-0.017262302 0.020498991 0.7286582
-0.017311664 0.019475669 0.72908437
-0.017362323 0.018447459 0.72952169
-0.017413536 0.017413557 0.72996384
-0.017464988 0.016373426 0.73040807
-0.017516743 0.015327156 0.73085481
-0.017569326 0.014275104 0.73130882
-0.017622942 0.013217241 0.73177171
-0.017677151 0.012153089 0.73223966
-0.017731693 0.011082351 0.7327106
-0.017786639 0.010005027 0.73318493
-0.017842663 0.008921355 0.73366857
-0.017899917 0.0078312457 0.73416287
-0.017957538 0.006734103 0.73466033
-0.018015534 0.0056298971 0.73516101
-0.018074177 0.0045185685 0.73566735
-0.018134726 0.0034002662 0.73619008
-0.018195681 0.0022744834 0.73671627
-0.018257117 0.0011411011 0.73724669
-0.018319251 2.9802322e-08 0.73778307
-0.018382948 -0.0011489093 0.73833305
-0.01844766 -0.0023059249 0.73889172
-0.018512901 -0.0034711659 0.73945493
-0.018579258 -0.0046447814 0.74002784
-0.018646896 -0.0058271587 0.74061179
-0.018715838 -0.0070184171 0.741207
-0.018785588 -0.0082186759 0.74180925
-0.018856384 -0.0094281733 0.74242038
-0.018929372 -0.010647744 0.74305046
-0.019003002 -0.011876881 0.7436862
-0.019077515 -0.013115793 0.74432945
-0.019154387 -0.014365762 0.74499315
-0.019232502 -0.015626371 0.74566752
-0.019311883 -0.016897887 0.74635285
-0.019393031 -0.018180937 0.74705338
-0.019476457 -0.019476444 0.74777365
-0.019561408 -0.020783961 0.74850708
-0.019648401 -0.022104442 0.7492581
-0.01973789 -0.023438722 0.75003064
-0.019828364 -0.024785429 0.75081182
-0.019922839 -0.026148736 0.75162745
-0.02001881 -0.027525842 0.75245595
-0.020118516 -0.028920352 0.75331676
-0.020220682 -0.030331016 0.75419879
-0.020326668 -0.031760395 0.75511378
-0.020436315 -0.033208996 0.75606036
-0.020549549 -0.034677356 0.757038
-0.020668263 -0.03616944 0.75806284
-0.020791443 -0.0376845 0.75912637
-0.020920793 -0.039226472 0.76024306
-0.021058375 -0.040800571 0.7614308
-0.021204013 -0.042408019 0.76268816
-0.021359924 -0.044054836 0.76403415
-0.021529047 -0.045749247 0.76549429
-0.021716122 -0.047504008 0.76710933
-0.021931518 -0.049345881 0.76896894
-0.016010437 0.04909867 0.72706538
-0.015987486 0.047962457 0.72685397
-0.015955351 0.046802372 0.72655803
-0.015867554 0.045486987 0.72574949
-0.015777482 0.044176966 0.72492003
-0.015688481 0.042881906 0.72410047
-0.015600422 0.041601151 0.72328955
-0.015513672 0.040335566 0.72249073
-0.015441126 0.039117515 0.72182262
-0.015423776 0.038045287 0.72166282
-0.015439096 0.037053853 0.7218039
-0.015476536 0.036111921 0.72214872
-0.015515615 0.035168737 0.72250855
-0.015554893 0.034220815 0.72287029
-0.015594369 0.033268005 0.72323382
-0.015634049 0.032310396 0.72359914
-0.015673982 0.03134799 0.72396702
-0.015714565 0.030381501 0.72434068
-0.01575586 0.029410958 0.72472095
-0.015797371 0.02843529 0.72510326
-0.015839158 0.027454555 0.72548807
-0.01588111 0.026468515 0.72587436
-0.015923344 0.02547738 0.72626328
-0.015966658 0.02448222 0.72666216
-0.016010437 0.023481995 0.72706532
-0.016054459 0.022476256 0.72747076
-0.016098665 0.021464914 0.7278778
-0.016143173 0.020448029 0.7282877
-0.016188575 0.019426316 0.72870576
-0.016234765 0.018399417 0.72913104
-0.016281217 0.017366648 0.72955889
-0.016327938 0.016327918 0.72998917
-0.016374927 0.015283257 0.73042184
-0.016422732 0.014233023 0.73086208
-0.016471548 0.013177246 0.73131156
-0.016520653 0.012115151 0.73176384
-0.016570112 0.011046767 0.73221928
-0.016619807 0.0099718869 0.73267692
-0.016670737 0.0088910758 0.73314589
-0.016722418 0.0078038275 0.73362184
-0.016774483 0.0067098439 0.7341013
-0.016826874 0.0056089759 0.73458374
-0.016880168 0.0045014024 0.73507452
-0.016934315 0.0033868849 0.73557317
-0.016989326 0.0022652447 0.73607981
-0.017044762 0.0011363328 0.73659027
-0.017100761 -0 0.73710597
-0.017157916 -0.0011438429 0.73763227
-0.017216055 -0.0022954941 0.7381677
-0.017274722 -0.0034549236 0.7387079
-0.017333791 -0.0046223104 0.73925185
-0.017394487 -0.0057981312 0.73981082
-0.017455949 -0.0069823563 0.74037683
-0.017518261 -0.0081751943 0.7409507
-0.017581504 -0.0093767941 0.7415331
-0.017645624 -0.010587335 0.74212348
-0.01771134 -0.011807531 0.74272865
-0.01777797 -0.013037175 0.74334228
-0.01784532 -0.014276236 0.74396247
-0.017914617 -0.015525997 0.74460065
-0.017984893 -0.01678592 0.74524784
-0.018055867 -0.018055856 0.74590141
-0.018129172 -0.019337773 0.74657643
-0.018203445 -0.020630538 0.74726039
-0.018279156 -0.021934956 0.74795759
-0.018356629 -0.023251712 0.74867105
-0.018435907 -0.024581224 0.74940109
-0.018517099 -0.025923938 0.75014883
-0.018599631 -0.027279466 0.75090885
-0.018685173 -0.028650582 0.75169659
-0.018771663 -0.030034631 0.75249302
-0.018861428 -0.031435698 0.75331974
-0.018952942 -0.032851756 0.75416243
-0.019048031 -0.03428641 0.75503808
-0.019145232 -0.035737753 0.75593317
-0.019246584 -0.037210047 0.75686651
-0.019350776 -0.038701534 0.75782597
-0.019459073 -0.040215373 0.75882328
-0.01957228 -0.041754156 0.75986576
-0.019689595 -0.04331708 0.76094615
-0.019813249 -0.044910014 0.76208484
-0.01994453 -0.046537191 0.7632938
-0.020083528 -0.048200458 0.76457381
-0.020232271 -0.049906284 0.76594353
-0.014914812 0.049005836 0.72678649
-0.014892459 0.047868639 0.72656596
-0.014852562 0.046679497 0.72617221
-0.014769371 0.045363069 0.72535145
-0.014686069 0.044058233 0.7245295
-0.014603703 0.042768031 0.72371686
-0.014522254 0.041492164 0.72291327
-0.014441861 0.04023093 0.72212005
-0.014382295 0.039037704 0.72153234
-0.014370929 0.037980318 0.72142017
-0.014392189 0.037008524 0.72162998
-0.014427499 0.036068767 0.72197831
-0.01446298 0.035124391 0.72232842
-0.014498689 0.034175485 0.72268075
-0.014534523 0.033221781 0.72303432
-0.014570535 0.032263368 0.72338963
-0.014607186 0.031301141 0.72375125
-0.014644487 0.030335039 0.72411931
-0.014681978 0.02936396 0.72448915
-0.014719661 0.028387964 0.72486097
-0.01475754 0.027406871 0.72523469
-0.014795666 0.026420832 0.72561085
-0.014834623 0.025430799 0.7259953
-0.01487405 0.024435937 0.72638428
-0.014913743 0.023435891 0.72677594
-0.014953595 0.02243042 0.7271691
-0.014993658 0.021419525 0.72756439
-0.015034319 0.020403743 0.72796559
-0.015075746 0.019383132 0.7283743
-0.01511751 0.018356979 0.72878635
-0.015159564 0.017325252 0.72920132
-0.015201852 0.016287684 0.72961855
-0.015244599 0.015244603 0.73004031
-0.015288204 0.014196187 0.73047054
-0.015332342 0.01314202 0.73090607
-0.015376679 0.012081683 0.73134351
-0.015421388 0.011015266 0.73178464
-0.015466415 0.0099426806 0.73222888
-0.015512514 0.0088643432 0.73268378
-0.01555918 0.007779628 0.73314416
-0.015606127 0.0066883862 0.73360741
-0.015653359 0.0055904686 0.73407346
-0.015701409 0.0044861436 0.73454756
-0.015750175 0.0033750534 0.73502862
-0.015799662 0.0022571087 0.73551691
-0.015849521 0.0011321306 0.73600888
-0.015899941 2.9802322e-08 0.73650634
-0.015950987 -0.0011393428 0.73701
-0.016003285 -0.002286166 0.73752606
-0.016055925 -0.0034405291 0.73804539
-0.016109101 -0.0046026111 0.73857009
-0.016162943 -0.0057724714 0.73910135
-0.016218223 -0.0069506764 0.73964673
-0.016273942 -0.0081369579 0.74019647
-0.016330114 -0.0093314648 0.74075073
-0.016387381 -0.010534734 0.74131572
-0.016445637 -0.011746854 0.74189055
-0.01650483 -0.012968034 0.74247456
-0.016564718 -0.014198333 0.74306548
-0.016625702 -0.015438139 0.74366713
-0.016687876 -0.01668787 0.74428058
-0.01675112 -0.017947584 0.74490464
-0.016815117 -0.019217253 0.74553603
-0.016880564 -0.020497829 0.74618185
-0.01694742 -0.021789521 0.74684143
-0.017014878 -0.023091555 0.74750698
-0.017084066 -0.024405807 0.74818969
-0.017154595 -0.025731832 0.74888557
-0.017226351 -0.027069956 0.74959356
-0.017300148 -0.02842164 0.75032169
-0.017375013 -0.029785722 0.75106037
-0.017452214 -0.031164646 0.75182211
-0.017530473 -0.032556564 0.75259423
-0.017611669 -0.033965349 0.75339532
-0.017693922 -0.035387844 0.7542069
-0.017778998 -0.036827892 0.75504625
-0.017865816 -0.038283885 0.75590289
-0.017956041 -0.039759755 0.75679314
-0.018048277 -0.041253179 0.75770319
-0.018144626 -0.042769462 0.75865388
-0.01824329 -0.044305116 0.75962734
-0.018346509 -0.045866281 0.76064575
-0.018453844 -0.047452718 0.7617048
-0.018565176 -0.049065113 0.76280332
-0.018689094 -0.050727516 0.76402593
-0.013826388 0.048924178 0.72654122
-0.013805947 0.047789842 0.72632402
-0.013759074 0.046569198 0.72582597
-0.013681268 0.045253456 0.72499919
-0.013604385 0.043952644 0.72418231
-0.013528362 0.042666376 0.72337449
-0.013453184 0.041394413 0.72257572
-0.013378882 0.040136665 0.7217862
-0.013335044 0.038979381 0.72132039
-0.013328929 0.037936181 0.72125542
-0.013351806 0.036974251 0.72149849
-0.013383745 0.036033213 0.72183788
-0.013415883 0.035087734 0.72217935
-0.013448129 0.034137577 0.72252202
-0.013480531 0.033182889 0.7228663
-0.013513703 0.032225013 0.7232188
-0.013547229 0.031262875 0.72357494
-0.01358097 0.030296028 0.72393346
-0.01361483 0.029324263 0.72429329
-0.013648859 0.028347641 0.72465485
-0.01368306 0.027366132 0.72501826
-0.013718065 0.026380897 0.7253902
-0.013753494 0.025391102 0.72576666
-0.013789106 0.024396151 0.72614503
-0.013824904 0.023396015 0.72652543
-0.013860888 0.022390723 0.72690779
-0.01389716 0.021380275 0.72729319
-0.013934325 0.020365596 0.72768807
-0.01397184 0.019345611 0.72808677
-0.014009508 0.018320113 0.72848701
-0.01404738 0.017289072 0.72888941
-0.014085456 0.016252458 0.729294
-0.014124308 0.015210778 0.72970676
-0.014163788 0.014163762 0.73012626
-0.014203544 0.013110995 0.73054868
-0.01424347 0.012052178 0.73097295
-0.014283779 0.01098752 0.73140126
-0.014324476 0.009916991 0.7318337
-0.014366207 0.0088407695 0.7322771
-0.01440818 0.0077582896 0.73272312
-0.014450402 0.0066694617 0.7331717
-0.014492925 0.0055742264 0.73362356
-0.014536081 0.0044726431 0.73408216
-0.014580101 0.0033646822 0.73454988
-0.014624443 0.0022499263 0.735021
-0.014669166 0.0011284351 0.73549622
-0.014714277 -0 0.73597556
-0.014760286 -0.0011353791 0.73646438
-0.014806923 -0.0022779703 0.73695993
-0.014854026 -0.0034278035 0.73746049
-0.014901546 -0.0045850575 0.73796546
-0.014949833 -0.0057498813 0.73847848
-0.014998899 -0.006922543 0.73899984
-0.015048699 -0.0081031621 0.73952901
-0.015098948 -0.0092916489 0.74006289
-0.015149653 -0.010488182 0.74060172
-0.015201597 -0.011693478 0.7411536
-0.015254258 -0.012907416 0.74171317
-0.015307406 -0.014129877 0.74227792
-0.015361233 -0.01536119 0.74284989
-0.015416297 -0.016602159 0.74343497
-0.01547207 -0.017852396 0.74402761
-0.015528559 -0.019112051 0.74462783
-0.015586278 -0.020382017 0.74524111
-0.015644617 -0.021661788 0.74586105
-0.015704418 -0.022952586 0.74649644
-0.015765062 -0.024253935 0.74714077
-0.015826436 -0.025565773 0.74779296
-0.015889725 -0.026890308 0.74846542
-0.01595352 -0.028225452 0.7491433
-0.016018696 -0.029572994 0.74983585
-0.01608541 -0.03093344 0.75054467
-0.016153155 -0.032306314 0.75126445
-0.016222695 -0.033693284 0.75200337
-0.016293181 -0.03509298 0.75275236
-0.016366223 -0.036509246 0.75352848
-0.016440341 -0.037939221 0.75431603
-0.016516687 -0.039385915 0.75512725
-0.0165946 -0.040848225 0.7559551
-0.016674759 -0.042328209 0.75680685
-0.016757008 -0.043826014 0.75768077
-0.01684205 -0.045343965 0.75858444
-0.016929295 -0.04688108 0.75951147
-0.017020218 -0.048442155 0.76047754
-0.017113263 -0.050023347 0.76146615
-0.017294692 -0.051884085 0.76339406
-0.012781835 0.05006218 0.72676015
-0.012747548 0.048865616 0.72636539
-0.012726818 0.047725588 0.72612673
-0.012673577 0.046469808 0.72551388
-0.012602017 0.045157224 0.7246902
-0.012531261 0.043859422 0.7238757
-0.012461338 0.042576253 0.72307086
-0.012392364 0.041307867 0.72227687
-0.012325043 0.040056407 0.72150189
-0.012290957 0.038921356 0.72110957
-0.012292227 0.037901044 0.72112417
-0.012315855 0.036947608 0.72139621
-0.012344611 0.036005139 0.72172713
-0.012373502 0.03505826 0.72205973
-0.012402614 0.034107208 0.72239482
-0.012432426 0.033153147 0.72273803
-0.012462426 0.032194585 0.72308338
-0.012492615 0.031231552 0.72343087
-0.012522906 0.030263722 0.72377956
-0.012553344 0.029291153 0.72412992
-0.012583932 0.028313875 0.724482
-0.012615336 0.02733326 0.72484356
-0.012647033 0.026347995 0.7252084
-0.012678845 0.025357693 0.72557461
-0.012710817 0.024362385 0.72594261
-0.012742951 0.0233621 0.72631246
-0.012775292 0.022356808 0.72668481
-0.012808488 0.021347493 0.72706693
-0.012841949 0.020333111 0.72745204
-0.012875587 0.019313425 0.72783923
-0.0129094 0.018288314 0.72822857
-0.012943392 0.017257869 0.72861975
-0.012977846 0.016222328 0.72901642
-0.013013006 0.015181839 0.72942114
-0.013048405 0.014135778 0.7298286
-0.013083996 0.013084024 0.73023826
-0.013119832 0.012026519 0.73065078
-0.013156057 0.01096338 0.73106778
-0.013192825 0.0098946393 0.73149103
-0.013230142 0.0088201165 0.7319206
-0.01326772 0.0077395141 0.73235315
-0.013305512 0.0066527724 0.73278821
-0.013343721 0.0055598915 0.73322797
-0.013382449 0.0044608712 0.73367375
-0.013421908 0.0033554733 0.734128
-0.0134616 0.0022436082 0.73458493
-0.01350158 0.0011251569 0.73504508
-0.013541796 2.9802322e-08 0.73550808
-0.013582977 -0.0011318922 0.73598212
-0.01362467 -0.002270788 0.73646206
-0.013666672 -0.0034166574 0.73694551
-0.013708933 -0.0045696497 0.737432
-0.013751986 -0.0057299733 0.73792756
-0.013795578 -0.0068977773 0.73842937
-0.013839875 -0.0080732405 0.73893929
-0.01388446 -0.0092562735 0.73945248
-0.01392982 -0.010447353 0.73997468
-0.013975533 -0.011646271 0.74050081
-0.014022373 -0.012853831 0.74103999
-0.014069528 -0.014069527 0.74158287
-0.014117226 -0.015293628 0.74213183
-0.014165697 -0.016526669 0.74268985
-0.014215238 -0.017769039 0.74326009
-0.014265127 -0.01902017 0.74383438
-0.014315483 -0.020280272 0.74441403
-0.014367236 -0.021550834 0.74500978
-0.014419481 -0.022830844 0.74561119
-0.014472518 -0.024120837 0.74622172
-0.014526657 -0.025421649 0.74684489
-0.01458144 -0.026732653 0.7474755
-0.014637418 -0.028055072 0.74811983
-0.014694434 -0.029388875 0.74877614
-0.014751956 -0.030733198 0.74943829
-0.014811281 -0.032091081 0.75012124
-0.014871273 -0.033460349 0.75081176
-0.014932252 -0.034841895 0.75151366
-0.014995119 -0.036238194 0.75223738
-0.015058517 -0.037646294 0.75296718
-0.015123929 -0.0390701 0.75372005
-0.015190234 -0.040507257 0.75448334
-0.015258428 -0.041960686 0.75526834
-0.015328223 -0.043429971 0.75607175
-0.015399658 -0.044915676 0.75689405
-0.015473035 -0.046419084 0.75773871
-0.015548131 -0.047940046 0.7586031
-0.015625672 -0.049481302 0.75949574
-0.015705787 -0.051043808 0.76041788
-0.016054535 -0.053515106 0.76443231
-0.011693856 0.049964696 0.72647345
-0.01167191 0.048809826 0.7261979
-0.011652412 0.047668993 0.72595304
-0.011596154 0.046384662 0.72524655
-0.011530595 0.045074195 0.72442329
-0.011465771 0.04377839 0.72360933
-0.011401872 0.042497873 0.72280687
-0.011338759 0.041231871 0.72201437
-0.011280347 0.039994001 0.72128081
-0.011255547 0.038882822 0.72096932
-0.011260932 0.037877679 0.72103703
-0.011283694 0.036928475 0.72132283
-0.0113094 0.035984486 0.72164565
-0.01133542 0.035036802 0.72197241
-0.011361995 0.034086019 0.72230613
-0.011388694 0.033130765 0.72264135
-0.01141552 0.032171011 0.72297823
-0.011442471 0.031206787 0.72331673
-0.01146955 0.030237943 0.72365677
-0.01149688 0.029264808 0.72399986
-0.011524826 0.028288215 0.72435093
-0.011552991 0.027307063 0.7247045
-0.011581252 0.026321054 0.72505939
-0.011609653 0.025330156 0.72541612
-0.011638193 0.024334401 0.72577453
-0.011666956 0.023333937 0.72613567
-0.011696407 0.022329509 0.72650552
-0.011726132 0.021320254 0.72687876
-0.011755966 0.020305783 0.72725344
-0.011785952 0.019286096 0.72762996
-0.011816093 0.018261254 0.72800845
-0.011846558 0.017231345 0.72839105
-0.011877743 0.016196907 0.72878265
-0.011909091 0.015157044 0.72917628
-0.01194065 0.014111668 0.72957259
-0.011972375 0.013060808 0.72997099
-0.012004315 0.012004346 0.73037207
-0.012036867 0.010942638 0.73078084
-0.012069819 0.0098753273 0.73119462
-0.012103043 0.0088022351 0.73161179
-0.012136494 0.0077232122 0.73203188
-0.012170085 0.0066382289 0.7324537
-0.012204273 0.0055474043 0.73288304
-0.012238882 0.0044505298 0.73331761
-0.012273964 0.0033474565 0.73375821
-0.012309202 0.0022380352 0.73420072
-0.012344737 0.0011222959 0.73464692
-0.01238071 -0 0.73509866
-0.012417366 -0.0011288524 0.73555899
-0.012454429 -0.0022644103 0.73602432
-0.012491713 -0.0034068525 0.73649257
-0.01252927 -0.0045560896 0.73696417
-0.012567343 -0.0057124197 0.73744231
-0.012606182 -0.0068760812 0.73793
-0.012645311 -0.0080470145 0.73842138
-0.012684831 -0.0092253089 0.73891765
-0.012724698 -0.010411084 0.73941833
-0.012765414 -0.011604875 0.73992956
-0.012806542 -0.012806535 0.74044603
-0.012848238 -0.014016241 0.74096966
-0.012890359 -0.015234053 0.74149859
-0.012933065 -0.01646024 0.74203491
-0.012976414 -0.017695069 0.74257922
-0.013020469 -0.018938869 0.74313241
-0.013065086 -0.020191491 0.74369276
-0.013109957 -0.021452636 0.7442562
-0.013156089 -0.022724152 0.7448355
-0.013202706 -0.024004906 0.74542087
-0.013249764 -0.02529496 0.74601179
-0.013297806 -0.026595592 0.74661511
-0.013346579 -0.027906477 0.74722761
-0.013395931 -0.029227436 0.74784732
-0.013446367 -0.030559897 0.74848068
-0.013497518 -0.031903207 0.74912298
-0.013549454 -0.033257723 0.74977517
-0.013602695 -0.034625024 0.75044376
-0.013656471 -0.036003411 0.75111902
-0.013711477 -0.037394941 0.75180984
-0.013767623 -0.038799614 0.7525149
-0.013824291 -0.040216088 0.75322646
-0.013882899 -0.041648656 0.7539624
-0.013942184 -0.043094009 0.75470692
-0.014002937 -0.04455477 0.75546986
-0.014065009 -0.046030939 0.75624931
-0.014128303 -0.047522455 0.75704408
-0.014193585 -0.04903239 0.75786394
-0.01425991 -0.050557822 0.75869673
-0.014374387 -0.052270472 0.76013434
-0.01485708 -0.055376381 0.76619577
-0.010622008 0.04992345 0.72635233
-0.010604963 0.048782855 0.72611684
-0.010582435 0.047620982 0.72580564
-0.010525505 0.046312243 0.72501934
-0.010465832 0.045003116 0.724195
-0.010406833 0.043708712 0.72338003
-0.010348747 0.042429894 0.72257769
-0.010291305 0.041165203 0.72178423
-0.010241547 0.039942056 0.72109687
-0.010226018 0.038858861 0.72088242
-0.01023316 0.037862718 0.72098106
-0.010254649 0.036916733 0.72127783
-0.010277862 0.035972565 0.72159851
-0.010301323 0.035024524 0.72192258
-0.01032489 0.034072131 0.7222482
-0.01034853 0.033115298 0.72257471
-0.010372316 0.032154173 0.72290325
-0.01039621 0.031188667 0.72323328
-0.010420434 0.030219287 0.7235679
-0.010445102 0.0292463 0.72390866
-0.010469923 0.028268814 0.72425151
-0.010494862 0.027286679 0.72459602
-0.010519921 0.026299804 0.72494215
-0.010545099 0.025308281 0.72529
-0.010570548 0.024312258 0.72564149
-0.010596536 0.02331242 0.72600043
-0.01062269 0.022307664 0.72636169
-0.010648974 0.021297961 0.7267248
-0.010675387 0.020283222 0.72708964
-0.010701971 0.019263595 0.72745681
-0.010728804 0.018239021 0.72782755
-0.010756199 0.017209947 0.72820592
-0.010783813 0.016175747 0.72858739
-0.010811569 0.015136182 0.72897077
-0.010839468 0.014091313 0.72935617
-0.010867591 0.013041109 0.72974461
-0.010896021 0.01198566 0.73013735
-0.01092504 0.010925055 0.73053819
-0.010954254 0.0098588467 0.73094177
-0.010983626 0.0087869167 0.73134744
-0.011013156 0.007709235 0.73175538
-0.011042885 0.0066257715 0.73216599
-0.011073312 0.0055366755 0.73258632
-0.011104031 0.0044416487 0.73301065
-0.011135005 0.0033405125 0.73343849
-0.01116611 0.0022332668 0.73386818
-0.011197516 0.0011197627 0.73430192
-0.011229437 2.9802322e-08 0.73474288
-0.011261712 -0.0011261702 0.73518878
-0.011294387 -0.002258867 0.73564011
-0.01132721 -0.0033981502 0.7360934
-0.011360484 -0.0045441687 0.73655307
-0.011393998 -0.0056969821 0.73701608
-0.011428325 -0.0068569779 0.73749024
-0.01146286 -0.0080239773 0.73796725
-0.011497648 -0.0091980696 0.73844779
-0.011532648 -0.010379344 0.73893118
-0.011568448 -0.011568427 0.73942572
-0.011604695 -0.012765169 0.73992646
-0.011641217 -0.013969451 0.74043095
-0.011678061 -0.015181482 0.74093986
-0.011715601 -0.016401827 0.74145842
-0.011753567 -0.017630309 0.74198282
-0.011792063 -0.018867254 0.74251461
-0.011830999 -0.020112693 0.74305248
-0.011870571 -0.021367013 0.74359906
-0.011910458 -0.022629827 0.74414998
-0.011951189 -0.023902357 0.74471271
-0.011992442 -0.025184095 0.74528253
-0.01203403 -0.026474833 0.745857
-0.012076397 -0.027775705 0.7464422
-0.012119607 -0.029087067 0.74703908
-0.012163176 -0.030407935 0.74764091
-0.012207361 -0.031739146 0.74825126
-0.012252576 -0.033081919 0.7488758
-0.012298176 -0.034434855 0.7495057
-0.012344733 -0.035799682 0.75014883
-0.01239216 -0.03717643 0.75080395
-0.012439952 -0.038563848 0.75146413
-0.012489215 -0.039965481 0.75214458
-0.012539083 -0.041378915 0.75283337
-0.012589669 -0.042804867 0.75353217
-0.01264174 -0.044246078 0.75425142
-0.012694243 -0.045699239 0.75497669
-0.012748278 -0.047168612 0.75572312
-0.012803215 -0.048652202 0.75648195
-0.012859239 -0.05015102 0.75725585
-0.012921704 -0.051686823 0.75811869
-0.013151124 -0.053919613 0.76128769
-0.014093434 -0.059192389 0.77430409
-0.014296823 -0.06147632 0.77711356
-0.0095559843 0.049903512 0.72629368
-0.0095397038 0.048758507 0.72604376
-0.0095142713 0.047571391 0.72565341
-0.0094607333 0.046252489 0.7248317
-0.0094068358 0.04494378 0.72400445
-0.0093536135 0.04365024 0.72318769
-0.0093011195 0.04237178 0.72238195
-0.0092492122 0.041107625 0.72158527
-0.0092082908 0.039902627 0.72095728
-0.0091984179 0.03883779 0.72080564
-0.0092082908 0.03785634 0.72095716
-0.0092287064 0.036914855 0.72127056
-0.0092492122 0.035969168 0.72158527
-0.0092697768 0.035019159 0.72190088
-0.0092904661 0.034065098 0.72221845
-0.0093112476 0.033106655 0.7225374
-0.0093321549 0.032144129 0.72285825
-0.0093534831 0.031178266 0.72318566
-0.009375073 0.030208588 0.723517
-0.0093967626 0.02923438 0.72384989
-0.0094185201 0.028255552 0.72418386
-0.0094404118 0.027272314 0.72451979
-0.009462405 0.026284486 0.72485739
-0.0094847037 0.025292575 0.72519958
-0.0095074112 0.024296731 0.72554815
-0.0095302602 0.023296207 0.72589886
-0.009553222 0.022290885 0.72625124
-0.0095762927 0.021280676 0.7266053
-0.0095994752 0.020265579 0.7269612
-0.0096229445 0.019245893 0.72732139
-0.0096468404 0.018221825 0.72768813
-0.0096709253 0.017192781 0.7280578
-0.0096951313 0.016158581 0.72842926
-0.0097194938 0.015119225 0.72880322
-0.0097439438 0.014074624 0.72917843
-0.009768731 0.013024986 0.72955894
-0.009793967 0.011970431 0.72994626
-0.0098194061 0.010910481 0.73033667
-0.0098449765 0.0098449886 0.7307291
-0.0098707182 0.0087739825 0.73112422
-0.009896595 0.0076974034 0.73152137
-0.0099229375 0.0066153109 0.73192573
-0.0099496804 0.0055276155 0.73233616
-0.009976605 0.0044340491 0.7327494
-0.010003676 0.003334552 0.73316491
-0.010030894 0.0022291243 0.73358262
-0.01005845 0.0011176765 0.73400545
-0.010086498 2.9802322e-08 0.73443604
-0.010114857 -0.0011238456 0.73487127
-0.010143377 -0.002254039 0.735309
-0.010172057 -0.0033906698 0.73574919
-0.010201211 -0.0045338571 0.73619664
-0.010230611 -0.0056836605 0.73664784
-0.010260495 -0.0068403184 0.73710656
-0.010290634 -0.0080038011 0.73756909
-0.010320989 -0.0091741681 0.73803496
-0.010351726 -0.010351688 0.73850679
-0.010382846 -0.011536509 0.73898441
-0.010414519 -0.01272884 0.73947048
-0.010446386 -0.013928503 0.7399596
-0.010478531 -0.015135616 0.740453
-0.010510998 -0.016350448 0.7409513
-0.010544207 -0.017573655 0.74146092
-0.010577626 -0.018804669 0.74197394
-0.010611426 -0.02004379 0.74249268
-0.010645611 -0.021291226 0.74301738
-0.010680445 -0.022547603 0.74355197
-0.01071555 -0.023812324 0.7440908
-0.010751189 -0.025086105 0.74463773
-0.01078737 -0.026369095 0.745193
-0.01082397 -0.027661234 0.74575478
-0.010861039 -0.028962761 0.74632376
-0.010898808 -0.030274421 0.74690342
-0.010937018 -0.031595826 0.74748993
-0.010975498 -0.03292647 0.74808049
-0.011015155 -0.034269333 0.74868912
-0.011055101 -0.035622001 0.74930227
-0.011095429 -0.036984742 0.7499212
-0.011136933 -0.038360506 0.7505582
-0.011178749 -0.039746672 0.75120002
-0.011221067 -0.041143894 0.75184953
-0.011264609 -0.042555153 0.75251776
-0.011308489 -0.043977469 0.75319123
-0.01135334 -0.045413375 0.75387961
-0.011399128 -0.046863049 0.75458235
-0.011445289 -0.048324555 0.75529087
-0.011493009 -0.049803048 0.75602329
-0.011541228 -0.051294297 0.75676334
-0.011669285 -0.053160071 0.75872874
-0.011937311 -0.055707455 0.76284248
-0.012526074 -0.059846759 0.77187884
-0.012667403 -0.061929494 0.77404797
-0.012708421 -0.063542098 0.77467757
-0.0084938742 0.049901515 0.72628784
-0.0084787095 0.048752606 0.72602606
-0.0084497416 0.047529787 0.72552586
-0.0084009292 0.046205133 0.72468305
-0.0083527081 0.044895828 0.72385043
-0.008305151 0.043602049 0.72302932
-0.0082581919 0.042323261 0.72221839
-0.0082117599 0.041058838 0.72141671
-0.0081819389 0.039886951 0.72090185
-0.0081758657 0.038835347 0.72079694
-0.0081868097 0.037864 0.72098589
-0.0082045114 0.036920339 0.7212916
-0.0082223173 0.035972685 0.72159898
-0.0082401726 0.035020739 0.72190726
-0.0082581062 0.03406471 0.7222169
-0.0082762325 0.033104956 0.72252995
