# .PCD v0.7 - Point Cloud Data file format
VERSION 0.7
FIELDS x y z
SIZE 4 4 4
TYPE F F F
COUNT 1 1 1
WIDTH 1322
HEIGHT 1
VIEWPOINT 0 0 0 1 0 0 0
POINTS 1322
DATA ascii
-0.026734933 -0.018228322 0.74748987
-0.026734933 -0.019443542 0.74748987
-0.026734933 -0.020658791 0.74748993
-0.026734933 -0.021874011 0.74748981
-0.026734933 -0.02308923 0.74748987
-0.026734933 -0.024304479 0.74748993
-0.026734933 -0.025519699 0.74748987
-0.026734933 -0.026734918 0.74748987
-0.026734933 -0.027950138 0.74748993
-0.026735043 -0.029165477 0.74749058
-0.026735043 -0.030380696 0.74749058
-0.026735043 -0.031595975 0.74749058
-0.026735043 -0.032811165 0.74749053
-0.026735043 -0.034026414 0.74749053
-0.026735043 -0.035241604 0.74749053
-0.026735043 -0.036456853 0.74749064
-0.026735043 -0.037672102 0.74749058
-0.026735043 -0.038887322 0.74749058
-0.026735043 -0.040102541 0.74749053
-0.026735043 -0.041317761 0.74749053
-0.026735151 -0.042533189 0.74749124
-0.026735151 -0.043748409 0.74749124
-0.026735151 -0.044963658 0.74749124
-0.026735151 -0.046178848 0.74749124
-0.026735151 -0.047394127 0.74749124
-0.026735151 -0.048609376 0.7474913
-0.026735151 -0.049824595 0.7474913
-0.026764242 -0.051095337 0.74767393
-0.026470801 0.051681131 0.75374591
-0.026002189 0.049527973 0.75066352
-0.025687758 0.047705859 0.74859524
-0.025451796 0.046055645 0.74704313
-0.02527044 0.044524133 0.74585021
-0.02524725 0.043281019 0.74569768
-0.02524725 0.042078793 0.74569774
-0.02524725 0.040876508 0.74569774
-0.02524725 0.039674282 0.74569774
-0.025247352 0.038472176 0.74569833
-0.025247352 0.03726992 0.74569839
-0.025247352 0.036067665 0.74569845
-0.025247352 0.034865409 0.74569839
-0.025247352 0.033663183 0.74569833
-0.025247352 0.032460928 0.74569833
-0.025247352 0.031258643 0.74569839
-0.025247352 0.030056387 0.74569839
-0.025247352 0.028854132 0.74569839
-0.025247352 0.027651876 0.74569839
-0.025247455 0.02644977 0.74569899
-0.025247352 0.025247395 0.74569839
-0.025247352 0.02404514 0.74569833
-0.025247352 0.022842854 0.74569839
-0.025247352 0.021640569 0.74569839
-0.025247352 0.020438343 0.74569839
-0.025247352 0.019236058 0.74569839
-0.025247455 0.018033892 0.74569905
-0.025247455 0.016831666 0.74569905
-0.025247455 0.015629411 0.74569905
-0.025247455 0.014427155 0.74569905
-0.025247455 0.01322487 0.74569905
-0.025247455 0.012022614 0.74569905
-0.025247455 0.010820359 0.74569905
-0.025247455 0.0096180737 0.74569905
-0.025247455 0.0084158182 0.74569905
-0.025247455 0.0072135627 0.74569905
-0.025247455 0.0060113072 0.74569911
-0.025247455 0.0048090518 0.74569905
-0.025247455 0.0036067963 0.74569905
-0.025247455 0.0024045408 0.74569905
-0.025247557 0.0012022853 0.7456997
-0.025247557 2.9802322e-08 0.7456997
-0.025247557 -0.0012022555 0.74569976
-0.025247557 -0.002404511 0.7456997
-0.025247557 -0.0036067963 0.74569976
-0.025247557 -0.0048090219 0.74569976
-0.025247557 -0.0060112774 0.7456997
-0.025247557 -0.0072135627 0.74569964
-0.025247557 -0.008415848 0.7456997
-0.025247557 -0.0096180737 0.74569976
-0.025247557 -0.010820389 0.74569976
-0.025247557 -0.012022644 0.7456997
-0.025247557 -0.01322487 0.74569964
-0.025247557 -0.014427125 0.7456997
-0.02524766 -0.01562947 0.74570036
-0.02524766 -0.016831756 0.74570048
-0.02524766 -0.018034041 0.74570042
-0.02524766 -0.019236296 0.74570036
-0.02524766 -0.020438552 0.74570042
-0.02524766 -0.021640837 0.74570042
-0.02524766 -0.022843093 0.74570036
-0.02524766 -0.024045408 0.74570042
-0.02524766 -0.025247633 0.74570036
-0.02524766 -0.026449889 0.74570036
-0.02524766 -0.027652174 0.74570042
-0.02524766 -0.02885446 0.74570042
-0.02524766 -0.030056715 0.74570042
-0.02524766 -0.031259 0.74570042
-0.025247762 -0.032461375 0.74570107
-0.025247762 -0.03366369 0.74570107
-0.025247762 -0.034865946 0.74570107
-0.025247762 -0.036068201 0.74570107
-0.025247762 -0.037270486 0.74570107
-0.025247762 -0.038472772 0.74570107
-0.025247762 -0.039675027 0.74570107
-0.025247762 -0.040877312 0.74570107
-0.025247762 -0.042079568 0.74570101
-0.025247762 -0.043281883 0.74570107
-0.025247762 -0.044484138 0.74570107
-0.025247762 -0.045686394 0.74570107
-0.025247762 -0.046888679 0.74570107
-0.025247864 -0.048091143 0.74570179
-0.025247864 -0.049293429 0.74570173
-0.025250517 -0.050501019 0.74571919
-0.025361877 -0.051931471 0.74645168
-0.02584487 0.060735464 0.75812876
-0.025841389 0.059435219 0.75810468
-0.025993053 0.058484405 0.75915217
-0.025871512 0.05691734 0.75831276
-0.025649939 0.05514738 0.75678241
-0.024958411 0.052412659 0.75200629
-0.024600117 0.050430238 0.74953169
-0.024337003 0.048673987 0.74771452
-0.024121646 0.047037244 0.74622709
-0.023938069 0.045482337 0.74495918
-0.02383342 0.044091851 0.74423635
-0.023828551 0.042891413 0.74420279
-0.023828551 0.041700006 0.74420273
-0.023828551 0.040508568 0.74420273
-0.023828551 0.039317131 0.74420279
-0.023828551 0.038125694 0.74420279
-0.023828551 0.036934286 0.74420273
-0.023828551 0.035742819 0.74420279
-0.023828551 0.034551412 0.74420279
-0.023828551 0.033359945 0.74420273
-0.023828551 0.032168597 0.74420273
-0.023828551 0.03097713 0.74420279
-0.023828551 0.029785693 0.74420273
-0.023828551 0.028594255 0.74420279
-0.023828551 0.027402818 0.74420279
-0.023828454 0.026211321 0.74420214
-0.023828454 0.025019914 0.74420214
-0.023828454 0.023828477 0.74420214
-0.023828454 0.022637069 0.74420214
-0.023828454 0.021445662 0.74420208
-0.023828454 0.020254195 0.74420214
-0.023828454 0.019062757 0.74420214
-0.023828454 0.01787135 0.74420208
-0.023828454 0.016679943 0.74420208
-0.023828454 0.015488535 0.74420214
-0.023828454 0.014297098 0.74420214
-0.023828454 0.013105661 0.74420214
-0.023828454 0.011914253 0.74420208
-0.023828454 0.010722846 0.74420214
-0.023828454 0.0095314085 0.74420214
-0.023828454 0.0083399713 0.74420208
-0.023828454 0.0071485341 0.74420214
-0.023828454 0.0059570968 0.74420214
-0.023828454 0.004765749 0.74420214
-0.023828454 0.0035742819 0.74420208
-0.023828454 0.0023828745 0.74420214
-0.023828454 0.0011914372 0.74420208
-0.023828454 2.9802322e-08 0.74420214
-0.023828454 -0.0011913776 0.74420208
-0.023828454 -0.0023828149 0.74420214
-0.023828454 -0.0035742819 0.74420214
-0.023828454 -0.0047656894 0.74420214
-0.023828454 -0.0059571266 0.74420208
-0.023828454 -0.0071485341 0.74420214
-0.023828454 -0.0083399415 0.74420208
-0.023828454 -0.0095313787 0.74420214
-0.023828454 -0.010722786 0.74420214
-0.023828454 -0.011914194 0.74420208
-0.023828454 -0.013105601 0.74420214
-0.023828454 -0.014297038 0.74420214
-0.023828454 -0.015488446 0.74420214
-0.023828454 -0.016679913 0.74420208
-0.023828454 -0.01787135 0.74420214
-0.023828454 -0.019062728 0.74420202
-0.023828454 -0.020254165 0.74420208
-0.023828454 -0.021445572 0.74420208
-0.023828454 -0.022637039 0.74420214
-0.023828454 -0.023828447 0.74420214
-0.023828454 -0.025019825 0.74420214
-0.023828454 -0.026211262 0.74420208
-0.023828454 -0.027402699 0.74420214
-0.023828551 -0.028594255 0.74420279
-0.023828551 -0.029785693 0.74420273
-0.023828551 -0.0309771 0.74420273
-0.023828646 -0.032168657 0.74420345
-0.023828646 -0.033360064 0.74420345
-0.023828646 -0.034551501 0.74420345
-0.023828646 -0.035742939 0.74420339
-0.023828741 -0.036934555 0.7442041
-0.023828741 -0.038125992 0.74420404
-0.023828741 -0.039317429 0.74420404
-0.023828741 -0.040508866 0.7442041
-0.023828838 -0.041700453 0.74420476
-0.023828838 -0.04289192 0.74420476
-0.023828838 -0.044083387 0.74420476
-0.023828838 -0.045274764 0.7442047
-0.023828838 -0.046466202 0.74420476
-0.023828933 -0.047657847 0.74420542
-0.023828933 -0.048849285 0.74420536
-0.023828933 -0.050040752 0.74420542
-0.023866126 -0.051312178 0.74446231
-0.0243179 -0.053499341 0.74758255
-0.024022674 0.060688883 0.75427592
-0.024024718 0.059429586 0.75429082
-0.024090681 0.058324814 0.7547704
-0.024039131 0.056934774 0.75439554
-0.023960538 0.055487573 0.75382417
-0.023569558 0.053341687 0.75098169
-0.023264462 0.051426709 0.74876362
-0.023025189 0.049685955 0.74702406
-0.022831028 0.048065335 0.7456125
-0.022662999 0.046518773 0.7443909
-0.022514008 0.045028031 0.74330771
-0.022460938 0.043739736 0.74292189
-0.022460938 0.042557567 0.74292189
-0.022460938 0.041375399 0.74292183
-0.022460938 0.04019326 0.74292189
-0.022460938 0.039011151 0.74292183
-0.022460938 0.037828952 0.74292195
-0.022460938 0.036646813 0.74292189
-0.022460938 0.035464615 0.74292189
-0.022460938 0.034282506 0.74292183
-0.022460938 0.033100367 0.74292189
-0.022460938 0.031918198 0.74292183
-0.022460938 0.030736029 0.74292183
-0.022460938 0.02955389 0.74292183
-0.022460938 0.028371722 0.74292189
-0.022460938 0.027189583 0.74292183
-0.022460938 0.026007444 0.74292183
-0.022460938 0.024825245 0.74292189
-0.022460938 0.023643136 0.74292189
-0.022460938 0.022460938 0.74292183
-0.022460938 0.021278799 0.74292189
-0.022460938 0.02009666 0.74292189
-0.022460938 0.018914461 0.74292189
-0.022460938 0.017732352 0.74292183
-0.022461027 0.016550243 0.74292254
-0.022461027 0.015368134 0.74292254
-0.022461027 0.014185905 0.74292254
-0.022461027 0.013003796 0.74292248
-0.022461027 0.011821598 0.74292254
-0.022461027 0.010639489 0.74292254
-0.022461027 0.0094572902 0.74292254
-0.022461027 0.0082751215 0.74292248
-0.022461027 0.0070929825 0.74292254
-0.022461027 0.0059108436 0.74292248
-0.022461027 0.0047286451 0.74292254
-0.022461027 0.0035465062 0.74292248
-0.022461027 0.0023643076 0.74292254
-0.022461027 0.0011822283 0.74292248
-0.022461027 -0 0.74292254
-0.022461027 -0.0011821389 0.74292248
-0.022461027 -0.0023643076 0.74292254
-0.022461116 -0.0035464764 0.74292314
-0.022461116 -0.0047286451 0.7429232
-0.022461206 -0.0059108436 0.74292386
-0.022461206 -0.0070930123 0.74292386
-0.022461206 -0.0082751811 0.7429238
-0.022461293 -0.0094573498 0.74292445
-0.022461293 -0.010639578 0.74292445
-0.022461293 -0.011821717 0.74292445
-0.022461293 -0.013003886 0.74292451
-0.022461383 -0.014186114 0.74292505
-0.022461383 -0.015368313 0.74292517
-0.022461383 -0.016550481 0.74292505
-0.022461472 -0.01773271 0.74292576
-0.022461472 -0.018914878 0.74292576
-0.022461472 -0.020097077 0.7429257
-0.022461561 -0.021279395 0.74292642
-0.022461561 -0.022461534 0.74292642
-0.022461561 -0.023643732 0.74292642
-0.022461561 -0.024825931 0.74292642
-0.022461651 -0.026008219 0.74292707
-0.022461651 -0.027190387 0.74292701
-0.022461651 -0.028372616 0.74292707
-0.02246174 -0.029554904 0.74292767
-0.02246174 -0.030737102 0.74292767
-0.02246174 -0.031919301 0.74292767
-0.02246174 -0.033101499 0.74292767
-0.02246183 -0.034283817 0.74292839
-0.02246183 -0.035466045 0.74292833
-0.02246183 -0.036648244 0.74292839
-0.022461919 -0.037830591 0.74292904
-0.022461919 -0.03901279 0.74292898
-0.022461919 -0.040194988 0.74292898
-0.022462009 -0.041377366 0.74292964
-0.022462009 -0.042559564 0.7429297
-0.022462009 -0.043741792 0.74292964
-0.022462009 -0.044924021 0.74292964
-0.022462098 -0.046106398 0.74293029
-0.022462098 -0.047288597 0.74293029
-0.022462098 -0.048470825 0.74293029
-0.022462187 -0.049653232 0.74293101
-0.022474248 -0.050862759 0.74301857
-0.022605518 -0.052349597 0.74397302
-0.022436963 0.061078399 0.75180978
-0.022437809 0.059834182 0.75181627
-0.022500716 0.058751881 0.75229907
-0.022462383 0.057403892 0.75200486
-0.022425307 0.056063294 0.75172031
-0.022232978 0.054347306 0.75024444
-0.021963965 0.052469492 0.74817997
-0.021751735 0.0507541 0.74655133
-0.021570826 0.049133569 0.74516296
-0.021408558 0.04757461 0.74391776
-0.021274893 0.04609561 0.74289203
-0.021157844 0.044666588 0.74199378
-0.02113362 0.043441355 0.74180788
-0.02113362 0.042267233 0.74180788
-0.02113362 0.041093171 0.74180788
-0.02113362 0.039919078 0.74180788
-0.02113362 0.038744986 0.74180794
-0.02113362 0.037570894 0.74180794
-0.02113362 0.036396831 0.74180794
-0.02113362 0.035222739 0.74180788
-0.021133704 0.034048736 0.74180853
-0.021133704 0.032874674 0.74180853
-0.021133704 0.031700581 0.74180853
-0.021133704 0.030526489 0.74180853
-0.021133704 0.029352397 0.74180853
-0.021133704 0.028178304 0.74180853
-0.021133704 0.027004182 0.74180853
-0.021133704 0.02583009 0.74180853
-0.021133788 0.024656117 0.74180919
-0.021133788 0.023482025 0.74180919
-0.021133788 0.022307903 0.74180913
-0.021133788 0.02113381 0.74180919
-0.021133788 0.019959688 0.74180919
-0.021133788 0.018785596 0.74180913
-0.021133788 0.017611504 0.74180925
-0.021133788 0.016437382 0.74180919
-0.02113387 0.015263408 0.74180979
-0.02113387 0.014089286 0.74180984
-0.02113387 0.012915164 0.74180984
-0.02113387 0.011741072 0.74180979
-0.02113387 0.01056695 0.74180984
-0.02113387 0.0093928277 0.74180984
-0.02113387 0.0082187355 0.74180979
-0.02113387 0.0070446432 0.74180984
-0.021133954 0.0058705509 0.7418105
-0.021133954 0.0046964884 0.74181044
-0.021133954 0.0035223961 0.74181038
-0.021133954 0.0023482442 0.7418105
-0.021133954 0.0011741221 0.74181044
-0.021133954 2.9802322e-08 0.74181038
-0.021133954 -0.0011740625 0.74181044
-0.021133954 -0.0023482144 0.74181044
-0.021133954 -0.0035223067 0.74181038
-0.021134038 -0.0046964288 0.74181104
-0.021134038 -0.0058705509 0.7418111
-0.021134038 -0.0070446432 0.7418111
-0.021134038 -0.0082187653 0.74181104
-0.021134119 -0.009392947 0.74181175
-0.021134119 -0.010567069 0.74181175
-0.021134119 -0.011741161 0.74181175
-0.021134119 -0.012915283 0.74181175
-0.021134203 -0.014089465 0.74181241
-0.021134203 -0.015263587 0.74181235
-0.021134203 -0.016437709 0.74181241
-0.021134287 -0.017611891 0.74181306
-0.021134287 -0.018786013 0.74181306
-0.021134287 -0.019960135 0.741813
-0.021134287 -0.021134287 0.74181306
-0.021134373 -0.022308469 0.74181366
-0.021134373 -0.023482621 0.74181366
-0.021134373 -0.024656713 0.7418136
-0.021134373 -0.025830835 0.7418136
-0.021134455 -0.027005106 0.74181426
-0.021134455 -0.028179258 0.74181432
-0.021134455 -0.02935341 0.74181437
-0.021134455 -0.030527562 0.74181432
-0.021134539 -0.031701803 0.74181491
-0.021134539 -0.032875896 0.74181491
-0.021134539 -0.034050047 0.74181491
-0.021134539 -0.035224199 0.74181497
-0.021134622 -0.03639853 0.74181557
-0.021134622 -0.037572652 0.74181557
-0.021134622 -0.038746744 0.74181557
-0.021134706 -0.039921075 0.74181622
-0.021134706 -0.041095257 0.74181622
-0.021134706 -0.042269409 0.74181616
-0.021134706 -0.043443531 0.74181622
-0.021134788 -0.044617862 0.74181682
-0.021134788 -0.045792043 0.74181688
-0.021134788 -0.046966165 0.74181688
-0.021134788 -0.048140317 0.74181682
-0.021134872 -0.049314708 0.74181753
-0.021136208 -0.050492048 0.74182773
-0.021197388 -0.051815838 0.74229729
-0.021677043 -0.054192573 0.74597812
-0.023291249 -0.059522092 0.75836563
-0.020961074 0.060417205 0.74994588
-0.020964986 0.05919528 0.74997765
-0.02099755 0.058052093 0.75024229
-0.020968117 0.056737274 0.7500031
-0.020912088 0.055355519 0.7495479
-0.02070119 0.053579569 0.74783421
-0.020502485 0.05185926 0.74621964
-0.020330094 0.050227284 0.74481893
-0.02018545 0.048682541 0.74364364
-0.020053186 0.04718399 0.74256885
-0.01993647 0.045736641 0.74162048
-0.01984865 0.044367582 0.74090695
-0.01983876 0.043178499 0.74082661
-0.01983876 0.042011529 0.74082655
-0.01983876 0.0408445 0.74082655
-0.01983876 0.03967756 0.74082655
-0.01983876 0.038510591 0.74082661
-0.01983876 0.037343562 0.74082661
-0.01983876 0.036176562 0.74082661
-0.019838838 0.035009712 0.7408272
-0.019838838 0.033842772 0.7408272
-0.019838838 0.032675743 0.7408272
-0.019838838 0.031508744 0.74082726
-0.019838838 0.030341774 0.7408272
-0.019838838 0.029174805 0.7408272
-0.019838838 0.028007776 0.7408272
-0.019838838 0.026840806 0.7408272
-0.019838838 0.025673807 0.7408272
-0.019838838 0.024506807 0.7408272
-0.019838838 0.023339808 0.7408272
-0.019838838 0.022172868 0.7408272
-0.019838838 0.021005869 0.7408272
-0.019838838 0.01983884 0.7408272
-0.019838838 0.01867184 0.74082726
-0.019838838 0.017504871 0.7408272
-0.019838838 0.016337901 0.7408272
-0.019838838 0.015170902 0.7408272
-0.019838838 0.014003903 0.7408272
-0.019838838 0.012836903 0.7408272
-0.019838838 0.011669934 0.7408272
-0.019838838 0.010502964 0.7408272
-0.019838838 0.0093359649 0.74082714
-0.019838838 0.0081689358 0.7408272
-0.019838838 0.0070019662 0.7408272
-0.019838838 0.0058349967 0.7408272
-0.019838838 0.0046679676 0.74082714
-0.019838838 0.003500998 0.7408272
-0.019838838 0.0023339987 0.74082726
-0.019838838 0.0011670291 0.7408272
-0.019838838 -0 0.7408272
-0.019838838 -0.0011669993 0.74082726
-0.019838838 -0.0023339689 0.7408272
-0.019838838 -0.0035009384 0.7408272
-0.019838838 -0.0046679676 0.7408272
-0.019838838 -0.0058349073 0.7408272
-0.019838838 -0.0070019364 0.7408272
-0.019838914 -0.0081689358 0.74082786
-0.019838914 -0.0093359351 0.7408278
-0.019838914 -0.010502905 0.7408278
-0.019838914 -0.011669964 0.74082786
-0.019838993 -0.012836963 0.74082845
-0.019838993 -0.014003992 0.74082851
-0.019838993 -0.015170991 0.74082851
-0.019838993 -0.016337961 0.74082845
-0.019839071 -0.01750505 0.74082911
-0.019839071 -0.018672049 0.74082905
-0.019839071 -0.019839078 0.74082911
-0.019839147 -0.021006137 0.74082971
-0.019839147 -0.022173136 0.74082971
-0.019839147 -0.023340166 0.74082977
-0.019839147 -0.024507165 0.74082971
-0.019839225 -0.025674254 0.74083036
-0.019839225 -0.026841313 0.74083036
-0.019839225 -0.028008312 0.74083036
-0.019839225 -0.029175311 0.74083042
-0.019839305 -0.03034246 0.74083102
-0.019839305 -0.031509459 0.74083102
-0.019839305 -0.032676488 0.74083102
-0.019839305 -0.033843488 0.74083102
-0.019839384 -0.035010666 0.74083161
-0.019839384 -0.036177695 0.74083167
-0.019839384 -0.037344694 0.74083161
-0.019839384 -0.038511723 0.74083167
-0.01983946 -0.039678872 0.74083221
-0.01983946 -0.040845901 0.74083227
-0.01983946 -0.04201296 0.74083227
-0.01983946 -0.043179989 0.74083227
-0.019839538 -0.044347167 0.74083287
-0.019839538 -0.045514256 0.74083292
-0.019839538 -0.046681255 0.74083292
-0.019839538 -0.047848284 0.74083292
-0.019839616 -0.049015492 0.74083352
-0.019839616 -0.050182551 0.74083352
-0.019871822 -0.051432937 0.74109519
-0.020111978 -0.053237557 0.74304658
-0.020842688 -0.056397855 0.74898392
-0.02162008 -0.059773177 0.75530064
-0.019556422 0.061113834 0.74846399
-0.019556986 0.05989328 0.74846888
-0.019600486 0.058801502 0.74884444
-0.019575974 0.057504416 0.74863285
-0.019552004 0.056212008 0.74842584
-0.01945607 0.054720253 0.74759769
-0.01927332 0.053001642 0.7460199
-0.019114299 0.051369667 0.74464703
-0.018973755 0.049806118 0.74343359
-0.018849885 0.048302829 0.74236429
-0.018739497 0.046848774 0.74141121
-0.018637257 0.045428306 0.74052858
-0.018573962 0.044113189 0.73998213
-0.018571207 0.042945951 0.73995835
-0.018571207 0.04178524 0.73995835
-0.018571207 0.040624529 0.73995841
-0.018571282 0.039463997 0.739959
-0.018571282 0.038303286 0.739959
-0.018571282 0.037142545 0.739959
-0.018571282 0.035981864 0.739959
-0.018571282 0.034821153 0.739959
-0.018571282 0.033660471 0.739959
-0.018571282 0.03249976 0.739959
-0.018571282 0.031339049 0.739959
-0.018571282 0.030178368 0.739959
-0.018571282 0.029017657 0.739959
-0.018571282 0.027856946 0.739959
-0.018571282 0.026696235 0.739959
-0.018571282 0.025535554 0.739959
-0.018571282 0.024374843 0.739959
-0.018571282 0.023214132 0.739959
-0.018571282 0.022053421 0.739959
-0.018571282 0.02089268 0.73995906
-0.018571282 0.019731998 0.739959
-0.018571282 0.018571287 0.739959
-0.018571282 0.017410576 0.739959
-0.018571282 0.016249895 0.739959
-0.018571282 0.015089184 0.739959
-0.018571282 0.013928473 0.739959
-0.018571282 0.012767762 0.739959
-0.018571282 0.011607051 0.739959
-0.018571282 0.01044634 0.73995906
-0.018571282 0.0092856884 0.739959
-0.018571282 0.0081249475 0.739959
-0.018571282 0.0069642365 0.739959
-0.018571282 0.0058035553 0.739959
-0.018571282 0.0046428442 0.739959
-0.018571282 0.0034821332 0.739959
-0.018571282 0.0023214221 0.739959
-0.018571282 0.0011607409 0.73995906
-0.018571282 -0 0.73995906
-0.018571282 -0.0011606812 0.739959
-0.018571282 -0.0023213923 0.739959
-0.018571282 -0.0034821033 0.739959
-0.018571282 -0.0046427846 0.739959
-0.018571282 -0.0058034956 0.739959
-0.018571282 -0.0069642067 0.739959
-0.018571282 -0.0081249177 0.739959
-0.018571282 -0.0092856288 0.73995906
-0.018571282 -0.01044631 0.739959
-0.018571282 -0.011607051 0.739959
-0.018571282 -0.012767762 0.739959
-0.018571282 -0.013928473 0.739959
-0.018571282 -0.015089124 0.739959
-0.018571282 -0.016249835 0.739959
-0.018571282 -0.017410576 0.739959
-0.018571282 -0.018571287 0.739959
-0.018571282 -0.019731998 0.739959
-0.018571282 -0.02089268 0.739959
-0.018571354 -0.02205345 0.7399596
-0.018571354 -0.023214161 0.7399596
-0.018571354 -0.024374872 0.7399596
-0.018571354 -0.025535583 0.7399596
-0.018571354 -0.026696295 0.7399596
-0.018571354 -0.027857006 0.7399596
-0.018571354 -0.029017717 0.7399596
-0.018571354 -0.030178428 0.7399596
-0.018571354 -0.031339139 0.7399596
-0.018571354 -0.03249988 0.7399596
-0.018571354 -0.033660591 0.7399596
-0.018571354 -0.034821302 0.7399596
-0.018571425 -0.035982132 0.73996031
-0.018571425 -0.037142843 0.73996025
-0.018571425 -0.038303554 0.73996025
-0.018571425 -0.039464235 0.73996025
-0.018571425 -0.040624976 0.73996025
-0.018571425 -0.041785687 0.73996019
-0.018571425 -0.042946428 0.73996019
-0.018571425 -0.044107139 0.73996025
-0.018571425 -0.04526785 0.73996025
-0.018571425 -0.046428561 0.73996019
-0.018571425 -0.047589272 0.73996019
-0.018571425 -0.048749983 0.73996019
-0.018571425 -0.049910694 0.73996019
-0.018586515 -0.05111292 0.74009049
-0.018708112 -0.052616537 0.74114025
-0.019201225 -0.055203497 0.74539751
-0.019912835 -0.058493942 0.75154108
-0.018197505 0.060658365 0.74720567
-0.018199064 0.059450299 0.74722004
-0.018226948 0.058326244 0.74747682
-0.018207755 0.057050973 0.74730015
-0.01818445 0.055765659 0.74708545
-0.018062226 0.054186702 0.74595988
-0.017910518 0.05253756 0.74456286
-0.0177796 0.0509682 0.74335724
-0.017661693 0.049452782 0.74227148
-0.017554037 0.047981083 0.74128014
-0.017459501 0.046558648 0.74040949
-0.01736936 0.045160323 0.7395795
-0.017328002 0.043897629 0.73919857
-0.017327193 0.042740434 0.73919111
-0.017327193 0.041585296 0.73919117
-0.017327126 0.040430009 0.73919046
-0.017327126 0.039274842 0.73919052
-0.017327126 0.038119674 0.73919052
-0.017327126 0.036964566 0.73919052
-0.017327126 0.035809398 0.73919052
-0.017327126 0.03465426 0.73919052
-0.017327126 0.033499122 0.73919052
-0.017327126 0.032343984 0.73919052
-0.017327126 0.031188846 0.73919052
-0.017327126 0.030033708 0.73919052
-0.017327126 0.02887854 0.73919052
-0.017327126 0.027723432 0.73919052
-0.017327126 0.026568294 0.73919052
-0.017327126 0.025413185 0.73919052
-0.017327126 0.024257988 0.73919052
-0.017327059 0.02310276 0.73918986
-0.017327059 0.021947652 0.73918986
-0.017327059 0.020792514 0.73918986
-0.017327059 0.019637346 0.73918986
-0.017327059 0.018482238 0.73918986
-0.017327059 0.0173271 0.73918986
-0.017327059 0.016171932 0.73918986
-0.017327059 0.015016824 0.73918986
-0.017327059 0.013861686 0.73918986
-0.017327059 0.012706518 0.73918986
-0.017327059 0.01155141 0.73918986
-0.017327059 0.010396272 0.73918986
-0.017327059 0.0092411041 0.73918986
-0.017327059 0.0080859959 0.73918986
-0.017326992 0.0069308281 0.73918921
-0.017326992 0.0057757199 0.73918927
-0.017326992 0.0046205223 0.73918927
-0.017326992 0.0034654438 0.73918927
-0.017326992 0.002310276 0.73918927
-0.017326992 0.0011551082 0.73918927
-0.017326992 2.9802322e-08 0.73918927
-0.017326992 -0.0011551082 0.73918927
-0.017326992 -0.002310276 0.73918927
-0.017326992 -0.0034653842 0.73918927
-0.017326992 -0.0046205223 0.73918933
-0.017326992 -0.0057756603 0.73918933
-0.017326992 -0.0069307685 0.73918927
-0.017326992 -0.0080858767 0.73918927
-0.017326992 -0.0092410445 0.73918927
-0.017326925 -0.010396123 0.73918867
-0.017326925 -0.011551261 0.73918867
-0.017326925 -0.012706399 0.73918867
-0.017326925 -0.013861507 0.73918867
-0.017326925 -0.015016645 0.73918867
-0.017326925 -0.016171783 0.73918867
-0.017326925 -0.017326891 0.73918867
-0.017326925 -0.018482059 0.73918867
-0.017326925 -0.019637167 0.73918867
-0.017326925 -0.020792276 0.73918867
-0.017326925 -0.021947414 0.73918861
-0.017326992 -0.023102671 0.73918927
-0.017326992 -0.024257779 0.73918927
-0.017326992 -0.025412917 0.73918927
-0.017326992 -0.026568025 0.73918921
-0.017326992 -0.027723163 0.73918921
-0.017327059 -0.028878421 0.73918986
-0.017327059 -0.030033529 0.73918986
-0.017327059 -0.031188667 0.73918992
-0.017327059 -0.032343864 0.73918986
-0.017327059 -0.033498973 0.73918986
-0.017327059 -0.034654081 0.73918986
-0.017327059 -0.035809249 0.73918986
-0.017327059 -0.036964387 0.73918986
-0.017327059 -0.038119525 0.73918986
-0.017327126 -0.039274782 0.73919058
-0.017327126 -0.04042989 0.73919046
-0.017327126 -0.041585088 0.73919046
-0.017327126 -0.042740226 0.73919052
-0.017327126 -0.043895394 0.73919052
-0.017327126 -0.045050502 0.73919046
-0.017327126 -0.04620564 0.73919052
-0.017327126 -0.047360808 0.73919052
-0.017327126 -0.048515946 0.73919052
-0.017327193 -0.049671292 0.73919117
-0.017333118 -0.050843775 0.73924565
-0.017404666 -0.052213967 0.73990458
-0.017752359 -0.054440528 0.74310637
-0.018275935 -0.057264596 0.7479279
-0.018610107 -0.059552342 0.75100529
-0.016874751 0.060266972 0.74612439
-0.016881593 0.059085608 0.74619198
-0.016896116 0.057929575 0.74633521
-0.016880702 0.056670964 0.74618316
-0.016847914 0.055357426 0.74585962
-0.016722929 0.053752303 0.7446264
-0.01659522 0.052156448 0.74336642
-0.016484117 0.050629795 0.74227017
-0.016383253 0.049149811 0.74127501
-0.016288906 0.047703236 0.74034411
-0.016207049 0.046305865 0.73953646
-0.016130507 0.044935018 0.73878127
-0.01610231 0.043706328 0.73850304
-0.01610231 0.042556137 0.73850304
-0.01610231 0.041405976 0.73850304
-0.01610231 0.040255815 0.7385031
-0.01610231 0.039105654 0.7385031
-0.01610231 0.037955493 0.73850304
-0.01610231 0.036805302 0.7385031
-0.01610231 0.035655141 0.7385031
-0.01610231 0.03450498 0.73850304
-0.01610231 0.033354789 0.73850304
-0.01610231 0.032204658 0.73850304
-0.01610231 0.031054497 0.73850304
-0.01610231 0.029904306 0.73850304
-0.01610231 0.028754145 0.7385031
-0.01610231 0.027603984 0.7385031
-0.01610231 0.026453823 0.7385031
-0.01610231 0.025303662 0.7385031
-0.01610231 0.024153501 0.73850304
-0.01610231 0.02300334 0.73850304
-0.01610231 0.021853149 0.7385031
-0.01610231 0.020702988 0.73850304
-0.01610231 0.019552827 0.73850304
-0.01610231 0.018402666 0.7385031
-0.01610231 0.017252475 0.7385031
-0.01610231 0.016102314 0.7385031
-0.01610231 0.014952153 0.7385031
-0.01610231 0.013801992 0.73850298
-0.01610231 0.012651831 0.73850304
-0.01610231 0.01150167 0.73850304
-0.01610231 0.010351479 0.7385031
-0.01610231 0.0092013776 0.73850304
-0.01610231 0.008051157 0.7385031
-0.01610231 0.006900996 0.7385031
-0.01610231 0.0057508349 0.73850304
-0.01610231 0.0046006441 0.73850304
-0.01610231 0.0034505129 0.73850298
-0.01610231 0.0023003221 0.7385031
-0.01610231 0.0011501908 0.73850304
-0.01610231 2.9802322e-08 0.7385031
-0.01610231 -0.0011501312 0.7385031
-0.01610231 -0.0023003221 0.7385031
-0.01610231 -0.0034504831 0.73850304
-0.01610231 -0.0046006143 0.73850304
-0.01610231 -0.0057508051 0.73850304
-0.01610231 -0.0069009662 0.73850304
-0.01610231 -0.0080510974 0.73850304
-0.01610231 -0.009201318 0.7385031
-0.01610231 -0.010351449 0.7385031
-0.01610231 -0.01150164 0.7385031
-0.01610231 -0.012651801 0.7385031
-0.01610231 -0.013801962 0.73850304
-0.01610231 -0.014952153 0.7385031
-0.01610231 -0.016102284 0.73850304
-0.01610231 -0.017252445 0.73850304
-0.01610231 -0.018402636 0.73850304
-0.01610231 -0.019552797 0.7385031
-0.01610231 -0.020702958 0.7385031
-0.01610231 -0.021853089 0.7385031
-0.01610231 -0.02300328 0.7385031
-0.01610231 -0.024153471 0.73850304
-0.01610231 -0.025303632 0.7385031
-0.01610231 -0.026453793 0.7385031
-0.01610231 -0.027603954 0.73850304
-0.01610231 -0.028754115 0.73850304
-0.01610231 -0.029904276 0.7385031
-0.01610231 -0.031054467 0.7385031
-0.01610231 -0.032204628 0.7385031
-0.01610231 -0.033354759 0.7385031
-0.01610231 -0.03450492 0.73850304
-0.01610231 -0.035655111 0.73850304
-0.01610231 -0.036805272 0.7385031
-0.01610231 -0.037955433 0.7385031
-0.01610231 -0.039105564 0.73850304
-0.01610231 -0.040255785 0.7385031
-0.016102249 -0.041405767 0.73850244
-0.016102249 -0.042555928 0.7385025
-0.016102249 -0.043706119 0.7385025
-0.016102249 -0.04485625 0.73850244
-0.016102249 -0.046006411 0.7385025
-0.016102249 -0.047156572 0.7385025
-0.016102249 -0.048306704 0.73850244
-0.016102249 -0.049456894 0.73850244
-0.016104802 -0.050615072 0.73852766
-0.016151095 -0.051914215 0.73898441
-0.016393123 -0.053863108 0.74137241
-0.016795717 -0.056385636 0.74534464
-0.017169097 -0.058865458 0.74902862
-0.015586278 0.06114617 0.74524111
-0.01558496 0.059942186 0.74522704
-0.015614668 0.058855295 0.74554276
-0.015600114 0.057600439 0.74538809
-0.015585651 0.056348115 0.74523449
-0.015538669 0.05498302 0.74473524
-0.015423616 0.05338946 0.74351275
-0.015314683 0.051834345 0.74235523
-0.01521847 0.05033806 0.74133295
-0.015131745 0.048887193 0.74041146
-0.015049051 0.047462434 0.73953271
-0.014977342 0.046084166 0.73877078
-0.014911834 0.044735551 0.73807472
-0.014894886 0.043538928 0.73789465
-0.014894886 0.042393148 0.73789465
-0.014894886 0.041247398 0.73789465
-0.014894829 0.040101498 0.73789406
-0.014894829 0.038955718 0.73789406
-0.014894829 0.037809968 0.73789406
-0.014894829 0.036664248 0.73789406
-0.014894829 0.035518467 0.73789406
-0.014894771 0.034372568 0.7378934
-0.014894771 0.033226818 0.7378934
-0.014894771 0.032081097 0.73789346
-0.014894771 0.030935317 0.73789346
-0.014894771 0.029789567 0.73789346
-0.014894714 0.028643698 0.73789281
-0.014894714 0.027497947 0.73789287
-0.014894714 0.026352197 0.73789281
-0.014894714 0.025206476 0.73789275
-0.014894714 0.024060726 0.73789281
-0.014894657 0.022914857 0.73789221
-0.014894657 0.021769136 0.73789215
-0.014894657 0.020623386 0.73789221
-0.014894657 0.019477636 0.73789227
-0.014894657 0.018331915 0.73789221
-0.014894599 0.017186075 0.73789161
-0.014894599 0.016040355 0.73789161
-0.014894599 0.014894605 0.73789161
-0.014894599 0.013748914 0.73789161
-0.014894599 0.012603164 0.73789155
-0.014894541 0.011457384 0.73789096
-0.014894541 0.010311633 0.73789096
-0.014894541 0.0091658831 0.73789102
-0.014894541 0.0080201328 0.73789096
-0.014894484 0.0068743825 0.73789036
-0.014894484 0.0057286322 0.73789036
-0.014894484 0.0045829415 0.73789036
-0.014894484 0.0034371912 0.73789036
-0.014894484 0.0022914708 0.73789036
-0.014894428 0.0011457503 0.73788977
-0.014894428 -0 0.73788977
-0.014894428 -0.0011457205 0.73788977
-0.014894428 -0.002291441 0.73788983
-0.014894428 -0.0034371912 0.73788977
-0.01489437 -0.0045828521 0.73788917
-0.01489437 -0.0057286024 0.73788917
-0.01489437 -0.0068743229 0.73788923
-0.01489437 -0.0080200136 0.73788917
-0.01489437 -0.0091657043 0.73788911
-0.01489437 -0.010311455 0.73788917
-0.01489437 -0.011457205 0.73788917
-0.01489437 -0.012602925 0.73788917
-0.01489437 -0.013748646 0.73788917
-0.01489437 -0.014894336 0.73788911
-0.01489437 -0.016040057 0.73788917
-0.01489437 -0.017185807 0.73788917
-0.01489437 -0.018331528 0.73788917
-0.01489437 -0.019477248 0.73788917
-0.01489437 -0.020622939 0.73788917
-0.01489437 -0.021768659 0.73788911
-0.01489437 -0.02291438 0.73788917
-0.01489437 -0.0240601 0.73788917
-0.01489437 -0.025205821 0.73788917
-0.014894312 -0.026351452 0.73788857
-0.014894312 -0.027497172 0.73788857
-0.014894312 -0.028642893 0.73788851
-0.014894312 -0.029788613 0.73788857
-0.014894312 -0.030934304 0.73788857
-0.014894312 -0.032080054 0.73788851
-0.014894312 -0.033225745 0.73788851
-0.014894312 -0.034371465 0.73788857
-0.014894312 -0.035517216 0.73788857
-0.014894312 -0.036662877 0.73788851
-0.014894312 -0.037808597 0.73788857
-0.014894312 -0.038954318 0.73788851
-0.014894312 -0.040100068 0.73788857
-0.014894312 -0.041245788 0.73788857
-0.014894312 -0.042391479 0.73788857
-0.014894312 -0.043537199 0.73788851
-0.014894312 -0.04468292 0.73788857
-0.014894312 -0.04582864 0.73788857
-0.014894312 -0.046974361 0.73788851
-0.014894312 -0.048120081 0.73788857
-0.014894312 -0.049265772 0.73788857
-0.014894255 -0.050411344 0.73788798
-0.014922424 -0.051654547 0.73818725
-0.01509211 -0.053402811 0.73999023
-0.015420971 -0.055752724 0.74348468
-0.015790688 -0.058304071 0.7474131
-0.015928742 -0.060039103 0.74887997
-0.014316401 0.06084469 0.74442458
-0.014315195 0.059646666 0.74441075
-0.014336991 0.058542728 0.74466157
-0.014326056 0.057304233 0.74453574
-0.014313932 0.056062937 0.74439615
-0.014255553 0.054646313 0.74372423
-0.014154572 0.053079695 0.74256176
-0.01406149 0.051558822 0.74149024
-0.013977285 0.050085276 0.74052101
-0.013902524 0.048658848 0.7396605
-0.01383065 0.047254741 0.73883307
-0.013766681 0.04588896 0.73809677
-0.013711567 0.044562608 0.73746228
-0.013701459 0.043387979 0.73734593
-0.013701459 0.042246193 0.73734593
-0.013701459 0.041104436 0.73734593
-0.013701459 0.03996259 0.73734593
-0.013701459 0.038820803 0.73734593
-0.013701459 0.037679046 0.73734593
-0.013701459 0.03653726 0.73734599
-0.013701407 0.035395294 0.7373454
-0.013701407 0.034253538 0.73734534
-0.013701407 0.033111751 0.73734534
-0.013701407 0.031969965 0.73734534
-0.013701407 0.030828208 0.7373454
-0.013701407 0.029686391 0.73734534
-0.013701407 0.028544605 0.73734534
-0.013701407 0.027402818 0.73734534
-0.013701354 0.026260942 0.73734474
-0.013701354 0.025119156 0.73734474
-0.013701354 0.023977369 0.73734468
-0.013701354 0.022835612 0.73734474
-0.013701354 0.021693826 0.73734474
-0.013701354 0.020552039 0.73734474
-0.013701354 0.019410253 0.73734474
-0.013701354 0.018268466 0.73734474
-0.013701354 0.017126709 0.7373448
-0.013701301 0.015984863 0.73734415
-0.013701301 0.014843106 0.73734415
-0.013701301 0.01370132 0.73734415
-0.013701301 0.012559563 0.73734415
-0.013701301 0.011417747 0.73734421
-0.013701301 0.01027602 0.73734415
-0.013701301 0.009134233 0.73734415
-0.013701301 0.0079924464 0.73734421
-0.013701249 0.00685063 0.73734355
-0.013701249 0.0057088733 0.73734355
-0.013701249 0.0045670867 0.73734355
-0.013701249 0.0034253299 0.73734355
-0.013701249 0.0022835732 0.73734355
-0.013701249 0.0011417866 0.73734349
-0.013701249 -0 0.73734355
-0.013701249 -0.0011417568 0.73734355
-0.013701249 -0.0022835135 0.73734349
-0.013701197 -0.0034252703 0.73734295
-0.013701197 -0.0045670271 0.73734289
-0.013701197 -0.0057088137 0.73734295
-0.013701197 -0.0068505704 0.73734289
-0.013701197 -0.0079923272 0.73734289
-0.013701197 -0.0091341138 0.73734295
-0.013701197 -0.010275871 0.73734295
-0.013701197 -0.011417627 0.73734289
-0.013701144 -0.012559354 0.7373423
-0.013701144 -0.013701141 0.73734236
-0.013701144 -0.014842898 0.73734224
-0.013701144 -0.015984654 0.7373423
-0.013701144 -0.017126381 0.73734236
-0.013701144 -0.018268168 0.7373423
-0.013701144 -0.019409955 0.7373423
-0.013701144 -0.020551711 0.73734236
-0.013701144 -0.021693438 0.7373423
-0.013701092 -0.022835135 0.7373417
-0.013701092 -0.023976862 0.73734164
-0.013701092 -0.025118649 0.7373417
-0.013701092 -0.026260406 0.7373417
-0.013701092 -0.027402133 0.7373417
-0.013701092 -0.02854389 0.7373417
-0.013701092 -0.029685706 0.7373417
-0.013701092 -0.030827433 0.7373417
-0.013701038 -0.03196907 0.73734111
-0.013701038 -0.033110827 0.73734111
-0.013701038 -0.034252554 0.73734105
-0.013701038 -0.035394311 0.73734111
-0.013701038 -0.036536098 0.73734111
-0.013701038 -0.037677824 0.73734105
-0.013701038 -0.038819581 0.73734111
-0.013701038 -0.039961368 0.73734111
-0.013701038 -0.041103095 0.73734111
-0.013700985 -0.042244703 0.73734057
-0.013700985 -0.04338643 0.73734051
-0.013700985 -0.044528186 0.73734057
-0.013700985 -0.045669913 0.73734051
-0.013700985 -0.0468117 0.73734057
-0.013700985 -0.047953427 0.73734051
-0.013700985 -0.049095154 0.73734045
-0.013700985 -0.05023694 0.73734051
-0.013721531 -0.051455736 0.73757702
-0.013831562 -0.053020984 0.73884356
-0.014108631 -0.055258781 0.74203295
-0.014423677 -0.057694703 0.74565947
-0.014585433 -0.05955717 0.74752146
-0.013067904 0.060587585 0.7437281
-0.013069314 0.059406042 0.7437458
-0.013086619 0.058294952 0.74396312
-0.013075478 0.057056636 0.74382317
-0.013062894 0.055814177 0.74366522
-0.012997914 0.054354936 0.74284917
-0.012910046 0.052813858 0.74174583
-0.01283035 0.051321417 0.74074501
-0.0127572 0.049869061 0.73982644
-0.01269172 0.048459321 0.73900414
-0.01262925 0.047072679 0.73821974
-0.012572269 0.045717329 0.73750412
-0.01252783 0.044416845 0.73694611
-0.012521309 0.043255448 0.73686421
-0.012521309 0.042117178 0.73686421
-0.012521309 0.040978819 0.73686427
-0.012521309 0.039840549 0.73686421
-0.012521261 0.038702071 0.73686367
-0.012521261 0.037563831 0.73686361
-0.012521261 0.036425501 0.73686367
-0.012521261 0.035287201 0.73686361
-0.012521261 0.034148932 0.73686361
-0.012521214 0.033010453 0.73686302
-0.012521214 0.031872213 0.73686302
-0.012521214 0.030733883 0.73686302
-0.012521214 0.029595613 0.73686302
-0.012521165 0.028457195 0.73686248
-0.012521165 0.027318895 0.73686242
-0.012521165 0.026180625 0.73686248
-0.012521165 0.025042325 0.73686242
-0.012521118 0.023903996 0.73686182
-0.012521118 0.022765696 0.73686182
-0.012521118 0.021627367 0.73686182
-0.012521118 0.020489126 0.73686182
-0.012521069 0.019350737 0.73686123
-0.012521069 0.018212467 0.73686123
-0.012521069 0.017074198 0.73686123
-0.012521069 0.015935898 0.73686123
-0.012521022 0.014797568 0.73686063
-0.012521022 0.013659298 0.73686063
-0.012521022 0.012521029 0.73686063
-0.012521022 0.011382729 0.73686063
-0.012520974 0.010244459 0.73685998
-0.012520974 0.009106189 0.73686004
-0.012520974 0.0079678893 0.73686004
-0.012520974 0.0068296194 0.73686004
-0.012520926 0.0056913495 0.73685944
-0.012520926 0.0045531094 0.73685944
-0.012520926 0.0034148097 0.73685944
-0.012520926 0.0022765398 0.73685944
-0.012520878 0.0011382699 0.73685879
-0.012520878 2.9802322e-08 0.73685884
-0.012520878 -0.0011382401 0.73685884
-0.012520878 -0.00227651 0.73685879
-0.01252083 -0.0034147799 0.73685819
-0.01252083 -0.00455302 0.73685825
-0.01252083 -0.0056912601 0.73685825
-0.01252083 -0.00682953 0.73685819
-0.012520782 -0.0079677701 0.73685759
-0.012520782 -0.0091060102 0.73685765
-0.012520782 -0.01024425 0.73685765
-0.012520782 -0.01138249 0.73685759
-0.012520733 -0.012520701 0.73685706
-0.012520733 -0.013658971 0.736857
-0.012520733 -0.014797211 0.736857
-0.012520733 -0.015935451 0.736857
-0.012520687 -0.017073661 0.7368564
-0.012520687 -0.018211871 0.7368564
-0.012520687 -0.019350141 0.73685646
-0.012520638 -0.020488292 0.7368558
-0.012520591 -0.021626472 0.73685527
-0.012520591 -0.022764713 0.73685515
-0.012520591 -0.023902923 0.73685527
-0.012520591 -0.025041133 0.73685515
-0.012520591 -0.026179403 0.73685521
-0.012520591 -0.027317673 0.73685521
-0.012520591 -0.028455883 0.73685515
-0.012520591 -0.029594123 0.73685527
-0.012520591 -0.030732304 0.73685515
-0.012520591 -0.031870574 0.73685521
-0.012520591 -0.033008844 0.73685521
-0.012520591 -0.034147054 0.73685521
-0.012520591 -0.035285264 0.73685521
-0.012520591 -0.036423534 0.73685515
-0.012520591 -0.037561744 0.73685521
-0.012520591 -0.038699985 0.73685521
-0.012520542 -0.039838076 0.73685461
-0.012520542 -0.040976286 0.73685455
-0.012520542 -0.042114556 0.73685461
-0.012520542 -0.043252796 0.73685461
-0.012520542 -0.044390976 0.73685461
-0.012520542 -0.045529246 0.73685467
-0.012520542 -0.046667457 0.73685455
-0.012520542 -0.047805697 0.73685461
-0.012520542 -0.048943907 0.73685455
-0.012520542 -0.050082177 0.73685461
-0.012531622 -0.051265746 0.73699373
-0.01260866 -0.052727103 0.73796111
-0.012839262 -0.054858685 0.74085695
-0.013100455 -0.057165623 0.74413681
-0.013278159 -0.059148163 0.74636835
-0.011835425 0.06036067 0.74311358
-0.011835706 0.059178561 0.74311745
-0.011849052 0.058060378 0.74330187
-0.011840608 0.056834936 0.74318516
-0.01182667 0.055585355 0.74299264
-0.011761981 0.054105163 0.74209905
-0.011685679 0.052585572 0.74104512
-0.011617389 0.051116526 0.74010175
-0.011553796 0.049681365 0.73922336
-0.011496448 0.048285127 0.73843116
-0.011442352 0.046913624 0.73768395
-0.011391991 0.04556796 0.73698831
-0.011356276 0.04428947 0.73649502
-0.011351855 0.043137074 0.73643392
-0.011351812 0.042001724 0.73643327
-0.011351812 0.040866524 0.73643327
-0.011351812 0.039731354 0.73643333
-0.011351812 0.038596183 0.73643327
-0.011351769 0.037460864 0.73643267
-0.011351769 0.036325693 0.73643267
-0.011351769 0.035190493 0.73643267
-0.011351725 0.034055173 0.73643208
-0.011351725 0.032920003 0.73643214
-0.011351725 0.031784862 0.73643208
-0.011351725 0.030649662 0.73643208
-0.011351681 0.029514372 0.73643154
-0.011351681 0.028379202 0.73643148
-0.011351681 0.027244061 0.73643148
-0.011351681 0.026108921 0.73643148
-0.011351638 0.024973631 0.73643088
-0.011351638 0.023838431 0.73643088
-0.011351638 0.02270329 0.73643088
-0.011351638 0.02156812 0.73643088
-0.011351595 0.02043286 0.73643035
-0.011351595 0.019297719 0.73643029
-0.011351595 0.018162608 0.73643029
-0.011351595 0.017027408 0.73643029
-0.011351552 0.015892178 0.73642969
-0.011351552 0.014757007 0.73642975
-0.011351552 0.013621897 0.73642969
-0.011351552 0.012486756 0.73642969
-0.011351508 0.011351526 0.73642915
-0.011351508 0.010216385 0.7364291
-0.011351508 0.0090811849 0.7364291
-0.011351508 0.007946074 0.7364291
-0.011351465 0.0068108737 0.7364285
-0.011351465 0.0056757629 0.7364285
-0.011351465 0.0045406222 0.7364285
-0.011351465 0.003405422 0.7364285
-0.011351421 0.0022703111 0.73642796
-0.011351421 0.0011351705 0.7364279
-0.011351421 -0 0.73642796
-0.011351421 -0.0011351109 0.73642796
-0.011351379 -0.0022702813 0.73642737
-0.011351379 -0.003405422 0.73642731
-0.011351379 -0.0045405328 0.73642731
-0.011351379 -0.0056756735 0.73642731
-0.011351379 -0.0068107843 0.73642731
-0.011351379 -0.0079459548 0.73642731
-0.011351379 -0.0090810657 0.73642731
-0.011351379 -0.010216236 0.73642731
-0.011351379 -0.011351377 0.73642731
-0.011351379 -0.012486488 0.73642737
-0.011351379 -0.013621598 0.73642731
-0.011351379 -0.014756769 0.73642731
-0.011351379 -0.01589191 0.73642731
-0.011351379 -0.01702705 0.73642731
-0.011351379 -0.018162161 0.73642731
-0.011351335 -0.019297242 0.73642671
-0.011351335 -0.020432353 0.73642671
-0.011351335 -0.021567494 0.73642671
-0.011351335 -0.022702664 0.73642671
-0.011351335 -0.023837775 0.73642671
-0.011351335 -0.024972886 0.73642671
-0.011351335 -0.026108056 0.73642671
-0.011351335 -0.027243197 0.73642671
-0.011351335 -0.028378308 0.73642671
-0.011351335 -0.029513448 0.73642671
-0.011351335 -0.030648589 0.73642671
-0.011351335 -0.0317837 0.73642671
-0.011351335 -0.03291887 0.73642671
-0.011351335 -0.034054011 0.73642671
-0.011351335 -0.035189122 0.73642671
-0.011351335 -0.036324263 0.73642671
-0.011351335 -0.037459403 0.73642671
-0.011351335 -0.038594544 0.73642671
-0.011351335 -0.039729655 0.73642671
-0.011351335 -0.040864766 0.73642671
-0.011351335 -0.041999906 0.73642671
-0.011351335 -0.043135077 0.73642671
-0.011351335 -0.044270188 0.73642671
-0.011351292 -0.04540512 0.73642612
-0.011351292 -0.04654026 0.73642612
-0.011351292 -0.047675431 0.73642617
-0.011351292 -0.048810542 0.73642612
-0.011351292 -0.049945682 0.73642612
-0.01135888 -0.051114917 0.7365309
-0.011413632 -0.052502692 0.73728722
-0.011601572 -0.054527402 0.73988336
-0.011821968 -0.05674544 0.74292773
-0.012003818 -0.058818698 0.74543965
-0.012094077 -0.060470372 0.74668646
-0.010630812 0.061422527 0.74279022
-0.010619593 0.060177714 0.74261802
-0.010633221 0.059073448 0.74282718
-0.010629926 0.057874084 0.74277657
-0.010621405 0.05664748 0.74264586
-0.010605329 0.055383414 0.7423991
-0.010543958 0.053891361 0.7414571
-0.010478162 0.052390814 0.74044728
-0.010419587 0.050940216 0.73954833
-0.010364232 0.049518019 0.73869866
-0.010314189 0.048132926 0.73793066
-0.010267462 0.046774 0.73721349
-0.010223147 0.045436263 0.73653328
-0.01019414 0.044174641 0.7360881
-0.010191966 0.043032736 0.73605478
-0.010191966 0.041900337 0.73605472
-0.010191966 0.040767878 0.73605478
-0.010191966 0.03963545 0.73605472
-0.010191966 0.038502991 0.73605472
-0.010191966 0.037370563 0.73605472
-0.010191928 0.036237985 0.73605412
-0.010191928 0.035105526 0.73605418
-0.010191928 0.033973098 0.73605418
-0.010191928 0.032840639 0.73605418
-0.010191928 0.031708241 0.73605418
-0.010191928 0.030575752 0.73605418
-0.010191928 0.029443353 0.73605412
-0.010191928 0.028310925 0.73605412
-0.010191928 0.027178496 0.73605418
-0.010191889 0.026045948 0.73605359
-0.010191889 0.024913549 0.73605359
-0.010191889 0.023781121 0.73605353
-0.010191889 0.022648662 0.73605359
-0.010191889 0.021516263 0.73605353
-0.010191889 0.020383745 0.73605353
-0.010191889 0.019251376 0.73605359
-0.010191889 0.018118918 0.73605353
-0.010191849 0.01698643 0.73605293
-0.010191849 0.015854031 0.73605299
-0.010191849 0.014721572 0.73605299
-0.010191849 0.013589174 0.73605299
-0.010191849 0.012456745 0.73605293
-0.010191849 0.011324286 0.73605299
-0.010191849 0.010191888 0.73605299
-0.010191849 0.009059459 0.73605293
-0.010191849 0.0079270303 0.73605293
-0.01019181 0.0067945421 0.73605239
-0.01019181 0.0056621432 0.73605233
-0.01019181 0.0045297444 0.73605233
-0.01019181 0.0033972859 0.73605239
-0.01019181 0.0022648573 0.73605239
-0.01019181 0.0011324584 0.73605233
-0.01019181 -0 0.73605233
-0.01019181 -0.0011323988 0.73605239
-0.010191772 -0.0022648275 0.7360518
-0.010191772 -0.0033972561 0.73605174
-0.010191772 -0.004529655 0.7360518
-0.010191772 -0.0056620836 0.7360518
-0.010191772 -0.0067945123 0.73605174
-0.010191772 -0.0079269111 0.7360518
-0.010191772 -0.0090593398 0.7360518
-0.010191772 -0.010191768 0.7360518
-0.010191772 -0.011324167 0.73605174
-0.010191733 -0.012456536 0.73605114
-0.010191733 -0.013588935 0.7360512
-0.010191733 -0.014721364 0.73605114
-0.010191733 -0.015853792 0.7360512
-0.010191733 -0.016986161 0.73605114
-0.010191733 -0.01811862 0.7360512
-0.010191733 -0.019251019 0.73605114
-0.010191733 -0.020383418 0.7360512
-0.010191694 -0.021515787 0.73605055
-0.010191694 -0.022648156 0.73605061
-0.010191694 -0.023780614 0.73605061
-0.010191694 -0.024913043 0.73605061
-0.010191694 -0.026045412 0.73605055
-0.010191694 -0.02717784 0.73605061
-0.010191694 -0.028310239 0.73605055
-0.010191694 -0.029442668 0.73605061
-0.010191694 -0.030575067 0.73605055
-0.010191656 -0.031707346 0.73604995
-0.010191656 -0.032839775 0.73605001
-0.010191656 -0.033972174 0.73605001
-0.010191656 -0.035104603 0.73605001
-0.010191656 -0.036236972 0.73604995
-0.010191656 -0.0373694 0.73605001
-0.010191656 -0.038501829 0.73605001
-0.010191656 -0.039634198 0.73605001
-0.010191617 -0.040766448 0.73604941
-0.010191617 -0.041898847 0.73604935
-0.010191617 -0.043031245 0.73604935
-0.010191617 -0.044163644 0.73604941
-0.010191617 -0.045296043 0.73604935
-0.010191617 -0.046428442 0.73604935
-0.010191656 -0.047561049 0.73605001
-0.010191656 -0.048693478 0.73604995
-0.010191656 -0.049825847 0.73605001
-0.010195732 -0.050978631 0.73611259
-0.010234992 -0.052312195 0.73671514
-0.01038881 -0.054252684 0.73907596
-0.010575996 -0.056405306 0.74194884
-0.010752571 -0.058541775 0.74465901
-0.010820119 -0.060111731 0.74569571
-0.0094143506 0.061193287 0.74218136
-0.0094121909 0.060002714 0.74214411
-0.0094268098 0.058917582 0.74239653
-0.0094202776 0.057699263 0.7422837
-0.00941383 0.056483001 0.74217236
-0.0093963556 0.055203587 0.7418707
-0.0093407249 0.053709209 0.74091011
-0.0092848064 0.05222705 0.73994458
-0.0092343912 0.050789207 0.73907405
-0.0091868602 0.049379379 0.73825341
-0.0091429418 0.048000455 0.73749506
-0.0091029219 0.046652466 0.73680413
-0.0090646334 0.045323193 0.73614293
-0.009041897 0.044079244 0.73575038
-0.0090405568 0.042942673 0.73572719
-0.0090405568 0.041812569 0.73572719
-0.0090405568 0.040682524 0.73572731
-0.0090405568 0.03955245 0.73572719
-0.0090405568 0.038422376 0.73572719
-0.0090405568 0.037292331 0.73572725
-0.0090405568 0.036162227 0.73572725
-0.0090405568 0.035032183 0.73572725
-0.0090405224 0.03390196 0.73572665
-0.0090405224 0.032771915 0.73572659
-0.0090405224 0.031641871 0.73572659
-0.0090405224 0.030511796 0.73572665
-0.0090405224 0.029381692 0.73572665
