# .PCD v0.7 - Point Cloud Data file format
VERSION 0.7
FIELDS x y z
SIZE 4 4 4
TYPE F F F
COUNT 1 1 1
WIDTH 1303
HEIGHT 1
VIEWPOINT 0 0 0 1 0 0 0
POINTS 1303
DATA ascii
-0.020407917 0.053570807 0.75581521
-0.020190567 0.051738322 0.75393879
-0.01999845 0.049996108 0.75228018
-0.019902341 0.048511952 0.75145042
-0.019860972 0.047169834 0.75109333
-0.019819692 0.045833021 0.75073689
-0.019778581 0.044501841 0.75038195
-0.019738136 0.043177217 0.75003272
-0.019698344 0.041859031 0.74968922
-0.019658711 0.040546119 0.74934709
-0.019619156 0.039238334 0.74900562
-0.019580243 0.037936717 0.74866968
-0.019541966 0.03664121 0.74833918
-0.019503757 0.035350561 0.74800932
-0.01946578 0.034065157 0.74768144
-0.019428188 0.032785088 0.74735689
-0.019391293 0.03151086 0.74703836
-0.019354615 0.030241609 0.74672174
-0.019317998 0.028977007 0.74640566
-0.019281911 0.027717739 0.74609411
-0.019246269 0.026463628 0.74578643
-0.019210992 0.025214463 0.74548185
-0.019175846 0.023969829 0.74517834
-0.019141288 0.022730291 0.74488002
-0.019107083 0.021495461 0.74458474
-0.019073157 0.020265251 0.74429178
-0.019039422 0.019039452 0.74400061
-0.019005887 0.017818034 0.74371105
-0.018973224 0.016601622 0.74342912
-0.018940749 0.015389353 0.74314868
-0.018908462 0.014181376 0.74286997
-0.018876282 0.012977451 0.74259216
-0.018844511 0.011777818 0.74231786
-0.018813441 0.010582596 0.74204957
-0.018782476 0.0093912482 0.74178231
-0.018751979 0.0082040131 0.74151909
-0.018721508 0.0070205927 0.74125594
-0.018691504 0.0058411062 0.74099696
-0.018661741 0.004665494 0.74073994
-0.018632583 0.0034936368 0.74048829
-0.018603809 0.002325505 0.7402398
-0.018575123 0.0011609197 0.73999214
-0.018546741 -0 0.73974711
-0.01851845 -0.001157403 0.73950279
-0.018491102 -0.0023113787 0.73926675
-0.01846398 -0.0034619868 0.73903269
-0.018437009 -0.0046092272 0.73879981
-0.018410116 -0.0057531595 0.73856765
-0.018383443 -0.006893754 0.73833734
-0.018357627 -0.0080314279 0.73811448
-0.018332168 -0.0091660917 0.73789465
-0.018306917 -0.010297596 0.73767662
-0.018281808 -0.011426091 0.7374599
-0.018256836 -0.012551546 0.73724431
-0.018232424 -0.013674319 0.73703355
-0.018208912 -0.014794737 0.73683059
-0.018185528 -0.015912324 0.73662865
-0.018162135 -0.017026991 0.73642677
-0.018138874 -0.018138856 0.73622584
-0.01811629 -0.019248545 0.73603094
-0.018094521 -0.020356327 0.735843
-0.018072804 -0.021461397 0.73565549
-0.018051209 -0.022563994 0.73546898
-0.018029595 -0.023663819 0.73528242
-0.018008851 -0.024762154 0.73510337
-0.017988902 -0.025859028 0.73493117
-0.017969066 -0.026953548 0.73475987
-0.017949274 -0.028045774 0.73458904
-0.017929593 -0.029135555 0.73441905
-0.017911101 -0.030224979 0.73425943
-0.017893186 -0.031313092 0.73410481
-0.017875306 -0.032398999 0.73395044
-0.017857529 -0.03348285 0.73379695
-0.017839853 -0.034564704 0.73364437
-0.017823949 -0.035647899 0.73350704
-0.017808074 -0.036729127 0.73336995
-0.017792227 -0.037808448 0.73323321
-0.017776405 -0.038885862 0.7330966
-0.017761808 -0.03996405 0.73297054
-0.017748093 -0.041042447 0.73285216
-0.017734468 -0.042119354 0.73273456
-0.017720796 -0.043194443 0.73261648
-0.017708069 -0.044270158 0.73250663
-0.017696872 -0.045348197 0.73240995
-0.01771763 -0.046508759 0.73258919
-0.01781654 -0.047881961 0.73344314
-0.018073147 -0.049701154 0.73565847
-0.018484207 -0.051986814 0.73920727
-0.019791538 0.063332945 0.76188499
-0.019750617 0.061885297 0.76150811
-0.019724593 0.06048876 0.76126844
-0.019659659 0.058978975 0.76067048
-0.019483039 0.057150275 0.75904405
-0.019227669 0.055119336 0.75669229
-0.019009477 0.05322656 0.75468302
-0.018818384 0.051436931 0.75292331
-0.018657977 0.04975459 0.75144613
-0.018602967 0.048367739 0.75093955
-0.01856279 0.04702574 0.75056958
-0.018523481 0.045691282 0.7502076
-0.018484412 0.044362664 0.74984777
-0.01844551 0.043039531 0.74948955
-0.018406846 0.041722178 0.74913347
-0.018368721 0.040411234 0.7487824
-0.018331056 0.03910628 0.74843556
-0.018293547 0.03780669 0.74809015
-0.018256264 0.036512554 0.74774683
-0.018219505 0.035224378 0.74740827
-0.018183338 0.033942252 0.7470752
-0.018147316 0.032665193 0.7467435
-0.018111432 0.031393141 0.74641311
-0.01807606 0.03012681 0.74608737
-0.01804119 0.028865904 0.74576622
-0.018006526 0.027610064 0.74544698
-0.017971924 0.026358843 0.74512839
-0.01793774 0.025112867 0.74481362
-0.017904047 0.023872077 0.74450326
-0.017870698 0.022636265 0.74419618
-0.017837398 0.021404892 0.74388957
-0.017804578 0.020178556 0.74358726
-0.017772019 0.01895687 0.74328744
-0.017739935 0.017739952 0.74299204
-0.017708035 0.016527534 0.74269825
-0.01767653 0.015319675 0.7424081
-0.017645415 0.014116377 0.74212158
-0.017614478 0.01291731 0.74183667
-0.017583791 0.011722535 0.74155414
-0.017553208 0.010531962 0.74127245
-0.017523352 0.0093458295 0.74099749
-0.017493803 0.0081637502 0.7407254
-0.017464424 0.0069857836 0.74045491
-0.017435074 0.0058117211 0.74018461
-0.017405888 0.0046415925 0.73991579
-0.017377615 0.0034755468 0.73965544
-0.017349364 0.0023132861 0.73939526
-0.017321542 0.0011547804 0.73913908
-0.017293874 -0 0.73888427
-0.0172663 -0.0011510551 0.73863029
-0.017239207 -0.0022985637 0.73838091
-0.017212469 -0.0034424961 0.73813462
-0.017186275 -0.0045829713 0.7378934
-0.01716016 -0.0057200491 0.73765296
-0.017134126 -0.0068536103 0.73741323
-0.017108368 -0.0079838932 0.73717594
-0.017083079 -0.0091109872 0.73694313
-0.017058386 -0.010235012 0.73671573
-0.0170337 -0.011355788 0.73648834
-0.017009279 -0.012473464 0.73626351
-0.016984863 -0.013587892 0.73603868
-0.016961034 -0.014699519 0.73581922
-0.016937656 -0.015808463 0.73560399
-0.016914668 -0.016914636 0.73539221
-0.0168918 -0.018017888 0.73518163
-0.016868932 -0.01911813 0.73497111
-0.016846318 -0.020215601 0.73476285
-0.016824462 -0.021310955 0.73456156
-0.016803168 -0.022404224 0.73436546
-0.016781865 -0.023494601 0.73416936
-0.016760617 -0.024582237 0.73397362
-0.016739549 -0.02566728 0.73377955
-0.016719284 -0.026750803 0.73359293
-0.016699506 -0.027832478 0.73341084
-0.016679836 -0.02891168 0.7332297
-0.016660152 -0.029988259 0.73304844
-0.016640576 -0.031062365 0.73286819
-0.016621914 -0.032135665 0.73269629
-0.016603848 -0.033207655 0.73252994
-0.016585823 -0.03427735 0.73236394
-0.016567897 -0.035344809 0.73219889
-0.016549949 -0.036409885 0.73203361
-0.016533263 -0.037475407 0.73187995
-0.016516982 -0.038539588 0.73172998
-0.01650073 -0.039601743 0.73158038
-0.01648451 -0.040661782 0.73143101
-0.016468445 -0.041720033 0.73128307
-0.016453989 -0.04278037 0.73114991
-0.016439557 -0.043838799 0.73101699
-0.016426783 -0.044899881 0.73089945
-0.016454656 -0.04607302 0.73115605
-0.016553571 -0.047453582 0.73206699
-0.016779909 -0.049221039 0.73415124
-0.017087396 -0.05126217 0.73698288
-0.017565651 -0.053867966 0.74138701
-0.018423876 0.063167602 0.76140904
-0.018409621 0.061803728 0.76126844
-0.018349987 0.06029281 0.76068002
-0.018281739 0.058762789 0.76000673
-0.018056102 0.056747764 0.75778037
-0.017834058 0.054776043 0.7555896
-0.017642938 0.052928865 0.75370389
-0.017474115 0.051174194 0.75203818
-0.017357485 0.049592823 0.75088739
-0.017317707 0.048242182 0.75049496
-0.017279541 0.046901613 0.75011837
-0.017241618 0.045567155 0.74974418
-0.017204 0.044238865 0.74937302
-0.017167114 0.042917818 0.74900907
-0.017130386 0.041602403 0.74864668
-0.017093884 0.04029274 0.7482866
-0.017057469 0.038988531 0.74792725
-0.017021973 0.037691504 0.74757701
-0.016986625 0.036399901 0.74722826
-0.016951423 0.035113662 0.74688089
-0.016916366 0.033832759 0.74653506
-0.016882002 0.032558203 0.74619597
-0.016847914 0.031288981 0.74585968
-0.016813964 0.030024946 0.74552476
-0.016780352 0.028766334 0.74519306
-0.016746942 0.027512819 0.74486345
-0.016714202 0.026265174 0.74454033
-0.016681589 0.025022388 0.74421865
-0.016649237 0.023784608 0.74389941
-0.016617009 0.022551686 0.74358135
-0.016585436 0.021324128 0.74326992
-0.016554046 0.020101368 0.74296016
-0.016522776 0.018883198 0.74265158
-0.016491821 0.017669827 0.74234623
-0.01646124 0.016461253 0.74204451
-0.016431032 0.015257418 0.74174643
-0.016400872 0.014057904 0.74144888
-0.016371142 0.0128631 0.74115556
-0.016341584 0.011672586 0.74086386
-0.016312517 0.010486633 0.7405771
-0.016283553 0.0093049109 0.74029136
-0.01625501 0.0081275403 0.74000967
-0.016226819 0.0069543421 0.73973155
-0.016198725 0.0057852566 0.73945439
-0.016170854 0.004620254 0.73917937
-0.016143078 0.003459245 0.73890525
-0.016115898 0.002302289 0.73863715
-0.016089119 0.0011492372 0.73837292
-0.016062491 2.9802322e-08 0.73811018
-0.016035888 -0.0011454225 0.73784769
-0.016009375 -0.0022870302 0.73758614
-0.01598344 -0.0034250021 0.7373302
-0.015957896 -0.0045593679 0.73707819
-0.015932614 -0.0056901872 0.73682874
-0.015907533 -0.0068174899 0.73658121
-0.015882473 -0.0079412162 0.73633397
-0.015857792 -0.0090615749 0.73609048
-0.015833309 -0.010178536 0.7358489
-0.015809501 -0.011292458 0.735614
-0.015785825 -0.01240316 0.73538041
-0.015762219 -0.013510436 0.73514748
-0.015738802 -0.014614612 0.73491651
-0.015715515 -0.01571548 0.73468667
-0.015693007 -0.016813934 0.73446465
-0.01567068 -0.017909318 0.73424435
-0.015648477 -0.019001663 0.73402524
-0.015626393 -0.020091087 0.73380733
-0.015604313 -0.021177262 0.73358953
-0.015582938 -0.022261322 0.73337859
-0.01556203 -0.023343056 0.7331723
-0.015541293 -0.02442202 0.73296773
-0.015520552 -0.025498033 0.73276305
-0.015499867 -0.026571184 0.73255897
-0.015479583 -0.027642071 0.73235881
-0.015460154 -0.028711706 0.73216712
-0.015440833 -0.029778749 0.73197651
-0.015421559 -0.030843109 0.73178637
-0.015402391 -0.031904936 0.73159719
-0.015383214 -0.032964021 0.731408
-0.01536516 -0.034022838 0.7312299
-0.015347264 -0.035079449 0.73105329
-0.015329463 -0.036133707 0.73087764
-0.015311649 -0.037185401 0.73070186
-0.015293933 -0.0382348 0.73052704
-0.015277266 -0.039284408 0.73036265
-0.01526097 -0.040332586 0.7302019
-0.015244653 -0.041378319 0.73004091
-0.015228373 -0.042421877 0.72988021
-0.015212126 -0.0434632 0.72971994
-0.01520396 -0.044525862 0.72963935
-0.015231214 -0.045693636 0.72990829
-0.015338386 -0.047110736 0.73096567
-0.015534913 -0.048823982 0.73290473
-0.015776852 -0.050711304 0.7352919
-0.016098887 -0.052896321 0.73846924
-0.017114399 0.06450814 0.7614783
-0.017072605 0.063037336 0.76103413
-0.017053928 0.061656564 0.76083577
-0.016996052 0.060139894 0.76022077
-0.016896443 0.058487684 0.75916243
-0.016669009 0.05641824 0.75674582
-0.01647502 0.054494321 0.75468451
-0.016304793 0.052677065 0.75287575
-0.016154502 0.050948828 0.75127882
-0.01608086 0.049479574 0.75049639
-0.01604409 0.0481323 0.75010562
-0.016008085 0.046792895 0.74972308
-0.015972372 0.045459867 0.74934351
-0.015936818 0.044132739 0.74896574
-0.015901422 0.042811543 0.74858969
-0.015866511 0.041497052 0.74821877
-0.015832009 0.040188968 0.74785215
-0.015797723 0.038886726 0.74748784
-0.015763517 0.037589967 0.74712437
-0.015729848 0.036299676 0.74676663
-0.015696639 0.035015583 0.74641377
-0.015663633 0.033737063 0.74606305
-0.015630703 0.032463759 0.74571317
-0.015598038 0.031196088 0.7453661
-0.015566072 0.029934794 0.74502647
-0.015534236 0.028678626 0.74468815
-0.015502593 0.027427673 0.74435192
-0.015471018 0.026181728 0.74401641
-0.015440063 0.024941653 0.74368745
-0.015409354 0.023706704 0.74336123
-0.015378769 0.022476673 0.74303615
-0.015348486 0.021251738 0.74271446
-0.015318505 0.020031929 0.74239588
-0.015288943 0.018817216 0.74208176
-0.015259556 0.017607182 0.74176949
-0.015230341 0.016401917 0.74145907
-0.015201357 0.01520136 0.74115109
-0.0151729 0.01400578 0.74084866
-0.015144549 0.012814641 0.74054748
-0.015116364 0.011628002 0.74024796
-0.015088459 0.010445893 0.73995143
-0.015060775 0.0092681646 0.73965734
-0.015033543 0.0080949962 0.73936796
-0.015006351 0.0069260001 0.73907906
-0.014979663 0.0057614148 0.73879546
-0.014953013 0.0046009421 0.73851228
-0.014926572 0.003444612 0.73823136
-0.014900454 0.0022923946 0.73795378
-0.014874713 0.0011442304 0.73768032
-0.014849291 2.9802322e-08 0.73741019
-0.014823954 -0.0011402965 0.73714101
-0.014798647 -0.0022766888 0.73687202
-0.014773652 -0.0034092963 0.73660648
-0.014749023 -0.0045381486 0.73634475
-0.014724868 -0.0056633949 0.73608816
-0.014700793 -0.0067849457 0.73583227
-0.014676851 -0.0079028904 0.73557788
-0.014652932 -0.0090171993 0.73532379
-0.014629257 -0.010127932 0.7350722
-0.014606209 -0.011235505 0.73482728
-0.0145834 -0.012339771 0.73458493
-0.014560717 -0.013440639 0.73434389
-0.014538159 -0.014538169 0.73410428
-0.01451567 -0.015632242 0.73386526
-0.014493522 -0.016723275 0.73362988
-0.014471876 -0.017811507 0.73339993
-0.01445051 -0.018896818 0.73317289
-0.014429207 -0.019978881 0.73294652
-0.01440802 -0.021057844 0.73272139
-0.014386842 -0.022133589 0.73249638
-0.01436626 -0.023207009 0.73227763
-0.01434611 -0.024278015 0.73206359
-0.014326069 -0.0253461 0.73185062
-0.014306083 -0.026411235 0.73163825
-0.014286207 -0.02747348 0.73142707
-0.014266385 -0.028532773 0.73121643
-0.014247405 -0.029590756 0.73101479
-0.014228635 -0.030646235 0.73081529
-0.014209964 -0.031699151 0.73061693
-0.014191291 -0.032749146 0.73041856
-0.014172667 -0.03379634 0.73022062
-0.014154714 -0.034842372 0.73002988
-0.014137272 -0.035886914 0.72984451
-0.014119871 -0.036928862 0.72965968
-0.014102565 -0.037968427 0.7294758
-0.014085251 -0.03900528 0.72929174
-0.014068132 -0.040040076 0.72910994
-0.014051975 -0.041075021 0.72893822
-0.014035905 -0.042107701 0.72876745
-0.014019821 -0.043137908 0.72859651
-0.014012353 -0.044192821 0.72851717
-0.014050596 -0.045394242 0.72892356
-0.014155077 -0.046820641 0.73003376
-0.014324529 -0.048483014 0.73183423
-0.014521231 -0.050265759 0.73392433
-0.014765414 -0.052246839 0.73651898
-0.015118728 -0.054659992 0.74027306
-0.015768658 0.064388692 0.76114166
-0.01573154 0.062926173 0.76071441
-0.015707236 0.06152004 0.76043463
-0.015655216 0.060011655 0.75983578
-0.015514742 0.058180302 0.75821877
-0.015314805 0.056154281 0.75591731
-0.015143245 0.054263294 0.75394243
-0.014992474 0.052473664 0.75220692
-0.014864336 0.050786465 0.75073195
-0.014816077 0.049386948 0.75017637
-0.014781651 0.04804036 0.74978012
-0.014747384 0.04670006 0.74938565
-0.014713456 0.045366526 0.74899513
-0.014680107 0.044040352 0.74861127
-0.014646971 0.042720348 0.7482298
-0.014613922 0.041406125 0.74784935
-0.014581201 0.04009831 0.74747276
-0.014548982 0.038797319 0.74710184
-0.014517024 0.037502348 0.74673396
-0.014485206 0.036213011 0.74636769
-0.014453585 0.034929544 0.74600375
-0.014422452 0.033652425 0.74564534
-0.014391627 0.032381177 0.74529052
-0.014360877 0.031115264 0.74493659
-0.014330314 0.029854834 0.7445848
-0.014300281 0.028600544 0.74423909
-0.014270604 0.027352005 0.74389744
-0.014240991 0.026108533 0.74355656
-0.014211502 0.024870127 0.74321711
-0.014182416 0.023637414 0.74288225
-0.014153786 0.022410154 0.74255276
-0.014125272 0.021187901 0.74222451
-0.014096872 0.019970566 0.74189758
-0.014068642 0.018758208 0.74157262
-0.01404091 0.017551184 0.74125338
-0.014013398 0.016348988 0.7409367
-0.013986104 0.01515165 0.74062252
-0.01395886 0.013958901 0.74030894
-0.013931995 0.01277101 0.73999965
-0.013905504 0.011587948 0.73969471
-0.013879168 0.010409385 0.73939157
-0.013853038 0.0092353821 0.7390908
-0.013827059 0.0080657899 0.73879176
-0.013801446 0.0069007576 0.7384969
-0.013776087 0.0057400763 0.73820502
-0.013750874 0.0045836568 0.7379148
-0.013725858 0.0034314692 0.73762679
-0.013700934 0.0022835135 0.73733991
-0.013676518 0.0011397004 0.73705888
-0.013652137 2.9802322e-08 0.7367782
-0.013628156 -0.0011356771 0.73650217
-0.013604258 -0.0022673607 0.73622704
-0.013580496 -0.0033951104 0.73595357
-0.013557127 -0.0045190454 0.73568451
-0.01353394 -0.0056391358 0.7354176
-0.013511138 -0.0067555904 0.73515522
-0.013488414 -0.0078682005 0.73489356
-0.013465765 -0.008977145 0.73463285
-0.013443244 -0.010082453 0.73437363
-0.013420949 -0.011184096 0.73411697
-0.013399281 -0.01228267 0.73386753
-0.013377734 -0.013377726 0.73361951
-0.013356205 -0.014469236 0.73337173
-0.013334796 -0.01555723 0.73312527
-0.013313404 -0.016641736 0.73287904
-0.013292577 -0.017723411 0.73263931
-0.013272062 -0.018802047 0.73240316
-0.013251758 -0.019877642 0.73216945
-0.013231516 -0.0209499 0.7319364
-0.013211286 -0.02201882 0.73170352
-0.013191265 -0.0230847 0.73147303
-0.013171644 -0.024148017 0.73124725
-0.01315247 -0.025208861 0.73102653
-0.013133351 -0.026266694 0.73080641
-0.013114336 -0.027321488 0.73058754
-0.013095328 -0.028373212 0.73036873
-0.01307647 -0.029422045 0.73015165
-0.013058288 -0.030469328 0.72994238
-0.013040347 -0.031514168 0.72973585
-0.013022408 -0.032555997 0.72952938
-0.013004518 -0.033594996 0.72932345
-0.012986678 -0.034631133 0.72911811
-0.012969263 -0.035665482 0.7289176
-0.012952412 -0.036698461 0.72872365
-0.012935651 -0.037728965 0.7285307
-0.012918887 -0.038756609 0.72833765
-0.012902166 -0.03978166 0.72814518
-0.012885535 -0.040804178 0.72795379
-0.01286969 -0.041826487 0.7277714
-0.012854069 -0.042846888 0.72759163
-0.012854115 -0.043918192 0.72759211
-0.012894521 -0.045130789 0.72805727
-0.012998503 -0.04657796 0.72925419
-0.013142153 -0.048187882 0.7309078
-0.013305215 -0.049894542 0.73278475
-0.013498158 -0.051742941 0.7350058
-0.013747007 -0.053842425 0.73787034
-0.01415171 -0.056606799 0.7425288
-0.014438845 0.064318538 0.76094377
-0.014427701 0.062957257 0.76080382
-0.014377039 0.061429173 0.7601676
-0.014323846 0.059899747 0.75949967
-0.014158755 0.057922184 0.75742644
-0.013983305 0.055933267 0.75522327
-0.013831832 0.054069936 0.75332117
-0.013697756 0.052300543 0.75163746
-0.013595967 0.050675899 0.7503593
-0.013560125 0.049309582 0.74990916
-0.013527994 0.047962904 0.74950564
-0.013496127 0.046623021 0.74910557
-0.013464409 0.045289397 0.74870718
-0.01343284 0.043962061 0.7483108
-0.013401913 0.042642444 0.74792242
-0.013371128 0.041328967 0.74753582
-0.013340537 0.040021628 0.74715173
-0.013310088 0.03872031 0.74676931
-0.013280207 0.037426084 0.74639416
-0.013250569 0.036137909 0.74602193
-0.013221062 0.034855545 0.74565136
-0.013191687 0.033578843 0.74528253
-0.013162811 0.032308757 0.7449199
-0.013134222 0.031044513 0.7445609
-0.013105808 0.029785931 0.74420416
-0.013077465 0.028532684 0.74384815
-0.013049503 0.027285337 0.74349707
-0.01302187 0.026043743 0.74315006
-0.012994403 0.024807543 0.74280506
-0.012967104 0.023576587 0.74246234
-0.012939971 0.022350878 0.74212158
-0.012913359 0.021130979 0.74178737
-0.012886906 0.019916147 0.7414552
-0.012860564 0.018706292 0.74112439
-0.012834325 0.017501384 0.74079496
-0.012808598 0.01630187 0.7404719
-0.012783121 0.015107334 0.74015194
-0.012757698 0.013917536 0.7398327
-0.012732473 0.012732506 0.73951596
-0.0127073 0.011552095 0.73919976
-0.012682668 0.010376781 0.73889047
-0.012658228 0.009205997 0.73858356
-0.012633933 0.0080397725 0.73827851
-0.01260973 0.0068780482 0.73797452
-0.012585716 0.0057207644 0.73767298
-0.012562132 0.0045681 0.73737681
-0.01253873 0.0034196675 0.73708296
-0.012515512 0.0022755861 0.73679143
-0.012492334 0.0011357069 0.73650038
-0.012469478 2.9802322e-08 0.73621333
-0.012446894 -0.0011315048 0.73592973
-0.012424488 -0.0022589862 0.73564839
-0.012402208 -0.0033824146 0.73536861
-0.012380008 -0.0045017898 0.73508984
-0.012358121 -0.0056173205 0.734815
-0.012336404 -0.0067289472 0.73454225
-0.012315087 -0.0078368485 0.73427463
-0.012293799 -0.0089409351 0.73400724
-0.012272583 -0.010041177 0.73374093
-0.01225167 -0.011137843 0.73347819
-0.012231012 -0.012231022 0.73321879
-0.012210696 -0.013320744 0.73296368
-0.012190448 -0.01440686 0.73270941
-0.012170266 -0.015489429 0.73245609
-0.012150152 -0.016568363 0.73220342
-0.012130193 -0.017643899 0.73195279
-0.012110883 -0.018716812 0.73171031
-0.01209159 -0.019786209 0.73146802
-0.012072448 -0.020852387 0.73122764
-0.01205332 -0.021915138 0.73098743
-0.012034299 -0.022974521 0.73074859
-0.012015469 -0.024030894 0.73051214
-0.011997227 -0.025085092 0.73028308
-0.011979126 -0.026136249 0.73005575
-0.011961038 -0.027184159 0.7298286
-0.011943047 -0.028228998 0.72960263
-0.011925066 -0.029270589 0.72937691
-0.011907358 -0.030309618 0.72915453
-0.011890262 -0.031347036 0.72893989
-0.011873215 -0.032381475 0.72872579
-0.011856262 -0.033413082 0.72851282
-0.011839313 -0.03444165 0.72830003
-0.011822412 -0.035467237 0.72808778
-0.011805901 -0.036490977 0.72788048
-0.01178986 -0.037513167 0.72767901
-0.011773906 -0.038532794 0.72747868
-0.011757951 -0.03954944 0.72727835
-0.011742041 -0.040563375 0.72707856
-0.011726174 -0.041574597 0.72687936
-0.011711481 -0.042587161 0.7266947
-0.011717563 -0.043674558 0.72677118
-0.011757698 -0.044892997 0.72727519
-0.011859958 -0.046361655 0.72855926
-0.011982813 -0.047931224 0.73010206
-0.012118511 -0.049575716 0.7318061
-0.012274655 -0.051330388 0.73376685
-0.012464584 -0.053257734 0.73615193
-0.012689309 -0.055371523 0.73897386
-0.012890106 -0.057419538 0.74149537
-0.013115861 0.064267755 0.7608006
-0.013098992 0.062875211 0.76056755
-0.013053743 0.06135264 0.75994253
-0.012995957 0.059781432 0.75914437
-0.012824637 0.057710886 0.75677782
-0.012670392 0.055749744 0.75464725
-0.012536651 0.053907603 0.75279975
-0.012417668 0.052154213 0.75115621
-0.012342735 0.050605267 0.75012118
-0.012312331 0.049249321 0.7497012
-0.012282228 0.047900707 0.7492854
-0.012252576 0.046559811 0.7488758
-0.012223317 0.045226276 0.74847162
-0.012194148 0.04389894 0.74806869
-0.012165166 0.042578101 0.74766839
-0.012136571 0.041264385 0.74727339
-0.012108307 0.039957464 0.74688303
-0.012080222 0.038656741 0.74649501
-0.01205227 0.037362069 0.74610895
-0.01202459 0.036073804 0.74572659
-0.011997328 0.034792244 0.74535006
-0.011970239 0.033516705 0.74497581
-0.01194327 0.032246828 0.74460334
-0.011916567 0.03098309 0.74423444
-0.011890267 0.029725701 0.74387109
-0.011864131 0.028473914 0.74351007
-0.01183811 0.0272277 0.74315065
-0.01181239 0.025987267 0.74279541
-0.011786922 0.024752527 0.74244356
-0.011761749 0.02352351 0.74209595
-0.011736684 0.022299737 0.74174964
-0.011711678 0.02108106 0.74140418
-0.011687147 0.019868195 0.74106538
-0.011662764 0.018660456 0.74072862
-0.011638574 0.017457902 0.74039447
-0.01161444 0.016260207 0.74006104
-0.011590585 0.015067786 0.73973155
-0.011567143 0.013880581 0.73940772
-0.01154375 0.012698174 0.7390846
-0.011520498 0.011520505 0.73876339
-0.011497381 0.010347664 0.73844409
-0.011474669 0.0091797411 0.73813033
-0.011452178 0.0080165267 0.73781967
-0.011429818 0.0068579018 0.73751086
-0.011407504 0.0057037473 0.73720253
-0.011385274 0.0045541525 0.7368955
-0.01136361 0.0034091175 0.73659629
-0.011341984 0.0022684336 0.73629755
-0.011320528 0.0011320412 0.73600113
-0.011299151 -0 0.73570585
-0.01127794 -0.0011277497 0.7354129
-0.01125715 -0.0022514164 0.73512578
-0.01123648 -0.0033709109 0.73484021
-0.011215969 -0.004486382 0.73455685
-0.011195492 -0.0055977404 0.73427403
-0.011175257 -0.0067051351 0.73399448
-0.011155262 -0.0078086555 0.73371828
-0.011135505 -0.008908391 0.73344541
-0.011115818 -0.010004222 0.73317349
-0.011096243 -0.011096239 0.732903
-0.011076817 -0.012184501 0.73263472
-0.011057667 -0.013269186 0.7323702
-0.011038787 -0.014350355 0.73210937
-0.011020012 -0.015428007 0.73185003
-0.01100126 -0.016501844 0.73159105
-0.010982612 -0.017572194 0.73133349
-0.010964391 -0.018639445 0.73108172
-0.010946433 -0.019703567 0.73083371
-0.010928532 -0.020764202 0.73058641
-0.010910691 -0.02182138 0.73034
-0.010892907 -0.0228751 0.73009431
-0.010875182 -0.023925364 0.72984946
-0.01085799 -0.024973333 0.72961199
-0.01084093 -0.026018232 0.72937638
-0.010824003 -0.027059972 0.72914255
-0.01080709 -0.028098404 0.7289089
-0.01079023 -0.029133618 0.72867602
-0.01077346 -0.030165672 0.72844434
-0.01075725 -0.031195998 0.7282204
-0.010741204 -0.032223582 0.72799885
-0.010725244 -0.033248216 0.72777832
-0.010709294 -0.03426972 0.72755802
-0.010693429 -0.035288274 0.72733885
-0.010677611 -0.036303878 0.7271204
-0.010662374 -0.037318319 0.72690988
-0.010647296 -0.038330257 0.72670162
-0.010632299 -0.039339483 0.72649443
-0.010617306 -0.040345758 0.72628736
-0.010602354 -0.041349173 0.72608083
-0.010590121 -0.042360455 0.72591186
-0.010598651 -0.043454409 0.72602963
-0.010645657 -0.044711739 0.72667903
-0.010736938 -0.046168804 0.72793984
-0.010841602 -0.047703028 0.72938561
-0.010955747 -0.049300849 0.73096234
-0.011083257 -0.050982952 0.73272371
-0.011232957 -0.052794874 0.73479152
-0.011378131 -0.054614991 0.73679686
-0.011488632 -0.056294262 0.73832321
-0.011840671 0.065781504 0.76135921
-0.011800787 0.06424877 0.76074708
-0.011783591 0.062845826 0.76048315
-0.01174033 0.061310649 0.75981921
-0.011669386 0.059643537 0.75873035
-0.011510852 0.057554275 0.75629711
-0.011375487 0.055613518 0.75421953
-0.011256509 0.053781092 0.75239342
-0.011150063 0.052033663 0.75075972
-0.01109842 0.050559521 0.74996704
-0.011070785 0.049203515 0.74954295
-0.011043288 0.047854245 0.74912089
-0.011015881 0.046511501 0.74870026
-0.010988791 0.045176148 0.74828446
-0.010962147 0.043848604 0.74787557
-0.010935633 0.042527467 0.74746859
-0.010909291 0.041212887 0.74706429
-0.010883076 0.039904624 0.7466619
-0.010857427 0.03860423 0.74626827
-0.010831854 0.037309766 0.74587584
-0.010806445 0.036021471 0.7454859
-0.0107812 0.034739435 0.74509835
-0.010756416 0.033464432 0.74471796
-0.01073179 0.032195389 0.74434
-0.010707234 0.030932039 0.74396312
-0.010682917 0.029674768 0.74358988
-0.010658881 0.028423727 0.74322104
-0.010635122 0.027178675 0.74285632
-0.010611468 0.025939167 0.74249333
-0.01058792 0.024705172 0.74213183
-0.010564767 0.023477256 0.74177653
-0.010541798 0.022254944 0.74142402
-0.01051897 0.021037966 0.74107361
-0.010496242 0.019826263 0.7407248
-0.010473898 0.018620282 0.74038184
-0.010451689 0.017419487 0.74004102
-0.010429656 0.016223937 0.73970282
-0.010407716 0.015033364 0.73936611
-0.010386029 0.013848037 0.73903328
-0.010364633 0.012667924 0.7387048
-0.010343324 0.01149261 0.73837781
-0.010322143 0.010322154 0.73805273
-0.010301089 0.0091565251 0.73772955
-0.010280318 0.0079958439 0.73741078
-0.010259827 0.0068399012 0.73709631
-0.010239378 0.0056885481 0.73678243
-0.010219088 0.0045418441 0.736471
-0.01019884 0.0033996403 0.73616028
-0.010179098 0.0022620261 0.73585725
-0.010159432 0.0011288226 0.73555541
-0.010139842 5.9604645e-08 0.73525476
-0.010120327 -0.0011244714 0.73495525
-0.010100964 -0.0022446513 0.734658
-0.010081978 -0.0033606291 0.7343666
-0.010063101 -0.0044724941 0.73407692
-0.010044332 -0.0055801868 0.73378885
-0.010025596 -0.0066837072 0.7335012
-0.010007042 -0.0077832043 0.73321652
-0.0099888546 -0.0088790059 0.7329374
-0.0099708075 -0.0099707842 0.73266041
-0.0099528255 -0.011058688 0.73238438
-0.009934945 -0.012142688 0.73210996
-0.0099172024 -0.013222933 0.73183769
-0.0098997066 -0.014299572 0.73156917
-0.0098824538 -0.015372694 0.73130435
-0.0098652244 -0.016442031 0.73103988
-0.0098480564 -0.017507643 0.73077637
-0.0098310187 -0.018569678 0.73051488
-0.0098142568 -0.019628525 0.73025769
-0.0097977314 -0.020684093 0.73000401
-0.009781261 -0.021736115 0.72975123
-0.0097648464 -0.022784621 0.72949928
-0.0097484868 -0.023829579 0.72924817
-0.0097324997 -0.024871945 0.72900283
-0.0097167771 -0.025911391 0.72876143
-0.0097011058 -0.026947469 0.72852093
-0.0096854838 -0.027980268 0.72828126
-0.009669912 -0.0290097 0.72804224
-0.0096543562 -0.030035764 0.72780347
-0.0096391626 -0.031059533 0.7275703
-0.0096242931 -0.032080978 0.72734207
-0.0096094348 -0.033099145 0.72711396
-0.0095946584 -0.034114361 0.72688723
-0.0095798913 -0.035126269 0.72666055
-0.0095651699 -0.036135048 0.72643459
-0.009550767 -0.03714186 0.72621357
-0.0095367469 -0.038146973 0.7259984
-0.0095227677 -0.039149135 0.72578382
-0.009508796 -0.040148228 0.72556937
-0.0094948979 -0.04114455 0.7253561
-0.0094863838 -0.042161703 0.72522545
-0.0094984025 -0.043270499 0.72540987
-0.0095447386 -0.044542104 0.72612101
-0.0096272361 -0.045996726 0.72738719
-0.009715965 -0.047500253 0.72874904
-0.0098118456 -0.049059242 0.73022068
-0.009917018 -0.050686955 0.73183489
-0.010037251 -0.052416712 0.73368013
-0.010132317 -0.054039001 0.73513925
-0.010207124 -0.055572122 0.73628736
-0.010517318 0.065733224 0.76122588
-0.010487508 0.064236015 0.76071113
-0.010470247 0.062821507 0.76041311
-0.010432554 0.061291277 0.75976229
-0.01035009 0.059513032 0.75833845
-0.01021136 0.05743891 0.75594306
-0.010092456 0.055508524 0.75388992
-0.0099876812 0.053683817 0.75208086
-0.0098963669 0.051955938 0.75050414
-0.0098597016 0.05053097 0.74987108
-0.0098343119 0.049171537 0.74943268
-0.0098094959 0.047821313 0.74900424
-0.0097847655 0.046477646 0.74857724
-0.009760201 0.045140952 0.74815297
-0.0097357184 0.043810725 0.74773031
-0.0097117936 0.042489111 0.74731719
-0.0096879872 0.041173995 0.74690616
-0.0096642571 0.039865077 0.74649644
-0.0096406825 0.038562745 0.74608934
-0.0096175727 0.037268102 0.74569035
-0.00959465 0.035979956 0.74529457
-0.0095717981 0.034697801 0.74489999
-0.0095491325 0.033421963 0.74450862
-0.0095267259 0.032152712 0.74412167
-0.0095045762 0.030889899 0.74373931
-0.0094825663 0.029633015 0.74335921
-0.009460697 0.028382123 0.74298161
-0.009439039 0.02713725 0.74260765
-0.0094177052 0.025898695 0.74223936
-0.0093964674 0.024665743 0.74187255
-0.0093753245 0.023438334 0.74150753
-0.0093544601 0.022216827 0.74114728
-0.0093337623 0.021001011 0.74078983
-0.0093132649 0.019790709 0.74043596
-0.0092928587 0.018585771 0.74008358
-0.0092726843 0.017386287 0.73973525
-0.0092527065 0.016192257 0.73939031
-0.0092328861 0.015003473 0.739048
-0.0092132213 0.013819873 0.7387085
-0.0091936756 0.012641311 0.73837107
-0.0091744252 0.011468053 0.73803872
-0.0091552557 0.010299653 0.73770773
-0.0091362353 0.0091362596 0.73737919
-0.0091173295 0.0079776943 0.7370528
-0.0090986751 0.0068240166 0.73673069
-0.0090802014 0.0056751668 0.73641169
-0.0090618031 0.0045309365 0.73609406
-0.0090435473 0.0033913255 0.73577887
-0.0090253307 0.0022563338 0.73546433
-0.009007494 0.0011259317 0.7351563
-0.0089897951 -0 0.73485076
-0.008972167 -0.0011214912 0.73454636
-0.008954607 -0.0022386014 0.73424315
-0.0089371828 -0.00335145 0.73394233
-0.0089201275 -0.0044600368 0.73364782
-0.00890317 -0.005564481 0.73335505
-0.0088862441 -0.0066646934 0.73306274
-0.0088693835 -0.0077606738 0.73277164
-0.0088526504 -0.0088526309 0.73248267
-0.0088362442 -0.0099407434 0.73219943
-0.0088199638 -0.011024922 0.73191833
-0.0088037429 -0.012105137 0.73163831
-0.0087875826 -0.013181329 0.73135924
-0.0087715127 -0.014253676 0.73108172
-0.0087557929 -0.015322626 0.73081028
-0.0087402249 -0.01638791 0.73054153
-0.0087246802 -0.017449319 0.73027313
-0.0087092211 -0.018507093 0.73000622
-0.0086938189 -0.019561082 0.72974026
-0.0086787231 -0.020611972 0.72947961
-0.0086637754 -0.021659404 0.72922146
-0.008648878 -0.02270332 0.72896427
-0.0086340327 -0.02374357 0.72870791
-0.0086192684 -0.024780393 0.72845304
-0.0086047733 -0.025814295 0.7282027
-0.0085904812 -0.026845247 0.72795588
-0.0085762357 -0.027872741 0.72771001
-0.0085620396 -0.028896868 0.72746485
-0.0085478891 -0.029917598 0.72722054
-0.0085339695 -0.030935615 0.72698021
-0.0085203694 -0.031951368 0.72674537
-0.0085068122 -0.032963872 0.72651124
-0.0084932977 -0.033973157 0.72627795
-0.0084798271 -0.034979254 0.72604531
-0.0084663993 -0.035982162 0.72581351
-0.0084531037 -0.036982298 0.72558391
-0.0084402096 -0.037980884 0.72536129
-0.0084273834 -0.03897661 0.7251398
-0.0084145665 -0.039969176 0.72491848
-0.0084018195 -0.040958852 0.72469842
-0.0083948523 -0.041974217 0.72457808
-0.0084113842 -0.043108314 0.72486353
-0.0084588137 -0.044408768 0.72568244
-0.0085291052 -0.045843899 0.72689617
-0.0086037461 -0.047320575 0.728185
-0.0086837597 -0.048846126 0.72956651
-0.0087706083 -0.050430954 0.73106611
-0.008867234 -0.052094996 0.73273456
-0.0089295357 -0.053577214 0.73381031
-0.0089840591 -0.055027336 0.7347517
-0.0092074154 0.065767288 0.76131988
-0.009181994 0.064273983 0.76081824
-0.0091647329 0.062843919 0.76047754
-0.0091296053 0.061298788 0.7597844
-0.009042914 0.059424877 0.75807369
-0.0089223031 0.057357728 0.75569367
-0.0088187046 0.055431843 0.75364929
-0.00872768 0.053612918 0.75185311
-0.008652267 0.051913619 0.75036496
-0.0086248806 0.050517172 0.74982452
-0.0086023202 0.049156159 0.7493794
-0.0085798427 0.047802031 0.74893582
-0.0085577983 0.046456635 0.74850082
-0.0085359383 0.045118541 0.74806947
-0.0085142236 0.04378745 0.74764091
-0.0084925843 0.042462945 0.7472139
-0.0084713316 0.041146487 0.74679452
-0.008450252 0.039836884 0.74637854
-0.0084293131 0.038533986 0.7459653
-0.0084084077 0.037237257 0.74555284
-0.0083879111 0.035948217 0.74514842
-0.0083676148 0.034665853 0.74474788
-0.0083473837 0.033389568 0.74434865
-0.0083273165 0.032119691 0.74395257
-0.0083075101 0.03085649 0.74356174
-0.0082879309 0.029599756 0.74317539
-0.0082684439 0.028348982 0.74279082
-0.0082491124 0.027104259 0.74240935
-0.0082299048 0.025865436 0.74203032
-0.0082109803 0.024632961 0.74165696
-0.0081922067 0.023406327 0.74128646
-0.0081735197 0.022185296 0.74091768
-0.0081550451 0.020970136 0.74055314
-0.0081367167 0.019760609 0.74019146
-0.0081185987 0.018556833 0.73983395
-0.0081005599 0.017358333 0.73947799
-0.0080826962 0.016165435 0.73912549
-0.0080649722 0.014977783 0.73877573
-0.0080474522 0.013795674 0.73842996
-0.0080300374 0.012618661 0.7380864
-0.0080127595 0.011446804 0.7377454
-0.0079957107 0.010280222 0.73740894
-0.0079787029 0.009118557 0.7370733
-0.0079618897 0.0079619288 0.73674154
-0.0079451455 0.0068101287 0.73641115
-0.0079286853 0.0056633651 0.73608631
-0.0079122921 0.0045213401 0.73576283
-0.0078960257 0.0033840239 0.73544186
-0.007879856 0.0022514164 0.7351228
-0.0078637833 0.0011234283 0.73480564
-0.0078480123 2.9802322e-08 0.73449439
-0.0078323036 -0.0011188984 0.73418438
-0.0078166584 -0.0022333264 0.73387569
-0.0078011043 -0.0033433139 0.73356879
-0.0077856998 -0.0044489503 0.73326474
-0.0077705877 -0.0055503845 0.73296654
-0.0077555054 -0.0066475868 0.73266894
-0.0077405102 -0.0077404678 0.73237306
-0.0077255736 -0.008829236 0.73207825
-0.0077107796 -0.0099138319 0.73178637
-0.0076962695 -0.010994643 0.73150003
-0.0076818145 -0.012071371 0.73121476
-0.0076674419 -0.013144165 0.73093116
-0.0076530944 -0.014212877 0.7306481
-0.0076388847 -0.015277743 0.73036766
-0.0076249517 -0.016339153 0.7300927
-0.0076110684 -0.017396688 0.7298187
-0.0075972639 -0.018450469 0.72954631
-0.0075835097 -0.019500434 0.72927487
-0.0075698323 -0.020546675 0.72900498
-0.007556478 -0.021589935 0.72874153
-0.0075431988 -0.022629589 0.72847944
-0.0075299931 -0.023665667 0.72821885
-0.0075168065 -0.024698049 0.72795862
-0.007503693 -0.025726914 0.72769988
-0.0074908407 -0.026753008 0.72744626
-0.0074781133 -0.027775854 0.72719508
-0.0074654287 -0.028795213 0.7269448
-0.0074528139 -0.029811233 0.7266959
-0.007440215 -0.030823737 0.72644722
-0.0074278447 -0.031833619 0.72620314
-0.0074156732 -0.032840818 0.72596294
-0.0074035414 -0.033844739 0.72572351
-0.0073914761 -0.034845531 0.72548544
-0.0073794234 -0.035842866 0.72524756
-0.0073674629 -0.03683728 0.72501159
-0.0073558777 -0.037830204 0.724783
-0.0073443297 -0.038820028 0.72455502
-0.0073328181 -0.039806694 0.72432792
-0.0073213424 -0.040790319 0.72410148
-0.0073198751 -0.041827857 0.72407252
-0.007335919 -0.042967528 0.72438914
-0.0073819878 -0.044291914 0.72529823
-0.0074409065 -0.045708388 0.72646081
-0.0075030169 -0.047161818 0.72768652
-0.0075691165 -0.04865858 0.72899085
-0.0076402309 -0.050207227 0.73039418
-0.0077144946 -0.051797271 0.73185962
-0.0077581359 -0.053198665 0.73272085
-0.0077988831 -0.054592192 0.73352492
-0.0078987777 0.065823168 0.76147425
-0.0078756642 0.064317942 0.76094222
-0.0078597069 0.062877685 0.7605747
-0.0078289472 0.061326802 0.7598666
-0.0077448459 0.059377193 0.7579304
-0.007641302 0.057309747 0.75554663
-0.0075521707 0.05538258 0.75349462
-0.0074749771 0.053570658 0.75171751
-0.0074153659 0.051907539 0.75034511
-0.0073929382 0.050518423 0.74982882
-0.0073732343 0.049154907 0.7493751
-0.007353636 0.047798663 0.7489239
-0.0073341709 0.046449751 0.74847579
-0.0073149288 0.045108736 0.74803287
-0.0072959964 0.043776006 0.74759698
-0.007277132 0.042449951 0.7471627
-0.0072583938 0.04113093 0.74673128
-0.0072398996 0.039819449 0.74630547
-0.0072216745 0.038515627 0.74588591
-0.0072035119 0.037218153 0.74546778
-0.00718544 0.035927206 0.74505174
-0.0071676318 0.03464359 0.74464166
-0.007150026 0.033366799 0.74423647
-0.0071325353 0.032096416 0.74383378
-0.007115073 0.030831993 0.74343169
-0.007097865 0.029574454 0.74303555
-0.0070809089 0.02832365 0.74264514
-0.0070640058 0.027078688 0.74225605
-0.0070472108 0.025839806 0.74186939
-0.0070305793 0.024607003 0.74148649
-0.0070142183 0.023380727 0.74110979
-0.0069979331 0.022160143 0.74073488
-0.0069817784 0.02094534 0.740363
-0.0069657252 0.01973626 0.73999339
-0.0069498275 0.018532902 0.73962742
-0.0069341366 0.017335325 0.73926616
-0.0069184895 0.016143173 0.73890591
-0.0069030193 0.014956564 0.73854977
-0.0068876445 0.013775289 0.73819584
-0.0068724449 0.012599498 0.7378459
-0.006857364 0.011428952 0.73749864
-0.0068424018 0.010263622 0.73715425
-0.006827584 0.009103477 0.73681307
-0.0068128551 0.007948339 0.73647404
-0.0067982939 0.0067982972 0.73613882
-0.0067837946 0.0056532025 0.73580498
-0.0067694853 0.0045129955 0.73547554
-0.0067552878 0.003377676 0.73514867
-0.0067411494 0.0022470951 0.73482317
-0.006727146 0.0011211634 0.73450083
-0.0067132516 2.9802322e-08 0.73418087
-0.0066995653 -0.0011165738 0.7338658
-0.0066859345 -0.0022286177 0.73355198
-0.0066723339 -0.0033361316 0.73323888
-0.0066588884 -0.0044392347 0.73292935
-0.006645571 -0.005537957 0.73262274
-0.00663243 -0.0066324174 0.73232019
-0.0066193654 -0.0077225864 0.73201948
-0.0066063032 -0.0088083744 0.73171872
-0.0065933657 -0.0098900497 0.73142093
-0.0065805758 -0.010967612 0.73112643
-0.0065679806 -0.012041271 0.73083651
-0.0065554092 -0.013110816 0.73054707
-0.0065429099 -0.014176279 0.7302593
-0.0065304581 -0.015237689 0.7299726
-0.0065181726 -0.016295373 0.72968978
-0.0065060998 -0.017349571 0.72941184
-0.0064940476 -0.018399775 0.72913438
-0.0064820396 -0.019446105 0.72885793
-0.0064701 -0.02048862 0.72858304
-0.006458228 -0.02152738 0.72830969
-0.0064466316 -0.022563189 0.72804278
-0.0064350767 -0.023595273 0.72777677
-0.0064235637 -0.024623632 0.7275117
-0.0064120917 -0.025648355 0.7272476
-0.0064006606 -0.026669413 0.72698438
-0.0063895443 -0.027687997 0.72672844
-0.0063784667 -0.028703094 0.72647345
-0.0063674506 -0.029714763 0.72621983
-0.0063564498 -0.030722857 0.72596657
-0.0063455091 -0.031727523 0.72571474
-0.0063347635 -0.032729596 0.72546732
-0.0063241664 -0.033728868 0.72522336
-0.0063135829 -0.034724683 0.7249797
-0.0063030338 -0.03571716 0.72473681
-0.0062925206 -0.036706328 0.72449476
-0.006282175 -0.037693024 0.72425658
-0.006272017 -0.038677424 0.72402281
-0.0062618926 -0.039658636 0.72378969
-0.0062526106 -0.040641963 0.72357595
-0.006252523 -0.041683465 0.72357404
-0.0062706503 -0.042849451 0.72399127
-0.0063126669 -0.044188648 0.7249586
-0.0063611856 -0.045588464 0.72607553
-0.0064120917 -0.047021985 0.7272476
-0.0064658569 -0.048493892 0.72848535
-0.0065232245 -0.050011367 0.72980613
-0.0065797507 -0.051541388 0.73110741
-0.0066089705 -0.052871764 0.73178017
-0.0066433689 -0.054254174 0.73257208
-0.0065919152 0.065919191 0.76173949
-0.006572627 0.064411759 0.76120657
-0.0065577859 0.062954783 0.76079667
-0.0065303114 0.061384946 0.76003754
-0.0064534219 0.059371531 0.75791335
-0.006366143 0.057295322 0.75550222
-0.0062920381 0.055369943 0.75345486
-0.0062271128 0.053553194 0.7516613
-0.0061807814 0.051918596 0.75038129
-0.0061629522 0.050536245 0.74988872
-0.0061459877 0.049167901 0.74942005
-0.0061293687 0.047809094 0.74896091
-0.0061128642 0.046457797 0.74850494
-0.0060964241 0.045113564 0.74805075
-0.0060801711 0.043777287 0.74760181
-0.006064178 0.042449266 0.7471599
-0.0060482682 0.041128218 0.74672037
-0.0060324417 0.039814144 0.74628317
-0.0060167955 0.038507491 0.74585092
-0.0060014003 0.037208706 0.74542558
-0.005986107 0.035916656 0.7450031
-0.0059708678 0.034631044 0.74458206
-0.0059558493 0.033352762 0.74416715
-0.0059410245 0.032081544 0.74375761
-0.0059262733 0.030816644 0.74335015
-0.0059115957 0.029558003 0.7429446
-0.0058970833 0.028306037 0.74254364
-0.0058827824 0.027060837 0.74214864
-0.0058685737 0.025821745 0.74175602
-0.0058544101 0.024588525 0.74136478
-0.0058403374 0.023361385 0.74097598
-0.0058265612 0.02214095 0.7405954
-0.005812827 0.020926207 0.74021602
-0.0057991794 0.019717246 0.7398389
-0.0057856413 0.018514067 0.73946488
-0.0057722782 0.017316818 0.73909575
-0.005759066 0.016125411 0.73873073
-0.0057458915 0.014939308 0.73836678
-0.005732866 0.013758898 0.73800695
-0.0057198773 0.012583762 0.73764813
-0.005707101 0.01141423 0.73729515
-0.005694381 0.010249913 0.73694372
-0.0056817834 0.0090908408 0.73659569
-0.0056692841 0.0079370141 0.7362504
-0.0056568827 0.0067882538 0.73590779
-0.0056445999 0.0056446195 0.7355684
-0.0056323917 0.0045059323 0.7352311
-0.0056203422 0.0033722222 0.73489833
-0.0056083445 0.00224334 0.73456681
-0.0055964398 0.0011193156 0.73423791
-0.0055846483 2.9802322e-08 0.73391217
-0.0055729486 -0.0011145771 0.73358893
-0.0055613806 -0.0022245347 0.73326933
-0.0055498816 -0.0033299029 0.7329517
-0.0055384706 -0.0044307411 0.73263645
-0.0055271275 -0.0055271089 0.73232305
-0.0055159535 -0.0066191256 0.73201436
-0.0055048452 -0.0077067614 0.73170751
-0.0054938016 -0.008790046 0.73140234
-0.0054828022 -0.0098690093 0.73109847
-0.0054719076 -0.0109438 0.73079753
-0.0054611759 -0.012014538 0.73050106
-0.0054505263 -0.013081253 0.73020685
-0.0054399185 -0.014143795 0.72991377
-0.0054293517 -0.015202165 0.72962189
-0.0054188455 -0.016256511 0.72933161
-0.0054085376 -0.017307341 0.72904682
-0.005398327 -0.018354297 0.72876477
-0.0053881551 -0.019397348 0.72848368
-0.0053780023 -0.020436376 0.72820324
-0.0053679263 -0.021471709 0.72792488
-0.0053580035 -0.022503585 0.72765076
-0.0053481949 -0.023532003 0.7273798
-0.0053384411 -0.024556816 0.72711033
-0.0053287037 -0.025577754 0.72684133
-0.0053190016 -0.026594996 0.72657323
-0.0053093922 -0.027608812 0.72630775
-0.0053000054 -0.028620005 0.72604847
-0.0052906335 -0.029627532 0.72578955
-0.0052812947 -0.030631483 0.72553152
-0.0052719885 -0.031631917 0.7252745
-0.0052626966 -0.032628685 0.72501779
-0.0052536973 -0.033623666 0.72476912
-0.0052447105 -0.03461507 0.72452092
-0.0052357721 -0.035603225 0.72427386
-0.0052268463 -0.036587894 0.72402734
-0.0052179508 -0.037569255 0.72378159
-0.0052092499 -0.03854844 0.7235412
-0.0052006319 -0.039524794 0.72330314
-0.0051936028 -0.040510088 0.72310895
-0.0051954715 -0.041563749 0.72316056
-0.0052139438 -0.042754292 0.72367084
-0.005249802 -0.044098347 0.72466153
-0.0052886577 -0.045482457 0.72573501
-0.0053294678 -0.046899289 0.72686243
-0.0053721927 -0.048349738 0.72804278
-0.0054174243 -0.049840271 0.72929227
-0.0054561864 -0.051288128 0.73036319
-0.0054769455 -0.052578688 0.73093677
-0.0055107614 -0.054005444 0.73187095
-0.0052830875 0.066038638 0.76206946
-0.0052676243 0.064528435 0.76153547
-0.0052539906 0.063047916 0.76106459
-0.0052318312 0.061474085 0.76029938
-0.0051660333 0.05940938 0.7580272
-0.0050946809 0.057315201 0.7555632
-0.0050350572 0.055385679 0.75350422
-0.0049824622 0.053561479 0.75168788
-0.0049477713 0.051951647 0.75048995
-0.0049336539 0.050569981 0.75000238
-0.00491982 0.04919824 0.74952465
-0.004906063 0.047834158 0.7490496
-0.0048925239 0.046479017 0.74858201
-0.0048791394 0.045132071 0.74811983
-0.0048658275 0.043792486 0.74766016
-0.0048526283 0.042460531 0.7472043
-0.0048396774 0.041137278 0.74675709
-0.0048268153 0.039821237 0.74631286
-0.0048140017 0.038512021 0.74587041
-0.0048013139 0.037210196 0.74543232
-0.0047888276 0.035916209 0.74500108
-0.0047764448 0.034629226 0.74457347
-0.0047641071 0.033348799 0.74414742
-0.0047518895 0.032075256 0.74372548
-0.0047398852 0.030809283 0.74331093
-0.0047279415 0.029549658 0.74289846
-0.0047160774 0.028296471 0.7424888
-0.0047043092 0.02704978 0.74208236
-0.0046927473 0.025810152 0.74168313
-0.0046812426 0.024576545 0.7412858
-0.0046698125 0.023349106 0.7408911
-0.0046584378 0.022127599 0.7404983
-0.004647282 0.020912766 0.74011314
-0.0046361974 0.019703865 0.7397303
-0.0046251481 0.018500626 0.73934871
-0.0046141688 0.017303169 0.73896956
-0.0046033664 0.016111821 0.73859656
-0.0045926496 0.014926136 0.73822641
-0.0045820181 0.013746083 0.73785931
-0.0045714527 0.012571514 0.73749441
-0.0045609544 0.011402398 0.73713189
-0.0045506256 0.010238916 0.73677522
-0.0045403433 0.009080708 0.73642015
-0.004530177 0.007927835 0.73606902
-0.0045200381 0.0067800581 0.73571897
-0.0045099962 0.0056374669 0.73537219
-0.0045000669 0.0045000911 0.73502922
-0.0044902153 0.0033676922 0.73468906
-0.0044804569 0.0022402704 0.73435205
-0.0044707409 0.0011176765 0.73401654
-0.0044611343 5.9604645e-08 0.73368478
-0.0044516018 -0.0011129081 0.73335558
-0.0044421433 -0.0022210777 0.73302901
-0.0044327909 -0.0033245683 0.73270595
-0.0044234614 -0.0044234395 0.73238385
-0.0044142203 -0.005517751 0.73206466
-0.0044050505 -0.0066075325 0.73174804
-0.0043960158 -0.0076929927 0.73143601
-0.0043870346 -0.0087740421 0.73112589
-0.0043780734 -0.009850651 0.73081642
-0.0043691974 -0.010922939 0.73050988
-0.0043604053 -0.011991084 0.73020625
-0.0043517435 -0.013055235 0.72990721
-0.0043431167 -0.014115095 0.72960925
-0.0043345075 -0.015170783 0.729312
-0.0043259487 -0.016222268 0.72901642
-0.004317502 -0.017269969 0.72872466
-0.0043091816 -0.018314004 0.72843736
-0.0043008933 -0.019354016 0.72815114
-0.0042926366 -0.020390004 0.72786599
-0.0042844117 -0.021422058 0.72758204
-0.0042762337 -0.022450209 0.72729963
-0.0042682397 -0.023475349 0.72702354
-0.0042602913 -0.024496675 0.726749
-0.0042523723 -0.025514215 0.72647554
-0.0042444826 -0.026528031 0.72620308
-0.0042366222 -0.027538031 0.7259317
-0.0042289407 -0.02854532 0.72566646
-0.0042213025 -0.029549092 0.72540271
-0.0042136917 -0.030549228 0.72513974
-0.0042061233 -0.031545877 0.72487843
-0.004198567 -0.032538921 0.72461748
-0.0041911118 -0.033528864 0.72435999
-0.0041837855 -0.034516245 0.72410709
-0.0041764709 -0.03549999 0.72385448
-0.0041691964 -0.036480457 0.72360325
-0.0041619469 -0.037457466 0.72335291
-0.0041547227 -0.038431168 0.7231034
-0.0041477112 -0.03940326 0.72286123
-0.0041428143 -0.040392429 0.72269219
-0.0041463953 -0.041463971 0.72281587
-0.004163316 -0.042673975 0.72340018
-0.0041922936 -0.044019043 0.72440082
-0.0042223213 -0.04538992 0.72543782
-0.0042537712 -0.046791434 0.72652382
-0.0042865882 -0.048224121 0.7276572
-0.0043210145 -0.049691677 0.72884601
-0.004346163 -0.051067382 0.72971445
-0.0043613804 -0.052336514 0.73023999
-0.0039711869 0.066186488 0.76247793
-0.0039590802 0.06466496 0.76192051
-0.0039491444 0.063186318 0.76146305
-0.0039314809 0.061593235 0.76064974
-0.0038799841 0.059493124 0.75827855
-0.0038251719 0.057377607 0.75575483
-0.0037793485 0.055430442 0.75364488
-0.0037392117 0.053595394 0.75179678
-0.0037145987 0.052004397 0.75066352
-0.0037038042 0.050618678 0.75016648
-0.0036932251 0.049243033 0.74967933
-0.0036827216 0.047875404 0.74919575
-0.0036722627 0.046515346 0.74871415
-0.0036619529 0.045164108 0.74823952
-0.0036517908 0.043821514 0.74777156
-0.0036416848 0.04248634 0.74730623
-0.0036316197 0.041158378 0.7468428
-0.0036217426 0.039839178 0.74638802
-0.003611963 0.038527608 0.74593771
-0.0036022358 0.03722313 0.74548984
-0.0035925899 0.035925895 0.74504578
-0.0035831106 0.034636766 0.74460924
-0.0035737099 0.03335464 0.74417639
-0.003564344 0.032079101 0.74374521
-0.0035550697 0.030810624 0.74331814
-0.0035459423 0.029549539 0.74289787
-0.0035368756 0.02829501 0.7424804
-0.003527869 0.027047008 0.74206567
-0.003518936 0.025805563 0.74165434
-0.0035101308 0.024570912 0.74124897
-0.0035013971 0.023342669 0.74084687
-0.0034927207 0.022120595 0.74044728
-0.0034841006 0.020904601 0.74005044
