# .PCD v0.7 - Point Cloud Data file format
VERSION 0.7
FIELDS x y z
SIZE 4 4 4
TYPE F F F
COUNT 1 1 1
WIDTH 1295
HEIGHT 1
VIEWPOINT 0 0 0 1 0 0 0
POINTS 1295
DATA ascii
-0.01821145 0.040325373 0.75931317
-0.018108955 0.038804919 0.75830191
-0.018007606 0.037301481 0.75730199
-0.017907463 0.035814941 0.7563138
-0.017808886 0.034345716 0.75534117
-0.017711384 0.032892585 0.75437921
-0.017614948 0.031455308 0.75342774
-0.017519481 0.030033439 0.75248575
-0.017425116 0.028626978 0.75155473
-0.017331762 0.027235657 0.7506336
-0.017239476 0.025859207 0.74972308
-0.017148096 0.024497271 0.74882144
-0.017057817 0.023149908 0.74793071
-0.016968763 0.021816969 0.74705207
-0.016880633 0.020497948 0.7461825
-0.016793415 0.019192487 0.74532199
-0.01670716 0.017900556 0.74447083
-0.016621653 0.016621649 0.74362725
-0.01653715 0.015355915 0.7427935
-0.016453564 0.014103055 0.74196875
-0.016370757 0.012862772 0.74115175
-0.016288841 0.011634916 0.74034351
-0.01620768 0.01041922 0.73954272
-0.016127635 0.009215802 0.7387529
-0.016048374 0.0080242157 0.73797089
-0.015969893 0.0068442225 0.73719656
-0.015892172 0.0056757927 0.73642969
-0.015815325 0.0045186877 0.73567152
-0.015739217 0.0033727288 0.73492062
-0.015663782 0.0022377074 0.73417628
-0.015589125 0.0011135042 0.73343968
-0.015515174 2.9802322e-08 0.73271
-0.01544192 -0.001102984 0.73198724
-0.015369358 -0.0021955967 0.73127127
-0.015297472 -0.003278017 0.73056203
-0.015226368 -0.0043503642 0.72986048
-0.015155978 -0.005412817 0.72916591
-0.015086289 -0.0064655244 0.72847837
-0.015017183 -0.0075086057 0.72779649
-0.014948816 -0.0085421801 0.72712195
-0.014881122 -0.0095664263 0.72645408
-0.014814037 -0.010581464 0.72579217
-0.014747555 -0.011587322 0.72513622
-0.014681667 -0.012584239 0.72448611
-0.014616366 -0.013572335 0.72384179
-0.014551591 -0.01455155 0.72320271
-0.014487439 -0.015522271 0.7225697
-0.01442385 -0.01648438 0.72194231
-0.014360816 -0.017438114 0.72132039
-0.014298331 -0.018383563 0.7207039
-0.014236486 -0.019320935 0.72009367
-0.01417522 -0.020250261 0.71948916
-0.014114575 -0.021171838 0.71889085
-0.014054447 -0.022085547 0.71829748
-0.013994831 -0.022991478 0.7177093
-0.013935716 -0.02388981 0.71712613
-0.013877099 -0.024780512 0.71654773
-0.01381902 -0.025663853 0.71597469
-0.013761379 -0.026539743 0.71540594
-0.013710083 -0.027420133 0.71489978
-0.013684308 -0.028346062 0.7146455
-0.013693579 -0.029343367 0.714737
-0.013732012 -0.030406594 0.71511626
-0.013777361 -0.031491071 0.71556365
-0.013823654 -0.03258431 0.71602041
-0.013870765 -0.033686131 0.7164852
-0.013919038 -0.034797579 0.7169615
-0.013968631 -0.035919279 0.71745086
-0.014018815 -0.037049681 0.71794593
-0.014069788 -0.038189411 0.71844894
-0.014085067 -0.039236963 0.71859968
-0.014091217 -0.040260613 0.71866035
-0.014115867 -0.041339308 0.71890354
-0.016016582 -0.048049718 0.73765725
-0.016275087 -0.049987763 0.74020779
-0.016485943 -0.051812977 0.74228823
-0.016648838 -0.053514123 0.74389547
-0.016789826 -0.055166572 0.74528652
-0.016907917 -0.056762278 0.74645174
-0.017012235 -0.058327615 0.74748099
-0.017167328 -0.060085624 0.74901116
-0.019042769 0.061522812 0.78196836
-0.018956309 0.059785306 0.78104973
-0.018326676 0.056389779 0.77435946
-0.017601132 0.052803427 0.7666502
-0.017486259 0.051113695 0.76542962
-0.017385062 0.049480587 0.76435429
-0.017285027 0.047866225 0.76329136
-0.017186062 0.046270192 0.76223975
-0.017088678 0.0446935 0.76120502
-0.016992465 0.043134749 0.76018274
-0.01689733 0.041593432 0.75917184
-0.016803326 0.04006952 0.75817293
-0.016710293 0.038562208 0.75718445
-0.016618282 0.037071556 0.75620675
-0.016527278 0.035597235 0.75523978
-0.016437335 0.034139097 0.75428414
-0.016348368 0.032696754 0.75333875
-0.016260562 0.031270325 0.75240582
-0.01617383 0.029859394 0.75148427
-0.01608802 0.028463453 0.75057238
-0.016003115 0.027082205 0.74967027
-0.0159191 0.02571547 0.74877751
-0.01583603 0.02436316 0.74789488
-0.015753755 0.023024768 0.74702066
-0.015672395 0.021700233 0.74615622
-0.015591935 0.020389467 0.74530119
-0.015512297 0.019092083 0.74445504
-0.015433468 0.017807841 0.74361742
-0.015355497 0.016536713 0.74278891
-0.015278431 0.015278429 0.74197006
-0.015202194 0.014032781 0.74115998
-0.015126655 0.012799501 0.74035728
-0.015051862 0.011578351 0.73956263
-0.014977865 0.010369301 0.73877633
-0.014904648 0.0091721117 0.73799837
-0.0148322 0.0079865754 0.73722857
-0.014760454 0.0068125129 0.73646623
-0.014689399 0.0056498051 0.73571122
-0.014619024 0.0044981837 0.73496348
-0.014549265 0.0033575296 0.73422217
-0.014480223 0.0022277236 0.73348856
-0.014411833 0.0011086166 0.73276192
-0.014344247 -0 0.7320438
-0.014277237 -0.0010982156 0.73133171
-0.014210853 -0.0021862686 0.7306264
-0.014145133 -0.0032642484 0.72992802
-0.014080121 -0.004332304 0.7292372
-0.014015704 -0.0053906739 0.72855282
-0.013951874 -0.0064392984 0.72787458
-0.013888624 -0.0074784756 0.72720253
-0.013825943 -0.0085082352 0.72653651
-0.013763875 -0.0095288157 0.72587693
-0.013702312 -0.010540247 0.72522283
-0.013641299 -0.011542648 0.72457457
-0.013580826 -0.012536138 0.72393197
-0.013520887 -0.013520867 0.72329509
-0.013461521 -0.014496982 0.72266424
-0.013402629 -0.015464514 0.72203851
-0.01334425 -0.016423672 0.72141814
-0.013286467 -0.017374575 0.72080421
-0.013229319 -0.018317521 0.72019702
-0.013172615 -0.019252241 0.71959448
-0.01311644 -0.020179123 0.7189976
-0.013060743 -0.021098107 0.71840578
-0.013005473 -0.022009254 0.7178185
-0.012950711 -0.022912771 0.71723664
-0.012896409 -0.023808718 0.71665967
-0.012842561 -0.024697185 0.71608746
-0.012789117 -0.025578231 0.71551961
-0.012736159 -0.026451975 0.71495688
-0.01269084 -0.027334094 0.71447527
-0.012672953 -0.028270423 0.71428525
-0.01268497 -0.029273003 0.71441293
-0.012721156 -0.030335039 0.7147975
-0.012762099 -0.03141436 0.71523249
-0.012803474 -0.032501101 0.71567214
-0.012845717 -0.033596456 0.71612102
-0.012889057 -0.034701288 0.71658146
-0.01293295 -0.035814315 0.71704793
-0.012978012 -0.036937386 0.71752667
-0.013019795 -0.038057834 0.71797073
-0.01302857 -0.039085686 0.71806389
-0.013033576 -0.040103287 0.71811712
-0.013067232 -0.041211993 0.71847469
-0.015018534 -0.048521399 0.73920846
-0.015232981 -0.050385982 0.74148715
-0.015408801 -0.052152812 0.74335527
-0.015555361 -0.053845495 0.74491262
-0.015676208 -0.055469632 0.74619669
-0.015784563 -0.057067275 0.74734801
-0.015875369 -0.058616757 0.74831289
-0.015966631 -0.060181916 0.7492826
-0.017506886 0.062732995 0.78115052
-0.017437598 0.06103164 0.78035295
-0.017293863 0.059087396 0.77869838
-0.016411798 0.054706037 0.76854491
-0.016134448 0.052436978 0.76535225
-0.016041979 0.050799608 0.76428783
-0.015950633 0.049181134 0.76323634
-0.01586025 0.047580749 0.76219594
-0.015770888 0.045998454 0.76116729
-0.015682526 0.044433802 0.76015013
-0.015595217 0.042886883 0.75914514
-0.015509011 0.041357368 0.75815284
-0.015423885 0.039845049 0.75717294
-0.015339688 0.038349241 0.75620377
-0.015256471 0.036869824 0.7552458
-0.015174087 0.035406232 0.75429749
-0.015092652 0.033958495 0.75336015
-0.015012024 0.032526076 0.75243193
-0.014932314 0.031109035 0.75151438
-0.014853385 0.029706776 0.75060582
-0.01477547 0.028319716 0.74970895
-0.014698367 0.026947021 0.74882138
-0.014622065 0.025588632 0.74794316
-0.014546611 0.024244368 0.74707454
-0.01447199 0.022914022 0.74621558
-0.014398188 0.021597296 0.74536604
-0.014325079 0.020293862 0.74452448
-0.014252764 0.019003689 0.74369204
-0.014181119 0.017726451 0.74286735
-0.014110192 0.016461909 0.74205095
-0.014040082 0.015210122 0.74124384
-0.013970719 0.013970733 0.74044544
-0.013902037 0.012743592 0.73965478
-0.013834028 0.011528403 0.73887193
-0.013766681 0.010325044 0.73809671
-0.013700039 0.0091333985 0.7373296
-0.013633988 0.007953167 0.73656929
-0.013568569 0.0067842901 0.7358163
-0.013503827 0.0056266189 0.735071
-0.01343975 0.0044799447 0.73433346
-0.01337628 0.0033440888 0.73360282
-0.013313404 0.0022189319 0.73287904
-0.013251117 0.0011042655 0.73216206
-0.01318951 2.9802322e-08 0.73145288
-0.013128519 -0.0010940135 0.7307508
-0.013068043 -0.0021780133 0.73005468
-0.013008168 -0.0032520294 0.72936541
-0.012948839 -0.0043162405 0.72868246
-0.012890049 -0.0053708255 0.72800577
-0.012831746 -0.0064158738 0.72733462
-0.012774012 -0.0074515045 0.72667003
-0.012716795 -0.0084778666 0.7260114
-0.012660044 -0.0094950199 0.72535819
-0.012603842 -0.010503173 0.72471118
-0.012548136 -0.011502445 0.72407001
-0.012492877 -0.012492865 0.72343391
-0.012438145 -0.013474643 0.72280389
-0.012383935 -0.014447898 0.72217983
-0.012330281 -0.015412837 0.72156227
-0.012277131 -0.016369522 0.72095048
-0.012224437 -0.017317921 0.72034383
-0.012172194 -0.018258274 0.71974248
-0.012120395 -0.01919058 0.71914625
-0.012069036 -0.020115048 0.71855497
-0.01201811 -0.021031678 0.71796876
-0.011967611 -0.021940589 0.7173875
-0.011917535 -0.02284193 0.71681106
-0.011867878 -0.023735762 0.71623945
-0.011818631 -0.024622172 0.71567261
-0.011769792 -0.025501221 0.71511042
-0.011721356 -0.026373059 0.71455288
-0.011682219 -0.027258486 0.71410233
-0.011670147 -0.028202862 0.71396339
-0.011683213 -0.029208034 0.71411377
-0.011717429 -0.03027001 0.71450764
-0.011754131 -0.031344354 0.71493018
-0.011791102 -0.032425523 0.71535569
-0.01182913 -0.033515841 0.71579349
-0.011867601 -0.034613818 0.71623623
-0.011906403 -0.035719186 0.71668291
-0.011946779 -0.036835879 0.71714777
-0.011978899 -0.037933201 0.71751744
-0.01198268 -0.038943678 0.71756095
-0.011985417 -0.039951384 0.71759248
-0.012036025 -0.041123033 0.71817499
-0.013970773 -0.048897684 0.74044603
-0.014160469 -0.050741643 0.74262965
-0.014307678 -0.052461475 0.74432421
-0.014438908 -0.054145873 0.74583477
-0.014543291 -0.055749238 0.74703634
-0.014642403 -0.057349414 0.74817723
-0.014718311 -0.058873206 0.74905097
-0.0147955 -0.06041497 0.74993956
-0.015914558 0.062211484 0.77947509
-0.015830385 0.060443282 0.77841806
-0.015321476 0.057107359 0.77202743
-0.014819927 0.053890675 0.76572919
-0.01470918 0.052150756 0.76433849
-0.014625989 0.050526142 0.76329386
-0.014543734 0.048919886 0.76226091
-0.014462464 0.047331721 0.7612403
-0.014382033 0.045761019 0.76023036
-0.014302554 0.044207901 0.75923228
-0.014223888 0.042671651 0.7582444
-0.014146142 0.041152447 0.75726813
-0.014069182 0.039649546 0.7563017
-0.013993055 0.038162887 0.7553457
-0.013917924 0.036692709 0.75440222
-0.013843596 0.035238296 0.75346887
-0.013770116 0.03379938 0.75254619
-0.013697469 0.032375842 0.75163388
-0.013625584 0.030967265 0.75073123
-0.01355445 0.029573381 0.74983788
-0.013484055 0.028193951 0.74895388
-0.013414387 0.026828766 0.74807912
-0.013345436 0.025477678 0.74721324
-0.013277189 0.024140358 0.74635625
-0.013209637 0.022816658 0.74550796
-0.013142822 0.021506459 0.7446689
-0.013076785 0.020209581 0.74383962
-0.013011407 0.018925697 0.74301863
-0.012946628 0.017654538 0.74220514
-0.012882543 0.016395956 0.74140048
-0.012819088 0.015149832 0.74060363
-0.012756255 0.013915896 0.73981458
-0.012693986 0.012694001 0.73903263
-0.01263242 0.011484057 0.73825943
-0.012571448 0.010285735 0.73749381
-0.012511062 0.0090989769 0.73673552
-0.012451253 0.0079235435 0.7359845
-0.012392012 0.0067592859 0.73524064
-0.012333334 0.0056060553 0.73450369
-0.0122753 0.0044637918 0.73377496
-0.012217856 0.0033321679 0.73305362
-0.012160948 0.0022111237 0.73233896
-0.012104564 0.0011004508 0.73163092
-0.012048704 -0 0.73092949
-0.011993356 -0.0010902882 0.7302345
-0.011938514 -0.0021706223 0.72954577
-0.011884172 -0.003241092 0.72886336
-0.011830322 -0.0043019056 0.72818714
-0.011776958 -0.0053531528 0.72751701
-0.011724073 -0.0063948929 0.72685289
-0.01167166 -0.0074274242 0.72619474
-0.011619715 -0.0084506869 0.72554243
-0.01156823 -0.0094648898 0.72489589
-0.011517239 -0.010470212 0.72425556
-0.011466696 -0.011466682 0.72362089
-0.011416554 -0.01245442 0.72299123
-0.011366969 -0.013433665 0.72236854
-0.011317812 -0.014404446 0.72175127
-0.011269117 -0.015366971 0.72113985
-0.011220839 -0.016321212 0.72053355
-0.011172974 -0.017267317 0.7199325
-0.011125477 -0.018205285 0.71933597
-0.011078418 -0.019135445 0.71874505
-0.011031758 -0.020057708 0.7181592
-0.010985488 -0.020972282 0.71757811
-0.010939568 -0.021879137 0.7170015
-0.010894068 -0.022778511 0.71643007
-0.010848943 -0.023670435 0.71586347
-0.010804156 -0.024554878 0.71530104
-0.010759772 -0.025432169 0.71474367
-0.010715751 -0.026302308 0.7141909
-0.010683137 -0.027193457 0.71378136
-0.010674283 -0.02814129 0.71367013
-0.010688198 -0.029149592 0.7138449
-0.01072007 -0.030211121 0.71424514
-0.010752804 -0.031280875 0.71465623
-0.010785881 -0.032357603 0.71507156
-0.010819628 -0.033442467 0.71549535
-0.010853622 -0.034534246 0.71592224
-0.010888338 -0.035634547 0.71635813
-0.01092397 -0.036744237 0.71680558
-0.010949528 -0.037825614 0.71712649
-0.01095114 -0.038826764 0.71714681
-0.010951471 -0.039823532 0.71715093
-0.011027741 -0.041103363 0.71810871
-0.012893713 -0.049230516 0.74154067
-0.013057212 -0.051041812 0.74359387
-0.013185094 -0.052740365 0.74519968
-0.013298672 -0.054403603 0.74662596
-0.013392859 -0.056006461 0.74780875
-0.013477111 -0.057583988 0.74886674
-0.013547882 -0.059118032 0.7497555
-0.013613563 -0.060642213 0.75058025
-0.014451259 0.06358555 0.77924681
-0.014389448 0.061874628 0.77839303
-0.014273494 0.059948683 0.77679127
-0.013665 0.056026518 0.76838601
-0.013385101 0.053540438 0.76451969
-0.013308551 0.051903337 0.76346231
-0.013233932 0.050288975 0.76243162
-0.013160145 0.048692584 0.76141226
-0.013087233 0.047114044 0.76040512
-0.013015239 0.045553356 0.75941068
-0.012944088 0.044009924 0.75842786
-0.012873712 0.04248327 0.75745577
-0.012804097 0.040973127 0.7564941
-0.012735231 0.039479226 0.75554281
-0.012667101 0.038001299 0.75460184
-0.012599696 0.036539167 0.75367063
-0.012533006 0.035092443 0.7527495
-0.012467016 0.033660948 0.75183797
-0.01240172 0.032244474 0.75093597
-0.012337103 0.030842781 0.75004339
-0.012273155 0.029455602 0.74916005
-0.012210018 0.028083056 0.74828798
-0.012147527 0.026724607 0.74742472
-0.012085672 0.025379926 0.74657035
-0.012024445 0.024048924 0.7457245
-0.011963834 0.022731304 0.74488735
-0.011903832 0.021426946 0.74405855
-0.011844474 0.020135611 0.74323857
-0.01178566 0.018857062 0.74242616
-0.011727474 0.017591208 0.74162245
-0.011669858 0.016337812 0.74082661
-0.011612806 0.015096664 0.74003851
-0.011556265 0.013867527 0.73925751
-0.011500316 0.012650371 0.73848462
-0.011444906 0.011444926 0.73771924
-0.011390028 0.010251075 0.73696119
-0.011335758 0.0090686083 0.73621154
-0.011282048 0.0078974664 0.7354697
-0.011228844 0.0067372918 0.73473471
-0.011176139 0.0055880845 0.73400664
-0.011123884 0.0044495761 0.73328489
-0.011072158 0.0033216774 0.73257035
-0.01102091 0.0022042096 0.73186249
-0.010970135 0.0010969937 0.73116112
-0.010919785 -0 0.73046559
-0.010869935 -0.0010869801 0.72977698
-0.010820538 -0.0021640658 0.72909462
-0.010771549 -0.0032314658 0.72841799
-0.01072304 -0.00428918 0.72774792
-0.010674966 -0.0053374469 0.7270838
-0.010627359 -0.0063764155 0.72642624
-0.010580137 -0.0074060857 0.72577393
-0.010533334 -0.0084266365 0.72512746
-0.010486943 -0.0094382167 0.72448665
-0.01044103 -0.010441005 0.72385246
-0.010395519 -0.011435091 0.72322375
-0.01035044 -0.012420535 0.72260106
-0.010305748 -0.013397455 0.72198367
-0.010261443 -0.014366001 0.72137171
-0.010217515 -0.015326262 0.72076494
-0.010173962 -0.016278297 0.72016335
-0.010130779 -0.017222315 0.71956682
-0.010087961 -0.018158287 0.71897537
-0.010045504 -0.01908645 0.71838886
-0.010003402 -0.020006776 0.71780735
-0.0099616516 -0.020919442 0.71723062
-0.0099202478 -0.021824509 0.71665865
-0.0098791877 -0.022722125 0.71609157
-0.0098384656 -0.02361232 0.71552902
-0.0097980462 -0.024495095 0.71497071
-0.0097579882 -0.025370747 0.71441734
-0.0097182579 -0.026239306 0.71386856
-0.0096919714 -0.027137518 0.71350545
-0.0096851531 -0.028086931 0.71341133
-0.009700032 -0.02910006 0.71361679
-0.009728495 -0.030158311 0.71400994
-0.0097576687 -0.031224519 0.71441293
-0.0097870193 -0.032297105 0.71481836
-0.0098166103 -0.033376455 0.71522713
-0.0098466752 -0.034463346 0.71564245
-0.0098774815 -0.035558909 0.71606797
-0.0099086147 -0.036661863 0.71649808
-0.0099259438 -0.037718534 0.71673733
-0.0099272691 -0.038716346 0.71675569
-0.0099287927 -0.039715171 0.71677673
-0.011622746 -0.047653258 0.74017584
-0.01179253 -0.049528629 0.74252105
-0.011929234 -0.051295698 0.74440938
-0.012043386 -0.052990854 0.74598622
-0.012140732 -0.05463329 0.7473309
-0.012223819 -0.056229562 0.74847859
-0.012297362 -0.057797611 0.74949443
-0.012360433 -0.059330046 0.75036567
-0.012417772 -0.060847044 0.7511577
-0.012923116 0.063179702 0.7779727
-0.012858425 0.061434716 0.7769798
-0.012565237 0.058637768 0.77247995
-0.012155075 0.055373132 0.76618475
-0.011995088 0.053311527 0.76372921
-0.011928162 0.051688701 0.76270205
-0.011861977 0.050083905 0.76168627
-0.011796523 0.048496813 0.76068163
-0.011731787 0.046927184 0.75968808
-0.011667708 0.045374393 0.75870454
-0.011604375 0.043838769 0.75773251
-0.011541725 0.042319685 0.75677097
-0.011479748 0.040816903 0.7558198
-0.011418434 0.039330155 0.7548787
-0.01135782 0.03785941 0.75394833
-0.011297893 0.036404341 0.75302863
-0.011238642 0.034964681 0.75211924
-0.011180009 0.03354007 0.75121927
-0.011122032 0.032130361 0.75032949
-0.011064607 0.030735016 0.74944806
-0.011007772 0.029354066 0.74857581
-0.010951517 0.027987212 0.74771237
-0.010895835 0.026634276 0.74685782
-0.010840716 0.025295019 0.74601185
-0.010786152 0.023969233 0.74517435
-0.010732135 0.022656709 0.74434531
-0.010678655 0.021357298 0.74352449
-0.010625706 0.020070821 0.74271184
-0.01057328 0.01879698 0.74190718
-0.01052141 0.017535686 0.7411111
-0.010470006 0.016286701 0.74032211
-0.010419222 0.015049994 0.73954266
-0.010368929 0.013825268 0.73877078
-0.010319119 0.012612283 0.73800635
-0.010269785 0.011410922 0.73724914
-0.010220923 0.010220915 0.73649919
-0.010172521 0.009042263 0.73575628
-0.010124576 0.0078746676 0.73502046
-0.010077081 0.0067180693 0.73429143
-0.010030029 0.0055722594 0.73356932
-0.0099834148 0.004437089 0.73285389
-0.0099371951 0.0033124387 0.73214447
-0.0098914374 0.0021981299 0.73144221
-0.0098460997 0.0010940433 0.73074633
-0.0098011401 -0 0.73005635
-0.0097566238 -0.0010840595 0.7293731
-0.0097125107 -0.002158314 0.72869599
-0.0096687945 -0.0032229125 0.72802508
-0.0096255047 -0.0042780042 0.72736067
-0.009582567 -0.0053236187 0.72670162
-0.0095400102 -0.0063599944 0.72604847
-0.0094978977 -0.0073872209 0.72540212
-0.009456154 -0.0084054768 0.72476149
-0.0094148098 -0.0094147921 0.72412688
-0.009373825 -0.010415345 0.72349781
-0.0093331961 -0.011407197 0.72287428
-0.0092929173 -0.012390554 0.72225606
-0.0092529533 -0.013365388 0.72164273
-0.0092133628 -0.014331877 0.72103506
-0.0091741104 -0.015290201 0.72043264
-0.0091351895 -0.016240299 0.71983528
-0.0090965992 -0.017182469 0.71924293
-0.0090583321 -0.018116653 0.71865559
-0.0090203863 -0.019042999 0.71807319
-0.0089827571 -0.019961685 0.71749568
-0.0089454409 -0.020872653 0.716923
-0.0089084329 -0.02177617 0.71635497
-0.0088717304 -0.022672206 0.7157917
-0.0088353287 -0.023560822 0.71523291
-0.0087992242 -0.024442255 0.71467876
-0.0087634139 -0.025316507 0.71412921
-0.0087283207 -0.026184946 0.71359062
-0.0087059783 -0.027085274 0.71324772
-0.0087013077 -0.028037518 0.71317601
-0.0087168934 -0.029056281 0.71341521
-0.0087420046 -0.030111343 0.71380061
-0.0087675182 -0.031173378 0.71419215
-0.0087933848 -0.032242417 0.71458924
-0.0088193752 -0.033317626 0.71498811
-0.0088460157 -0.034401149 0.71539694
-0.0088728769 -0.035491496 0.71580923
-0.0088996952 -0.036587626 0.71622086
-0.0089123184 -0.037629783 0.71641457
-0.008912704 -0.038621694 0.71642053
-0.0089152576 -0.03962335 0.71645969
-0.010520748 -0.047927856 0.74110091
-0.010670014 -0.049793392 0.74339187
-0.010783762 -0.051522404 0.74513769
-0.010884713 -0.053214133 0.74668711
-0.010967134 -0.054835647 0.7479521
-0.011040509 -0.056429267 0.74907827
-0.011104912 -0.05799228 0.7500667
-0.011159966 -0.059519798 0.75091171
-0.011209554 -0.061029792 0.75167274
-0.011494762 0.064658076 0.77810299
-0.011451055 0.062980831 0.77734834
-0.01136371 0.061079979 0.77584016
-0.01099505 0.057724029 0.76947474
-0.010708515 0.054881126 0.7645272
-0.010623641 0.053118259 0.7630617
-0.01056472 0.051503032 0.76204437
-0.010506497 0.049905896 0.76103902
-0.010449003 0.048326641 0.76004636
-0.010392088 0.046764374 0.7590636
-0.010335837 0.045219302 0.75809228
-0.010280236 0.043691039 0.75713217
-0.010225183 0.042178929 0.75618172
-0.01017072 0.040682912 0.75524127
-0.010116832 0.03920275 0.75431085
-0.010063512 0.037738174 0.75339019
-0.010010753 0.036289006 0.7524792
-0.0099585429 0.034854889 0.75157773
-0.009906875 0.033435702 0.75068557
-0.0098557398 0.032031149 0.74980271
-0.0098051308 0.030641019 0.74892879
-0.0097550377 0.029265136 0.74806392
-0.0097054541 0.027903199 0.74720776
-0.0096563734 0.026555061 0.7463603
-0.0096078245 0.025220543 0.74552202
-0.0095597608 0.023899436 0.74469209
-0.0095122522 0.02259165 0.74387181
-0.0094652129 0.02129674 0.74305958
-0.0094186366 0.020014614 0.74225539
-0.0093724811 0.018745005 0.74145842
-0.0093268109 0.017487794 0.74066985
-0.0092815831 0.016242802 0.73988891
-0.0092367567 0.015009761 0.73911494
-0.0091923969 0.013788611 0.73834896
-0.0091484608 0.012579143 0.73759043
-0.0091049429 0.011381209 0.73683894
-0.0090618366 0.01019457 0.73609465
-0.0090191374 0.0090191662 0.7353574
-0.0089768386 0.0078547597 0.73462707
-0.0089349346 0.006701231 0.73390347
-0.0088934191 0.0055584013 0.73318666
-0.0088522555 0.0044261813 0.73247588
-0.0088115036 0.0033043325 0.73177224
-0.0087711252 0.0021927953 0.73107505
-0.0087311156 0.0010914207 0.73038423
-0.0086914683 2.9802322e-08 0.72969967
-0.0086521804 -0.0010815263 0.72902131
-0.0086132465 -0.0021533072 0.72834903
-0.0085746599 -0.0032154918 0.72768277
-0.0085364794 -0.004268229 0.72702354
-0.0084986379 -0.0053116381 0.7263701
-0.0084611299 -0.0063458383 0.72572255
-0.0084239524 -0.0073709488 0.72508049
-0.008387099 -0.008387059 0.72444421
-0.008350567 -0.0093943775 0.72381347
-0.0083143814 -0.010392964 0.72318864
-0.0082784789 -0.011382908 0.72256869
-0.0082429135 -0.012364328 0.72195464
-0.0082076248 -0.013337374 0.72134531
-0.0081726639 -0.014302164 0.72074169
-0.008137973 -0.01525867 0.72014266
-0.0081036016 -0.016207159 0.71954918
-0.0080694929 -0.01714763 0.71896023
-0.008035697 -0.018080294 0.71837676
-0.0080021555 -0.01900512 0.71779752
-0.0079689203 -0.019922256 0.7172237
-0.0079359338 -0.020831794 0.71665418
-0.0079032453 -0.02173394 0.71608973
-0.0078707989 -0.022628516 0.71552944
-0.0078386432 -0.02351588 0.71497428
-0.0078067239 -0.024396002 0.71442312
-0.0077750892 -0.025269002 0.7138769
-0.0077446424 -0.026138157 0.71335119
-0.007726307 -0.027042061 0.71303463
-0.0077229221 -0.027995557 0.7129761
-0.0077380678 -0.029017717 0.71323764
-0.007760026 -0.030070096 0.71361679
-0.007782185 -0.031128734 0.71399939
-0.0078047263 -0.032194495 0.71438861
-0.0078274766 -0.033266783 0.71478146
-0.0078504635 -0.034345776 0.71517837
-0.0078736115 -0.035431236 0.71557808
-0.007896373 -0.03652072 0.71597105
-0.0079051619 -0.037549496 0.71612281
-0.0079054255 -0.038538933 0.71612734
-0.007908999 -0.03954494 0.71618903
-0.0093998453 -0.048174173 0.7419309
-0.0095227985 -0.049994648 0.74405384
-0.009622707 -0.05172202 0.74577898
-0.0097102476 -0.053406358 0.74729049
-0.0097798193 -0.055011481 0.74849182
-0.0098450137 -0.056608796 0.74961746
-0.0098987957 -0.058155388 0.75054604
-0.0099487156 -0.059692264 0.75140804
-0.00999045 -0.061191499 0.75212866
-0.010014035 0.064375967 0.77723706
-0.009968481 0.062659025 0.77633822
-0.0098838583 0.060715139 0.77466828
-0.0095275883 0.057165533 0.76763791
-0.0093236212 0.054609776 0.76361299
-0.0092670517 0.052954584 0.76249671
-0.0092160571 0.0513466 0.76149035
-0.0091656204 0.049756259 0.76049507
-0.0091156932 0.048182994 0.75950986
-0.009066347 0.046626955 0.7585361
-0.0090175327 0.045087695 0.75757283
-0.0089692399 0.043564945 0.75661981
-0.0089214239 0.04205817 0.75567633
-0.0088741519 0.040567547 0.75474346
-0.008827379 0.03909266 0.75382054
-0.0087810969 0.03763327 0.75290722
-0.0087352972 0.036189049 0.75200349
-0.0086899735 0.034759909 0.751109
-0.008645189 0.033345729 0.75022531
-0.008600899 0.031946212 0.74935126
-0.0085570253 0.030560791 0.74848557
-0.0085135968 0.029189467 0.74762857
-0.008470607 0.027832031 0.74678022
-0.0084280493 0.026488185 0.74594045
-0.0083859181 0.025157779 0.74510896
-0.0083442051 0.023840576 0.74428588
-0.0083029047 0.022536486 0.74347091
-0.0082620112 0.021245211 0.74266398
-0.0082215192 0.019966573 0.7418648
-0.008181422 0.018700391 0.74107361
-0.0081417132 0.017446578 0.74029005
-0.0081024207 0.016204864 0.73951465
-0.0080634728 0.014975011 0.73874611
-0.00802493 0.01375705 0.73798555
-0.0079867234 0.012550592 0.73723161
-0.007948908 0.011355609 0.73648536
-0.0079114195 0.01017186 0.73574561
-0.0078743119 0.0089992285 0.73501337
-0.0078375228 0.007837534 0.73428744
-0.0078011043 0.0066866875 0.73356879
-0.0077649937 0.0055464506 0.73285615
-0.0077292453 0.004416734 0.73215067
-0.007693795 0.0032973588 0.73145115
-0.0076586967 0.0021882057 0.73075855
-0.0076238904 0.0010891557 0.73007172
-0.0075894534 -0 0.72939217
-0.0075553264 -0.0010793209 0.72871876
-0.007521505 -0.0021489859 0.72805136
-0.0074879848 -0.0032091141 0.72738987
-0.0074547622 -0.0042598546 0.72673434
-0.007421833 -0.0053012967 0.72608447
-0.0073891934 -0.0063335598 0.72544044
-0.0073568658 -0.0073568523 0.72480249
-0.0073248199 -0.0083712041 0.72417009
-0.0072930516 -0.0093767643 0.72354323
-0.0072615328 -0.010373592 0.72292125
-0.0072303102 -0.011361927 0.72230518
-0.0071993545 -0.012341708 0.72169423
-0.0071686385 -0.013313144 0.72108811
-0.007138208 -0.014276385 0.72048759
-0.0071080346 -0.01523149 0.7198922
-0.0070781154 -0.016178519 0.71930182
-0.0070484234 -0.01711759 0.71871591
-0.0070190025 -0.018048853 0.71813536
-0.0069898264 -0.018972367 0.71755952
-0.0069608688 -0.019888192 0.71698815
-0.0069321725 -0.020796478 0.71642184
-0.0069037126 -0.021697372 0.71586031
-0.0068754852 -0.022590846 0.71530324
-0.0068474654 -0.023476988 0.71475029
-0.0068196952 -0.024356037 0.71420234
-0.0067921495 -0.025227934 0.71365875
-0.0067660999 -0.026097804 0.71314472
-0.0067505664 -0.027002245 0.71283823
-0.0067486186 -0.027958542 0.71279979
-0.0067629791 -0.028984189 0.71308315
-0.0067819045 -0.030034184 0.71345663
-0.0068010469 -0.031090468 0.71383435
-0.00682041 -0.032153368 0.71421647
-0.0068398835 -0.033222258 0.71460074
-0.0068594906 -0.034297436 0.71498764
-0.0068792114 -0.035378784 0.71537685
-0.006899571 -0.036469132 0.71577859
-0.0069043767 -0.037480891 0.71587336
-0.00690385 -0.038464278 0.71586299
-0.0069092344 -0.039481312 0.7159692
-0.0082621425 -0.048392534 0.74266654
-0.0083619347 -0.050171614 0.74463576
-0.0084480578 -0.051895201 0.74633527
-0.0085207401 -0.053558946 0.74776947
-0.008581399 -0.055166095 0.74896652
-0.0086383009 -0.056765974 0.75008935
-0.0086832317 -0.058301657 0.75097597
-0.0087257046 -0.059833378 0.75181407
-0.0087618791 -0.06133312 0.75252795
-0.0085521117 0.064140856 0.77651536
-0.0085088834 0.062398463 0.77552021
-0.0083713233 0.059994519 0.77235323
-0.0081057027 0.056739956 0.76623809
-0.0079668416 0.054440081 0.76304126
-0.0079223793 0.052815914 0.76201761
-0.0078789676 0.051213294 0.76101822
-0.0078360979 0.049628645 0.76003122
-0.0077936919 0.048061103 0.75905496
-0.0077517428 0.046510518 0.75808918
-0.0077102431 0.044976413 0.75713378
-0.0076691848 0.04345873 0.75618851
-0.0076285615 0.04195711 0.75525331
-0.007588366 0.040471315 0.75432795
-0.0075485925 0.039001077 0.75341225
-0.0075092339 0.037546188 0.75250614
-0.0074702832 0.036106378 0.75160944
-0.0074317344 0.034681469 0.75072193
-0.0073935813 0.033271164 0.74984354
-0.0073558185 0.031875253 0.7489742
-0.007318439 0.030493498 0.74811363
-0.0072814375 0.02912575 0.74726182
-0.0072448086 0.027771801 0.74641848
-0.0072085462 0.026431352 0.74558365
-0.0071726451 0.025104284 0.74475718
-0.0071371282 0.023790449 0.74393946
-0.0071019614 0.022489548 0.74312985
-0.0070671113 0.021201372 0.74232757
-0.0070326296 0.019925833 0.7415337
-0.0069984826 0.018662661 0.74074751
-0.0069646384 0.01741159 0.73996842
-0.0069311466 0.016172677 0.73919737
-0.0068979757 0.014945626 0.73843372
-0.0068651205 0.013730258 0.73767728
-0.0068325512 0.012526363 0.73692739
-0.0068003149 0.011333883 0.73618531
-0.0067683812 0.010152608 0.73545009
-0.0067367209 0.0089823306 0.73472124
-0.0067054061 0.0078229904 0.73400033
-0.0066743805 0.0066743791 0.73328602
-0.0066436166 0.0055363774 0.7325778
-0.0066131591 0.0044088066 0.73187661
-0.0065829791 0.0032914877 0.7311818
-0.0065530743 0.002184391 0.73049331
-0.0065234392 0.0010872781 0.72981101
-0.0064940713 -0 0.72913492
-0.0064649433 -0.0010774732 0.72846431
-0.0064360984 -0.0021453202 0.72780025
-0.0064075096 -0.0032037199 0.7271421
-0.0063791736 -0.0042527616 0.72648972
-0.0063511101 -0.0052925944 0.72584367
-0.00632327 -0.006323278 0.72520274
-0.0062956954 -0.0073449314 0.72456783
-0.0062683597 -0.0083577931 0.72393858
-0.0062412387 -0.0093618333 0.72331417
-0.0062143728 -0.010357291 0.72269571
-0.006187716 -0.011344105 0.72208196
-0.0061613088 -0.012322605 0.72147399
-0.0061351042 -0.01329273 0.72087073
-0.0061091422 -0.01425463 0.72027302
-0.0060833995 -0.015208483 0.71968043
-0.0060578524 -0.016154259 0.71909225
-0.0060325391 -0.017092168 0.71850944
-0.0060074162 -0.018022209 0.71793109
-0.0059825219 -0.018944621 0.71735799
-0.005957833 -0.019859403 0.71678954
-0.0059333271 -0.020766616 0.71622539
-0.005909042 -0.021666467 0.71566629
-0.0058849347 -0.022558898 0.71511132
-0.005861043 -0.023444146 0.71456122
-0.0058373446 -0.024322242 0.71401572
-0.0058138184 -0.025193185 0.71347409
-0.0057919845 -0.026063919 0.71297133
-0.0057794154 -0.026970595 0.71268201
-0.0057787229 -0.027930468 0.71266603
-0.0057911011 -0.028955489 0.712951
-0.0058071204 -0.030003428 0.71331984
-0.0058232863 -0.031057507 0.71369207
-0.0058395416 -0.032117486 0.71406627
-0.0058559268 -0.033183575 0.7144435
-0.0058725006 -0.03425625 0.71482503
-0.0058893049 -0.035335809 0.71521193
-0.0059055802 -0.036417753 0.7155866
-0.0059091006 -0.037424266 0.71566767
-0.0059085721 -0.038405687 0.71565545
-0.0059143296 -0.03942883 0.71578807
-0.0071053547 -0.048553228 0.74320799
-0.0071892329 -0.050324619 0.745139
-0.0072618504 -0.052043259 0.74681085
-0.0073213517 -0.053689897 0.74818069
-0.007373326 -0.055299938 0.74937725
-0.0074205468 -0.056890815 0.75046432
-0.0074593215 -0.058431327 0.75135708
-0.0074949455 -0.059959561 0.75217724
-0.007524814 -0.061452597 0.75286484
-0.0075663254 -0.063052684 0.75382054
-0.0071459725 0.065742999 0.77704614
-0.007118878 0.064069927 0.77629763
-0.0070673139 0.06219238 0.77487314
-0.0069098743 0.059424907 0.77052361
-0.0067198309 0.056446612 0.76527339
-0.0066243354 0.05431959 0.76263511
-0.0065880017 0.052704066 0.76163137
-0.0065520932 0.051106334 0.76063931
-0.006516574 0.049526006 0.7596581
-0.0064814384 0.047962666 0.75868744
-0.0064466791 0.046416104 0.75772709
-0.0064122905 0.044886053 0.75677705
-0.00637824 0.043372065 0.75583637
-0.0063445759 0.04187423 0.7549063
-0.0063112658 0.040392131 0.75398612
-0.006278303 0.038925499 0.75307542
-0.0062456829 0.037474096 0.75217426
-0.0062134 0.036037713 0.75128245
-0.0061814496 0.034616143 0.75039971
-0.0061498508 0.033209234 0.74952674
-0.006118549 0.031816512 0.74866199
-0.0060875886 0.030437976 0.74780667
-0.0060569155 0.029073209 0.74695927
-0.0060265744 0.027722269 0.74612105
-0.0059965355 0.026384771 0.74529123
-0.0059667709 0.025060475 0.74446887
-0.0059373239 0.023749322 0.74365538
-0.0059081423 0.022450954 0.74284917
-0.0058792704 0.021165401 0.74205154
-0.0058506783 0.019892335 0.7412616
-0.0058223633 0.018631577 0.74047947
-0.0057943217 0.017383009 0.73970467
-0.0057665482 0.016146362 0.73893738
-0.0057390616 0.014921606 0.73817807
-0.0057118144 0.013708383 0.73742533
-0.0056848242 0.012506634 0.73667961
-0.0056580883 0.01131618 0.73594105
-0.0056316238 0.010136962 0.73520988
-0.0056053847 0.0089686215 0.73448503
-0.0055793887 0.0078111589 0.73376685
-0.005553633 0.0066643655 0.73305529
-0.0055281348 0.005528152 0.73235089
-0.0055028489 0.0044023097 0.73165232
-0.005477793 0.0032867193 0.73096013
-0.0054529649 0.0021812022 0.73027426
-0.0054283603 0.0010856688 0.72959447
-0.0054039964 -0 0.72892141
-0.0053798705 -0.001075983 0.72825491
-0.0053559393 -0.0021423399 0.72759366
-0.0053322199 -0.0031993389 0.72693849
-0.0053087091 -0.0042469501 0.72628891
-0.005285406 -0.0052854121 0.72564507
-0.0052623055 -0.0063147247 0.72500694
-0.0052394066 -0.0073351562 0.72437429
-0.0052167061 -0.0083466768 0.72374713
-0.0051942016 -0.009349525 0.7231254
-0.0051718899 -0.01034373 0.72250903
-0.0051497868 -0.011329472 0.72189844
-0.0051278546 -0.012306839 0.7212925
-0.0051061087 -0.013275892 0.7206918
-0.0050845458 -0.014236718 0.72009605
-0.0050631645 -0.015189469 0.71950531
-0.0050419625 -0.016134262 0.71891963
-0.0050209374 -0.017071158 0.71833873
-0.005000086 -0.018000275 0.71776271
-0.0049794079 -0.018921733 0.71719146
-0.0049589002 -0.019835591 0.71662486
-0.0049385768 -0.020741999 0.71606344
-0.004918403 -0.021640956 0.71550614
-0.0048983935 -0.022532612 0.7149533
-0.0048785466 -0.023417026 0.714405
-0.0048588593 -0.024294287 0.71386111
-0.00483933 -0.025164515 0.71332157
-0.0048213485 -0.026035279 0.71282482
-0.0048111463 -0.026942372 0.71254295
-0.0048114108 -0.027906179 0.71255028
-0.0048219892 -0.028931916 0.71284258
-0.0048351916 -0.029978156 0.71320724
-0.0048484504 -0.031030089 0.71357358
-0.004861814 -0.032087952 0.71394277
-0.0048753796 -0.03315255 0.71431756
-0.0048890202 -0.034223109 0.71469438
-0.0049027866 -0.035300046 0.71507466
-0.0049157855 -0.036376804 0.71543372
-0.0049178014 -0.037375271 0.71548945
-0.0049172486 -0.038354516 0.71547419
-0.0049225711 -0.03938058 0.71562123
-0.0059369449 -0.048682928 0.74364495
-0.0060063209 -0.050453067 0.74556154
-0.0060658846 -0.052166611 0.74720705
-0.0061135679 -0.053799361 0.74852443
-0.0061568539 -0.055411637 0.74972022
-0.0061948919 -0.056992978 0.75077116
-0.0062265652 -0.058529705 0.75164616
-0.0062568523 -0.060065776 0.75248289
-0.0062810346 -0.061554104 0.75315094
-0.0063096322 -0.063096315 0.753941
-0.0057033482 0.065588534 0.77658242
-0.0056801462 0.063901633 0.77578121
-0.005638977 0.062028766 0.77435946
-0.0054941732 0.059062362 0.76935893
-0.0053546191 0.056223512 0.76453972
-0.0052903476 0.0542261 0.76232016
-0.0052614273 0.052614272 0.76132143
-0.0052328436 0.051020235 0.76033437
-0.0052045467 0.049443215 0.75935721
-0.0051765768 0.047883332 0.75839132
-0.0051489053 0.046340138 0.75743574
-0.0051215286 0.044813395 0.75649035
-0.0050944411 0.043302774 0.75555491
-0.0050676609 0.041808218 0.75463009
-0.0050411387 0.040329099 0.7537142
-0.0050149141 0.038865596 0.75280857
-0.00498894 0.037417084 0.75191164
-0.0049632541 0.035983622 0.75102454
-0.0049378113 0.034564704 0.75014591
-0.0049126479 0.033160388 0.749277
-0.0048877196 0.0317702 0.74841619
-0.0048630629 0.030394167 0.74756467
-0.0048386343 0.029031813 0.74672109
-0.0048144693 0.027683228 0.74588656
-0.004790525 0.026347905 0.74505973
-0.0047668368 0.025025904 0.74424165
-0.0047433632 0.023716807 0.74343103
-0.0047201375 0.022420675 0.74262899
-0.0046971203 0.021137059 0.74183416
-0.0046743448 0.01986599 0.74104762
-0.0046517709 0.01860711 0.74026805
-0.0046294318 0.017360389 0.73949659
-0.0046072886 0.0161255 0.73873198
-0.0045853737 0.014902472 0.73797518
-0.0045636492 0.013690948 0.73722494
-0.0045421463 0.012490898 0.73648238
-0.0045208279 0.011302084 0.7357462
-0.004499726 0.010124445 0.73501748
-0.0044788034 0.0089576542 0.73429495
-0.0044580917 0.0078016818 0.7335797
-0.0044375532 0.0066563487 0.73287046
-0.0044172364 0.0055215657 0.73216885
-0.0043970882 0.0043971241 0.73147303
-0.004377123 0.0032828748 0.73078364
-0.0043573547 0.0021786988 0.73010099
-0.0043377476 0.0010844469 0.72942388
-0.0043183169 2.9802322e-08 0.72875285
-0.0042990744 -0.0010747612 0.72808832
-0.0042799874 -0.0021399856 0.72742927
-0.0042610695 -0.0031957924 0.72677588
-0.0042423331 -0.004242301 0.72612888
-0.0042237458 -0.0052796602 0.72548699
-0.0042053205 -0.0063079596 0.72485071
-0.0041870698 -0.007327348 0.72422051
-0.0041689621 -0.0083379149 0.72359514
-0.0041510109 -0.00933972 0.72297519
-0.0041332277 -0.010333061 0.72236121
-0.004115582 -0.011317819 0.72175175
-0.0040980866 -0.012294263 0.72114766
-0.0040807533 -0.013262451 0.72054899
-0.0040635518 -0.014222443 0.71995503
-0.0040464946 -0.015174329 0.71936595
-0.0040295939 -0.016118318 0.71878231
-0.0040128203 -0.017054468 0.71820307
-0.0039961855 -0.017982811 0.7176286
-0.003979702 -0.018903583 0.71705937
-0.0039633401 -0.019816697 0.71649438
-0.0039471122 -0.02072233 0.71593392
-0.0039310302 -0.021620661 0.71537858
-0.003915065 -0.022511601 0.7148273
-0.0038992295 -0.02339533 0.71428037
-0.0038835339 -0.024272054 0.71373844
-0.0038679519 -0.025141686 0.71320033
-0.0038538298 -0.026013345 0.71271259
-0.0038459681 -0.026921749 0.71244109
-0.003846565 -0.027887583 0.71246171
-0.003855054 -0.028912872 0.71275491
-0.0038655261 -0.029957801 0.71311653
-0.0038760556 -0.031008422 0.71348011
-0.0038866936 -0.032065213 0.71384752
-0.0038974029 -0.033127904 0.71421731
-0.0039081709 -0.034196466 0.71458918
-0.0039189993 -0.035270959 0.71496308
-0.003929277 -0.03634581 0.71531808
-0.0039306274 -0.037340939 0.71536469
-0.0039301859 -0.03831929 0.71534944
-0.0039354386 -0.039354384 0.71553081
-0.0047599319 -0.048789322 0.74400324
-0.0048147808 -0.05055517 0.74589735
-0.0048612547 -0.052258492 0.74750221
-0.0048988303 -0.053887129 0.7487998
-0.004933204 -0.05549854 0.74998689
-0.0049631717 -0.057076484 0.75102174
-0.0049882703 -0.058612198 0.75188851
-0.0050120195 -0.060144216 0.75270861
-0.0050312667 -0.061632991 0.75337327
-0.0050524222 -0.063155264 0.75410384
-0.0042700591 0.065474272 0.77623934
-0.0042525558 0.063788384 0.77543336
-0.0042209495 0.061907232 0.77397811
-0.00410278 0.058806568 0.76853704
-0.0040044463 0.056062251 0.76400936
-0.0039628083 0.05415839 0.76209217
-0.0039412067 0.052549452 0.76109755
-0.0039198566 0.050958157 0.76011449
-0.0038987191 0.049383789 0.75914121
-0.0038778256 0.047826529 0.75817919
-0.0038571379 0.046285689 0.75722665
-0.0038366863 0.04476136 0.75628495
-0.0038164344 0.043252945 0.7553525
-0.003796411 0.041760534 0.75443053
-0.003776581 0.040283531 0.75351745
-0.0037569725 0.038822085 0.75261456
-0.0037375512 0.03737554 0.75172037
-0.003718345 0.035944045 0.75083601
-0.0036993199 0.034527004 0.74996006
-0.0036805037 0.033124566 0.74909359
-0.0036618628 0.031736165 0.74823529
-0.0036434247 0.030361861 0.74738634
-0.0036251566 0.029001296 0.7465452
-0.0036070854 0.02765432 0.74571317
-0.0035891789 0.026320636 0.74488872
-0.0035714495 0.025000185 0.74407232
-0.0035539086 0.023692697 0.74326468
-0.0035365249 0.022398025 0.74246424
-0.0035193244 0.021115959 0.74167222
-0.003502277 0.019846261 0.74088734
-0.0034854072 0.018588871 0.74011058
-0.0034686858 0.017343462 0.7393406
-0.0034521373 0.016110003 0.73857868
-0.0034357461 0.014888287 0.73782396
-0.0034195096 0.013678074 0.73707634
-0.0034034259 0.012479246 0.73633575
-0.0033875059 0.011291713 0.73560274
-0.0033717211 0.010115176 0.73487598
-0.0033560828 0.0089495778 0.73415595
-0.0033405889 0.007794708 0.73344254
-0.00332525 0.0066505075 0.73273623
-0.0033100389 0.0055167377 0.73203588
-0.0032949662 0.0043933094 0.73134184
-0.0032800301 0.0032800436 0.73065412
-0.0032652412 0.002176851 0.72997314
-0.0032505726 0.0010835826 0.72929776
-0.0032360356 -0 0.72862846
-0.003221628 -0.0010738671 0.727965
-0.0032073597 -0.0021381974 0.72730809
-0.0031932057 -0.0031931996 0.72665632
-0.0031791762 -0.0042389035 0.72601038
-0.0031652693 -0.0052754283 0.72537005
-0.0031514945 -0.0063029528 0.7247358
-0.0031378285 -0.0073215663 0.72410655
-0.0031242801 -0.0083313882 0.72348273
-0.0031108484 -0.0093325078 0.72286427
-0.0030975316 -0.010325074 0.72225112
-0.003084339 -0.011309206 0.72164363
-0.0030712478 -0.012284964 0.72104084
-0.0030582673 -0.013252467 0.72044325
-0.0030453959 -0.014211833 0.71985054
-0.0030326429 -0.015163183 0.71926337
-0.003019986 -0.016106546 0.71868056
-0.0030074341 -0.01704213 0.71810269
-0.0029949863 -0.017969906 0.71752954
-0.0029826511 -0.018890083 0.7169615
-0.0029704068 -0.019802719 0.71639776
-0.002958263 -0.020707846 0.71583861
-0.0029462182 -0.021605581 0.71528399
-0.0029342806 -0.022496134 0.71473432
-0.0029224295 -0.023379445 0.71418869
-0.0029106741 -0.024255604 0.71364737
-0.0028990128 -0.025124788 0.71311051
-0.0028884448 -0.02599597 0.71262383
-0.0028826771 -0.02690497 0.71235836
-0.0028834227 -0.027873069 0.71239263
-0.0028898763 -0.028898716 0.71268976
-0.0028976852 -0.029942721 0.71304929
-0.002905546 -0.030992478 0.71341133
-0.0029134497 -0.032047927 0.71377516
-0.0029213866 -0.033109069 0.71414065
-0.0029293767 -0.034176022 0.71450853
-0.0029374107 -0.035248935 0.7148785
-0.0029444776 -0.036315173 0.71520388
-0.0029462085 -0.037318617 0.71528351
-0.0029457123 -0.038294256 0.71526074
-0.0029496858 -0.039329112 0.71544361
-0.0035759446 -0.048871249 0.74427927
-0.0036165307 -0.050631434 0.74614811
-0.0036504611 -0.052323252 0.74771029
-0.003678622 -0.053953141 0.74900705
-0.0037041886 -0.055562824 0.75018418
-0.0037265141 -0.057139874 0.75121212
-0.0037453177 -0.05867663 0.752078
-0.0037629465 -0.060207099 0.75288969
-0.0037770765 -0.061692238 0.75354028
-0.0037919255 -0.063198745 0.754224
-0.0028432771 0.065395415 0.77600241
-0.0028310025 0.063697577 0.77515471
-0.0028103231 0.061827093 0.77372646
-0.0027275982 0.058643371 0.76801294
-0.0026647034 0.055958778 0.76366901
-0.0026396096 0.054111987 0.76193589
-0.0026252447 0.052504927 0.76094377
-0.0026110467 0.05091545 0.75996315
-0.0025969902 0.049342811 0.75899231
-0.0025830839 0.04778707 0.75803185
-0.0025693262 0.0462479 0.75708163
-0.0025557249 0.044725209 0.75614226
-0.0025422559 0.043218404 0.75521201
-0.0025289285 0.041727334 0.75429147
-0.00251574 0.040251851 0.75338066
-0.0025026989 0.038791865 0.75247997
-0.0024897817 0.037346721 0.75158781
-0.0024770075 0.035916626 0.75070554
-0.0024643638 0.034501135 0.74983227
-0.0024518385 0.03309983 0.74896717
-0.0024394498 0.03171289 0.74811149
-0.0024271854 0.030339837 0.7472645
-0.002415044 0.028980553 0.74642599
-0.0024030234 0.027634799 0.74559569
-0.0023911218 0.026302397 0.74477375
-0.0023793282 0.024982959 0.74395919
-0.0023676595 0.023676604 0.74315333
-0.002356105 0.022383004 0.74235523
-0.0023446628 0.021101981 0.74156493
-0.0023333307 0.019833326 0.74078232
-0.002322108 0.01857689 0.74000716
-0.0023109836 0.017332405 0.73923886
-0.0022999742 0.01609984 0.73847848
-0.0022890694 0.014878958 0.73772526
-0.0022782672 0.01366961 0.73697925
-0.0022675667 0.012471646 0.73624021
-0.0022569662 0.011284858 0.73550808
-0.0022464558 0.010109067 0.73478222
-0.0022360513 0.0089442134 0.73406363
-0.0022257427 0.0077901185 0.73335159
-0.0022155286 0.0066466331 0.73264617
-0.0022054079 0.0055135489 0.73194712
-0.0021953795 0.0043907762 0.73125452
-0.0021854334 0.0032781661 0.73056757
-0.0021755854 0.0021755993 0.72988737
-0.0021658253 0.001082927 0.7292133
-0.0021561529 -0 0.72854525
-0.0021465661 -0.001073271 0.72788316
-0.0021370645 -0.0021370351 0.72722685
-0.0021276388 -0.0031914711 0.72657591
-0.0021183034 -0.0042365789 0.72593111
-0.0021090496 -0.0052725971 0.72529203
-0.0020998765 -0.0062996447 0.72465843
-0.0020907826 -0.0073177218 0.72403038
-0.0020817672 -0.0083270371 0.72340775
-0.0020728293 -0.0093277097 0.72279036
-0.0020639605 -0.010319769 0.72217786
-0.0020551747 -0.011303455 0.72157103
-0.0020464631 -0.012278765 0.72096938
-0.0020378251 -0.013245851 0.7203728
-0.0020292597 -0.01420483 0.71978116
-0.0020207658 -0.015155703 0.71919453
-0.0020123362 -0.016098678 0.71861231
-0.0020039834 -0.017033815 0.71803546
-0.0019956995 -0.017961293 0.71746331
-0.0019874838 -0.018881083 0.71689588
-0.0019793357 -0.019793332 0.71633315
-0.0019712539 -0.02069819 0.71577495
-0.0019632312 -0.021595538 0.71522087
-0.0019552803 -0.022485733 0.71467173
-0.0019473934 -0.023368716 0.71412694
-0.0019395698 -0.024244577 0.71358663
-0.0019318089 -0.025113493 0.7130506
-0.0019248384 -0.025985301 0.71256924
-0.0019210586 -0.026894808 0.71230817
-0.0019216235 -0.027863503 0.71234715
-0.001925954 -0.028889298 0.71264625
-0.0019311378 -0.029932618 0.71300435
-0.0019363497 -0.03098157 0.71336424
-0.0019415831 -0.032036096 0.71372569
-0.0019468516 -0.033096462 0.71408963
-0.0019521614 -0.034162819 0.71445626
-0.0019575197 -0.035235345 0.71482646
-0.0019624671 -0.036305606 0.71516812
-0.0019630629 -0.037298173 0.71520919
-0.0019626482 -0.038271636 0.71518064
-0.0019659176 -0.039318353 0.71540642
-0.002386699 -0.048927307 0.74446821
-0.0024135155 -0.050683796 0.74632037
-0.0024356239 -0.052365869 0.74784732
-0.0024544182 -0.053997189 0.74914539
-0.0024713574 -0.055605531 0.75031531
-0.0024860043 -0.05717808 0.75132698
-0.0024985988 -0.058717072 0.75219679
-0.002510431 -0.060250312 0.75301397
-0.002519747 -0.061733812 0.7536574
-0.0025294232 -0.063235581 0.75432569
-0.0014209795 0.065365076 0.77591145
-0.0014147337 0.063663065 0.77504867
-0.0014041532 0.061782777 0.77358717
-0.0013620752 0.058569252 0.76777482
-0.0013310935 0.055905938 0.76349521
-0.0013192662 0.054089963 0.76186144
-0.0013120953 0.052483827 0.76087093
-0.0013050019 0.050895095 0.75989115
-0.001297985 0.04932344 0.7589218
-0.0012910429 0.047768623 0.75796294
-0.0012841749 0.046230316 0.75701427
-0.0012773795 0.044708312 0.75607556
-0.0012706555 0.043202311 0.75514674
-0.0012640021 0.041712075 0.7542277
-0.0012574232 0.040237546 0.75331891
-0.0012509072 0.038778156 0.75241888
-0.0012444585 0.037333786 0.75152808
-0.0012380758 0.035904229 0.75064647
-0.0012317583 0.034489244 0.7497738
-0.001225505 0.033088654 0.74890995
-0.0012193148 0.031702191 0.74805492
-0.0012131869 0.030329674 0.74720842
-0.00120712 0.028970897 0.74637043
-0.0012011138 0.02762562 0.7455408
-0.0011951718 0.026293784 0.74471998
-0.0011892834 0.024975002 0.74390662
-0.0011834529 0.023669094 0.74310124
-0.0011776793 0.022375882 0.74230373
-0.0011719663 0.021095395 0.74151456
-0.0011663039 0.019827187 0.74073237
-0.001160696 0.018571138 0.73995769
-0.0011551417 0.01732713 0.73919058
-0.0011496403 0.016094983 0.73843056
-0.0011441913 0.014874488 0.73767787
-0.0011387934 0.013665557 0.73693228
-0.0011334463 0.012467891 0.73619366
-0.0011281534 0.01128155 0.73546255
-0.0011229055 0.010106206 0.73473763
-0.0011177062 0.0089416802 0.73401946
-0.0011125549 0.0077879131 0.73330784
-0.0011074508 0.0066447556 0.73260283
-0.0011023934 0.0055119693 0.73190421
-0.0010973818 0.0043895245 0.73121202
-0.0010924157 0.0032772422 0.73052603
-0.0010874983 0.0021750033 0.72984672
-0.001082621 0.001082629 0.729173
-0.0010777873 2.9802322e-08 0.72850531
-0.0010729965 -0.0010730028 0.72784364
-0.0010682482 -0.0021364689 0.72718763
-0.0010635416 -0.0031906068 0.72653753
-0.0010588764 -0.0042355061 0.72589314
-0.001054252 -0.0052712262 0.7252543
-0.0010496713 -0.0062980354 0.72462165
-0.0010451268 -0.0073158443 0.72399378
-0.0010406213 -0.0083249509 0.72337151
-0.0010361546 -0.0093253553 0.72275448
-0.0010317261 -0.010317266 0.72214282
-0.0010273352 -0.011300683 0.72153622
-0.0010229816 -0.012275785 0.72093487
-0.0010186647 -0.013242602 0.72033852
-0.0010143876 -0.014201373 0.71974772
-0.0010101427 -0.015152127 0.71916139
-0.0010059333 -0.016094893 0.71857989
-0.0010017589 -0.017029881 0.71800327
-0.00099761877 -0.017957121 0.71743143
-0.00099351292 -0.018876731 0.71686423
-0.0009894406 -0.019788802 0.71630174
-0.00098540157 -0.020693451 0.71574378
-0.00098139863 -0.021590769 0.71519089
-0.0009774249 -0.022480786 0.71464199
-0.00097348314 -0.02336359 0.7140975
-0.00096957316 -0.024239302 0.71355742
-0.00096569431 -0.025108039 0.71302164
-0.00096215151 -0.025978118 0.71253222
