# .PCD v0.7 - Point Cloud Data file format
VERSION 0.7
FIELDS x y z
SIZE 4 4 4
TYPE F F F
COUNT 1 1 1
WIDTH 1350
HEIGHT 1
VIEWPOINT 0 0 0 1 0 0 0
POINTS 1350
DATA ascii
0.014607788 0.014607817 0.70574093
0.014545362 0.013636321 0.70520198
0.014506031 0.012692809 0.70486242
0.014482851 0.011767358 0.70466232
0.014477167 0.01085791 0.70461321
0.014488894 0.0099610984 0.70471454
0.014552257 0.009095192 0.70526153
0.014625029 0.0082266331 0.70588982
0.014689727 0.0073448718 0.70644838
0.014751708 0.0064539015 0.70698345
0.014796984 0.0055488944 0.70737433
0.014830374 0.0046345294 0.70766264
0.014861871 0.0037154853 0.7079345
0.014882277 0.002790451 0.70811069
0.014900592 0.0018625855 0.70826882
0.014912641 0.00093206763 0.70837283
0.014912687 2.9802322e-08 0.70837325
0.014900592 -0.00093126297 0.70826888
0.014882323 -0.001860261 0.70811111
0.014861918 -0.0027865767 0.70793492
0.014830421 -0.0037076175 0.70766306
0.014796984 -0.0046240687 0.70737439
0.014751479 -0.0055318177 0.70698148
0.014688095 -0.0064260066 0.70643425
0.014625118 -0.0073125362 0.7058906
0.014552346 -0.0081856549 0.7052623
0.014488937 -0.0090555847 0.70471489
0.014477167 -0.009953022 0.70461327
0.014482807 -0.010862082 0.70466197
0.014505987 -0.011786103 0.70486206
0.014545229 -0.012727052 0.70520091
0.014607698 -0.013694704 0.70574015
0.014680029 -0.014679998 0.70636463
0.014756924 -0.01567924 0.70702851
0.014836756 -0.016691327 0.70771772
0.014902412 -0.017696589 0.7082845
0.01496291 -0.01870364 0.70880687
0.015026748 -0.019722611 0.70935798
0.015094196 -0.020754486 0.70994031
0.015165249 -0.021800041 0.71055365
0.015240049 -0.02286005 0.7111994
0.015319337 -0.02393645 0.7118839
0.015402595 -0.025029212 0.71260279
0.015490091 -0.026139468 0.7133581
0.015581851 -0.027268231 0.71415037
0.015685298 -0.028429568 0.71504343
0.015907314 -0.029826164 0.71696007
0.016851887 0.030729949 0.71655685
0.016690992 0.029454678 0.71524954
0.016585153 0.028292328 0.71438944
0.016484302 0.027150601 0.71357006
0.016388334 0.026028544 0.71279025
0.016296627 0.024924248 0.71204513
0.016209684 0.023837775 0.7113387
0.016127264 0.022767931 0.71066892
0.016048731 0.021713018 0.71003079
0.015973689 0.020671844 0.7094211
0.015903343 0.019645303 0.70884949
0.01582415 0.018616676 0.70820606
0.015725954 0.017576098 0.70740813
0.015637089 0.016556948 0.70668608
0.015550945 0.015550941 0.70598614
0.015494849 0.014583379 0.70553029
0.015462766 0.013643622 0.70526958
0.015457519 0.012729734 0.70522702
0.015487396 0.011843324 0.70546979
0.015580227 0.010997832 0.70622402
0.01567165 0.010140479 0.70696694
0.015759286 0.0092701614 0.70767897
0.015820978 0.0083758235 0.70818025
0.015882012 0.007473886 0.70867622
0.015935523 0.0065616965 0.70911098
0.015985455 0.0056419373 0.7095167
0.016020762 0.0047120154 0.70980358
0.016047001 0.0037758052 0.71001679
0.016066378 0.0028352737 0.7101742
0.016082119 0.0018920302 0.71030217
0.016093176 0.00094667077 0.710392
0.016093176 2.9802322e-08 0.710392
0.016082169 -0.00094598532 0.71030259
0.01606643 -0.0018901527 0.71017468
0.016047051 -0.0028318167 0.7100172
0.016020762 -0.0037695765 0.70980364
0.015985508 -0.0047015846 0.70951706
0.015935576 -0.0056242943 0.70911145
0.015882161 -0.0065397024 0.70867741
0.01582103 -0.0074451864 0.70818067
0.015759384 -0.0083431602 0.70767975
0.015671745 -0.009218663 0.70696771
0.015580419 -0.01008144 0.70622557
0.015487539 -0.010932356 0.70547092
0.015457565 -0.011820495 0.70522738
0.015462814 -0.012734056 0.70526999
0.015494755 -0.013671815 0.70552951
0.01555152 -0.014636725 0.70599079
0.01563675 -0.015636742 0.70668334
0.015726443 -0.016651511 0.70741206
0.01582296 -0.017684489 0.70819634
0.015904194 -0.018710792 0.70885634
0.015974546 -0.01973325 0.70942807
0.016048731 -0.02076894 0.71003091
0.016127057 -0.021818936 0.71066725
0.01620953 -0.022884011 0.71133745
0.016296471 -0.023965359 0.71204388
0.01638791 -0.025063872 0.71278679
0.016484033 -0.026180506 0.71356791
0.016584989 -0.027316421 0.71438819
0.016691599 -0.028473884 0.71525443
0.016853515 -0.029741436 0.71657008
0.017850433 0.030742437 0.71661252
0.017711993 0.029520005 0.71555018
0.017595613 0.028348505 0.71465707
0.017484637 0.027198344 0.71380544
0.017379113 0.026068687 0.71299565
0.017279036 0.024958611 0.71222764
0.017183524 0.023866028 0.71149468
0.017092228 0.022789627 0.71079403
0.017006541 0.021730572 0.71013647
0.016924705 0.020685762 0.70950854
0.016830998 0.019636154 0.70878941
0.016716421 0.018573821 0.70791012
0.016605606 0.017528176 0.70705974
0.016516052 0.01651606 0.70637244
0.016463481 0.015548855 0.70596898
0.016445676 0.014618397 0.70583236
0.016466822 0.01372239 0.70599461
0.016571783 0.012889177 0.70680016
0.016679231 0.012046129 0.70762473
0.016784189 0.011189461 0.70843017
0.016859783 0.010303229 0.7090103
0.016936004 0.0094088912 0.7095952
0.017012974 0.0085065067 0.71018589
0.017065691 0.0075847805 0.71059042
0.01711436 0.0066556036 0.7109639
0.017157309 0.0057191253 0.71129346
0.017196551 0.0047768652 0.71159464
0.017227378 0.0038283467 0.71183121
0.017249748 0.0028750002 0.71200287
0.017261932 0.0019180179 0.71209633
0.017269948 0.00095948577 0.71215791
0.017269894 -0 0.71215749
0.017261932 -0.00095897913 0.71209633
0.017249748 -0.0019166172 0.71200293
0.017227378 -0.0028712153 0.71183115
0.017196663 -0.0038214624 0.71159554
0.017157365 -0.004765898 0.71129394
0.01711447 -0.0057048202 0.71096474
0.017065747 -0.0066366494 0.71059084
0.017013082 -0.0075613558 0.71018672
0.016936112 -0.0084680319 0.7095961
0.016859835 -0.0093665719 0.70901072
0.016784295 -0.010257035 0.70843095
0.016679388 -0.011119574 0.70762587
0.016571935 -0.011968613 0.7068013
0.016466923 -0.012807578 0.7059955
0.016445726 -0.013704747 0.70583278
0.016463429 -0.014634132 0.70596868
0.016515747 -0.015598178 0.70637012
0.016605556 -0.016605556 0.70705932
0.016717151 -0.017645866 0.70791566
0.016832003 -0.018702209 0.7087971
0.016925242 -0.019746095 0.70951259
0.017006921 -0.020786196 0.71013939
0.017092666 -0.021840632 0.71079743
0.017183028 -0.022910655 0.71149087
0.017278312 -0.023997635 0.71222204
0.01737866 -0.025102496 0.71299219
0.017484352 -0.026226521 0.71380323
0.017595787 -0.027371198 0.71465838
0.017712697 -0.028537124 0.71555555
0.017851742 -0.02975291 0.71662259
0.018882358 0.030808091 0.71690506
0.018741818 0.029592365 0.71588337
0.018613957 0.028410822 0.71495378
0.018492486 0.027252108 0.71407068
0.018376537 0.026114047 0.71322763
0.018266281 0.024995983 0.71242607
0.018162185 0.023897618 0.71166927
0.018062962 0.02281639 0.71094787
0.017968189 0.021751016 0.7102589
0.017866267 0.020687282 0.70951796
0.017726481 0.019592434 0.7085017
0.017600317 0.018526673 0.70758444
0.017499425 0.017499417 0.70685095
0.017451432 0.016532958 0.70650202
0.017447121 0.015610605 0.70647067
0.017526511 0.014759183 0.70704782
0.017647645 0.013932347 0.70792854
0.017770076 0.01309374 0.70881861
0.017866267 0.012224317 0.7095179
0.017956428 0.011340886 0.71017337
0.01804756 0.010448605 0.71083599
0.018118624 0.0095361471 0.71135259
0.018180709 0.0086119473 0.71180397
0.018242398 0.0076809824 0.7122525
0.018296564 0.0067408681 0.71264625
0.01833456 0.0057899058 0.71292251
0.018367279 0.0048335195 0.71316034
0.0183961 0.0038728714 0.71336991
0.018418046 0.0029081404 0.71352947
0.018432464 0.00194031 0.71363425
0.018443475 0.00097075105 0.7137143
0.018443475 2.9802322e-08 0.71371436
0.018432526 -0.0009701252 0.71363473
0.018418046 -0.0019387007 0.71352947
0.0183961 -0.0029046237 0.71336991
0.018367279 -0.0038667917 0.7131604
0.018334618 -0.0048249066 0.71292293
0.018296564 -0.0057778358 0.71264625
0.018242516 -0.0067209005 0.71225333
0.018180767 -0.0076550245 0.71180445
0.018118624 -0.0085824728 0.71135259
0.018047616 -0.0094987154 0.71083635
0.0179566 -0.010395914 0.71017468
0.017866381 -0.011284053 0.70951879
0.017770411 -0.012158692 0.70882106
0.017647756 -0.013003618 0.70792925
0.017526673 -0.013836801 0.70704901
0.017447174 -0.014692336 0.70647109
0.017451432 -0.01561445 0.70650202
0.017499371 -0.016578346 0.70685059
0.017600099 -0.017600089 0.70758283
0.017726926 -0.01865992 0.70850486
0.01786508 -0.019745618 0.70950931
0.017968476 -0.020805597 0.71026105
0.018062271 -0.021864831 0.71094286
0.01816125 -0.022940487 0.71166247
0.018265631 -0.024033725 0.71242142
0.018375998 -0.025146067 0.7132237
0.018492185 -0.026278347 0.71406841
0.018614203 -0.027431428 0.71495557
0.018742254 -0.028606564 0.71588647
0.018883873 -0.029816628 0.71691608
0.020219132 0.03235063 0.71927381
0.019929044 0.030890048 0.71727026
0.019781901 0.029672891 0.71625406
0.019641453 0.028480142 0.71528399
0.019508105 0.027311385 0.71436298
0.019381668 0.026165247 0.71348977
0.019261161 0.025039524 0.71265745
0.019146152 0.023932725 0.7118631
0.019037988 0.022845596 0.71111608
0.018927487 0.021766633 0.7103529
0.018772466 0.020649731 0.70928222
0.018618394 0.01954934 0.70821804
0.018505437 0.018505454 0.70743799
0.018457832 0.017534941 0.70710915
0.018464994 0.01661852 0.70715857
0.018579718 0.015792787 0.70795095
0.018712817 0.014970303 0.70887023
0.0188393 0.01412949 0.7097438
0.01894165 0.013259172 0.71045065
0.019045061 0.012379318 0.71116489
0.019137774 0.011482686 0.71180522
0.019217476 0.010569602 0.71235573
0.019292649 0.0096463561 0.71287489
0.019361101 0.0087125301 0.71334767
0.019414565 0.0077658296 0.71371698
0.019462973 0.0068120658 0.71405131
0.019508874 0.0058526695 0.71436834
0.019549076 0.0048872828 0.71464598
0.019572556 0.003914535 0.71480811
0.019591317 0.0029386878 0.71493769
0.019604361 0.0019604564 0.71502781
0.019614898 0.00098073483 0.71510059
0.019614898 2.9802322e-08 0.71510053
0.019604294 -0.00098019838 0.71502733
0.019591317 -0.0019591153 0.71493769
0.019572556 -0.0029358566 0.71480817
0.019549204 -0.0039098263 0.71464688
0.019508937 -0.0048772097 0.71436876
0.019462973 -0.005838871 0.71405131
0.01941463 -0.0067951083 0.7137174
0.019361228 -0.0077444613 0.71334851
0.019292649 -0.0086816549 0.71287489
0.019217601 -0.0096087754 0.71235657
0.019137958 -0.010525882 0.71180654
0.01904512 -0.011427075 0.71116537
0.018941771 -0.012312114 0.71045148
0.018839478 -0.013187617 0.70974505
0.018713171 -0.014034867 0.70887268
0.018579254 -0.014863372 0.70794773
0.018465051 -0.015695304 0.70715904
0.01845789 -0.016612083 0.70710951
0.018505381 -0.017580122 0.70743757
0.018618161 -0.018618137 0.70821643
0.018773239 -0.019711852 0.70928758
0.018927066 -0.020819753 0.71034998
0.019036768 -0.021892279 0.71110767
0.019145226 -0.022974253 0.71185672
0.019259917 -0.024074852 0.71264887
0.019380659 -0.025194854 0.71348274
0.019507913 -0.026335686 0.71436167
0.019641519 -0.027498096 0.71528447
0.019781835 -0.028683662 0.71625358
0.019928845 -0.029893249 0.71726888
0.020232061 -0.031359643 0.71936309
0.021244531 0.032372624 0.71936882
0.020994715 0.03099221 0.71772563
0.020833079 0.029761553 0.71666241
0.020679865 0.028557956 0.71565461
0.02053321 0.027377635 0.71468997
0.020394415 0.026221395 0.71377695
0.020263199 0.025087804 0.71291381
0.020138139 0.023973972 0.71209127
0.020016668 0.022876233 0.71129221
0.019853959 0.021744817 0.71022195
0.019673463 0.020610303 0.70903468
0.01953299 0.019533038 0.70811069
0.019476036 0.018548638 0.70773607
0.019490136 0.017633945 0.70782888
0.0196192 0.016816467 0.70867777
0.019761173 0.015997171 0.70961165
0.019893674 0.015157104 0.71048319
0.020007115 0.01429081 0.71122938
0.020121919 0.013414592 0.71198457
0.020218918 0.012516469 0.71262258
0.020308664 0.011604965 0.71321291
0.020396344 0.010683805 0.71378964
0.020464515 0.0097450316 0.71423811
0.020528689 0.0087980032 0.71466017
0.02058926 0.0078435242 0.71505862
0.020641726 0.0068805516 0.71540374
0.020679455 0.0059084594 0.71565187
0.020714091 0.0049319267 0.71587974
0.020743951 0.0039512217 0.71607614
0.020767679 0.0029668212 0.71623218
0.020783991 0.0019794405 0.71633947
0.020792432 0.00099015236 0.71639502
0.020792363 5.9604645e-08 0.71639454
0.020783991 -0.00098967552 0.71633953
0.020767679 -0.0019778609 0.71623218
0.02074402 -0.0029634237 0.71607661
0.020714229 -0.0039455891 0.71588063
0.020679524 -0.0049236715 0.71565235
0.020641794 -0.0058976412 0.71540415
0.020589394 -0.0068631172 0.71505952
0.020528756 -0.0078204572 0.71466064
0.020464515 -0.0087704957 0.71423805
0.020396477 -0.0097126067 0.71379054
0.020308794 -0.010637909 0.71321374
0.020218918 -0.011553615 0.71262258
0.020122115 -0.012456536 0.71198583
0.02000737 -0.013338238 0.71123111
0.019893864 -0.014209896 0.71048445
0.019760361 -0.015055507 0.70960635
0.019619385 -0.015882343 0.70867902
0.019490318 -0.01670596 0.70783001
0.019475974 -0.01762107 0.70773566
0.019532867 -0.018602699 0.70810992
0.01967396 -0.019673973 0.70903796
0.019853644 -0.020799011 0.71021986
0.020017181 -0.021923572 0.7112956
0.020136323 -0.023012936 0.71207929
0.020261554 -0.024120867 0.71290302
0.020393681 -0.025249302 0.71377212
0.020532873 -0.026399404 0.71468771
0.02067925 -0.027572304 0.71565056
0.020832868 -0.028769165 0.71666098
0.020994574 -0.029992253 0.71772468
0.021239616 -0.031353742 0.71933651
0.022321017 0.032466918 0.71977597
0.022074755 0.031105369 0.71822971
0.02189759 0.029860377 0.71711737
0.021729233 0.028643072 0.71606028
0.021569913 0.027452648 0.71505994
0.02141726 0.026284844 0.71410143
0.021273043 0.025140882 0.71319598
0.021137174 0.024019539 0.71234286
0.020986389 0.022894263 0.7113961
0.020775147 0.021719456 0.71006978
0.020584941 0.020584941 0.70887554
0.02050758 0.019575417 0.70838976
0.020513304 0.018648446 0.70842576
0.020645348 0.017830133 0.7092548
0.020793701 0.017013073 0.71018624
0.020938838 0.016180038 0.71109754
0.021061512 0.01531747 0.71186781
0.021185771 0.014444858 0.71264797
0.021291181 0.01354894 0.71330988
0.021389743 0.012639433 0.7139287
0.021488728 0.011721164 0.71455014
0.021561738 0.010780901 0.71500862
0.021634677 0.0098339617 0.71546656
0.021708108 0.0088805854 0.71592766
0.021760019 0.007912755 0.71625352
0.021809343 0.0069393516 0.71656328
0.021854216 0.0059602559 0.71684504
0.021894658 0.0049761236 0.71709895
0.021918571 0.0039852262 0.71724904
0.021937752 0.0029915273 0.7173695
0.021951515 0.0019956231 0.71745598
0.021960506 0.00099822879 0.71751237
0.021960506 2.9802322e-08 0.71751231
0.02195159 -0.00099775195 0.71745634
0.021937825 -0.0019943118 0.71737003
0.021918571 -0.0029888749 0.71724904
0.021894658 -0.0039808154 0.71709895
0.021854363 -0.0049669147 0.71684593
0.021809416 -0.0059480369 0.7165637
0.021760091 -0.0069236457 0.716254
0.021708254 -0.0078938901 0.71592855
0.021634819 -0.0088505745 0.71546745
0.021561809 -0.0098008215 0.71500897
0.021488868 -0.010744423 0.71455109
0.021389883 -0.011667192 0.71392953
0.02129125 -0.01258117 0.7133103
0.021185907 -0.013481945 0.71264887
0.021061784 -0.014360279 0.71186948
0.020939039 -0.015228361 0.71109879
0.02079575 -0.016069412 0.71019918
0.020646717 -0.016892731 0.70926344
0.020513304 -0.017715991 0.7084257
0.020507451 -0.018643111 0.70838898
0.020584488 -0.01964882 0.70887268
0.020774554 -0.020774513 0.71006608
0.02098188 -0.021935612 0.71136785
0.021135127 -0.023056477 0.71232998
0.021272076 -0.024172783 0.7131899
0.02141656 -0.025310457 0.71409708
0.021568848 -0.02647087 0.71505326
0.021729017 -0.027655065 0.71605885
0.021897445 -0.028864801 0.71711648
0.02207483 -0.030102044 0.71823019
0.022327492 -0.031461477 0.71981663
0.02343001 0.032598287 0.72034287
0.023172207 0.031232119 0.71879464
0.022977527 0.029970676 0.71762538
0.022792926 0.028738916 0.71651667
0.022618296 0.027535319 0.71546787
0.022452215 0.026356965 0.71447045
0.022293931 0.025201827 0.71351987
0.022141734 0.024067074 0.71260583
0.021925196 0.022878498 0.71130532
0.021685937 0.021685958 0.70986837
0.021561118 0.020623714 0.70911878
0.021543393 0.019670069 0.70901227
0.021660941 0.018835634 0.70971823
0.0218191 0.018024474 0.71066809
0.021974925 0.017197758 0.71160394
0.022104882 0.016338408 0.71238452
0.022236314 0.015468776 0.71317381
0.022353893 0.01457867 0.71387994
0.022459734 0.01367116 0.71451569
0.022566583 0.012755036 0.71515733
0.022650877 0.011817873 0.71566361
0.022731647 0.010871679 0.71614867
0.022813072 0.0099187493 0.71663773
0.022873338 0.0089504719 0.71699965
0.022930695 0.0079759061 0.71734411
0.022987334 0.0069961846 0.71768427
0.023027653 0.0060072243 0.71792638
0.023061115 0.0050132573 0.71812743
0.023090696 0.0040157735 0.71830505
0.02311551 0.003015101 0.71845406
0.02313349 0.002011627 0.71856207
0.02313897 0.0010060668 0.71859497
0.023139048 -0 0.71859539
0.02313349 -0.0010057986 0.71856207
0.023115588 -0.0020100474 0.71845454
0.023090774 -0.0030118227 0.71830547
0.023061115 -0.0040106475 0.71812737
0.023027653 -0.0050059855 0.71792638
0.02298741 -0.0059967041 0.71768475
0.022930771 -0.006978929 0.71734458
0.022873489 -0.0079559684 0.71700054
0.022813147 -0.0089268684 0.71663815
0.022731721 -0.0098833442 0.71614915
0.022650952 -0.010833025 0.71566409
0.022566732 -0.011773944 0.71515822
0.022459881 -0.012694687 0.71451652
0.022353966 -0.013606727 0.71388042
0.02223653 -0.014502078 0.71317512
0.022105027 -0.015377402 0.71238536
0.021975137 -0.016242474 0.71160525
0.021819239 -0.017075896 0.71066898
0.02166101 -0.017893851 0.7097187
0.021543462 -0.018733412 0.70901263
0.021561118 -0.019686252 0.70911872
0.021685593 -0.020742744 0.70986634
0.021923017 -0.021923006 0.71129227
0.022140658 -0.023103297 0.71259934
0.022292696 -0.024231166 0.71351242
0.022450667 -0.025378972 0.71446115
0.022617474 -0.026550919 0.71546292
0.022792852 -0.02774781 0.7165162
0.022977527 -0.028971642 0.71762538
0.023172051 -0.030224413 0.71879369
0.023427201 -0.031575769 0.72032595
0.024574636 0.032766193 0.72106767
0.024289461 0.031373888 0.71942639
0.024076192 0.030095249 0.7181989
0.023873018 0.028846592 0.71702945
0.023681181 0.027628064 0.71592534
0.023499593 0.026437074 0.71488023
0.023327021 0.025270969 0.71388698
0.02314795 0.024112463 0.71285641
0.022866592 0.022866607 0.71123695
0.022647187 0.021703541 0.70997423
0.0225887 0.020706296 0.70963758
0.022662502 0.01982969 0.71006233
0.022826955 0.019022495 0.71100885
0.022993812 0.018203437 0.71196926
0.023138195 0.017353654 0.7128002
0.023274992 0.016486466 0.71358752
0.023407269 0.015604854 0.71434891
0.023518875 0.01469931 0.71499121
0.023631629 0.013785154 0.71564019
0.023730785 0.012854189 0.71621084
0.02381837 0.011909217 0.71671492
0.023906603 0.010957211 0.71722281
0.023977518 0.0099906325 0.71763092
0.02404302 0.0090161264 0.71800792
0.024108801 0.0080362856 0.71838653
0.024155635 0.007045418 0.71865606
0.024197973 0.006049484 0.71889985
0.024238074 0.0050496161 0.71913058
0.024268813 0.0040448308 0.71930748
0.024286486 0.0030358136 0.71940923
0.024300046 0.0020250082 0.71948731
0.024307577 0.0010128319 0.71953058
0.024307577 -0 0.71953064
0.024300128 -0.0010125041 0.71948779
0.024286404 -0.0020238757 0.71940875
0.024268731 -0.0030336082 0.71930701
0.024238238 -0.004039675 0.71913159
0.024198055 -0.0050412416 0.7189002
0.024155635 -0.0060388744 0.71865612
0.024108801 -0.007031709 0.71838653
0.02404302 -0.0080143213 0.71800798
0.023977598 -0.0089915991 0.7176314
0.023906684 -0.0099610984 0.71722329
0.023818528 -0.010916829 0.71671587
0.023730941 -0.011865437 0.7162118
0.023631707 -0.012800485 0.71564066
0.02351903 -0.01371944 0.71499211
0.023407424 -0.014629602 0.71434981
0.023275143 -0.015516758 0.71358842
0.023138272 -0.016389579 0.71280062
0.022993959 -0.017245471 0.71197003
0.0228271 -0.018071443 0.71100974
0.022662645 -0.018885523 0.71006322
0.0225887 -0.019765109 0.70963752
0.022646898 -0.020759642 0.7099725
0.022866225 -0.021913469 0.71123487
0.023141572 -0.023141563 0.71281958
0.023324886 -0.024296731 0.7138747
0.023498124 -0.02545628 0.71487176
0.023680946 -0.026641071 0.71592402
0.02387318 -0.027851999 0.71703041
0.024075298 -0.029090971 0.71819371
0.024288718 -0.030360878 0.71942204
0.024576582 -0.031744719 0.72107887
0.025760891 0.032973945 0.72196454
0.025428904 0.03153187 0.72013021
0.025194777 0.030233711 0.71883655
0.024972387 0.028967977 0.71760774
0.024760811 0.027732104 0.71643877
0.024561876 0.026526839 0.71533954
0.02437322 0.025348186 0.71429718
0.02412943 0.02412945 0.71295017
0.023807544 0.022855282 0.71117169
0.023660937 0.021768063 0.7103616
0.023665307 0.020825505 0.71038574
0.023821427 0.020010024 0.7112484
0.023990607 0.019192517 0.71218312
0.024154438 0.018357366 0.71308833
0.02429755 0.017494261 0.71387911
0.024442451 0.016620874 0.71467972
0.024566907 0.015722841 0.71536738
0.024684932 0.014811009 0.71601945
0.024800951 0.013888568 0.7166605
0.024894373 0.012945086 0.71717674
0.0249885 0.011994541 0.71769679
0.025074884 0.011032969 0.7181741
0.02514527 0.010058105 0.71856302
0.025216138 0.0090778172 0.71895462
0.025276663 0.0080885589 0.719289
0.025325481 0.0070911348 0.71955872
0.025373535 0.0060896575 0.71982431
0.025411434 0.005082339 0.72003359
0.025437167 0.0040699542 0.72017586
0.025460687 0.0030553043 0.7203058
0.025480146 0.0020384192 0.72041333
0.025487047 0.0010195076 0.72045141
0.025487047 2.9802322e-08 0.72045141
0.025480233 -0.0010192096 0.7204138
0.025460687 -0.0020368397 0.72030574
0.025437167 -0.0030524433 0.72017586
0.025411434 -0.0040658414 0.72003365
0.02537345 -0.0050746799 0.71982378
0.025325567 -0.006078124 0.71955919
0.02527675 -0.0070774853 0.71928942
0.025216224 -0.0080691874 0.71895504
0.025145356 -0.0090522766 0.71856344
0.025074968 -0.010029972 0.71817452
0.024988668 -0.010994971 0.71769774
0.024894541 -0.01194936 0.71717763
0.024801034 -0.012896538 0.71666098
0.024685096 -0.013823628 0.71602041
0.024566988 -0.014740169 0.71536779
0.024442531 -0.015643209 0.71468014
0.024297709 -0.016522408 0.71388
0.024154594 -0.017391324 0.71308923
0.02399084 -0.018233031 0.71218443
0.023821732 -0.019057363 0.71125007
0.023665382 -0.019878894 0.71038616
0.023660863 -0.020821542 0.71036112
0.023807162 -0.021902591 0.71116954
0.024125673 -0.023160607 0.71292937
0.024371382 -0.024371356 0.71428704
0.024561388 -0.025543809 0.71533686
0.024761718 -0.026742637 0.71644378
0.024972722 -0.02796945 0.71760964
0.025194179 -0.02922523 0.71883321
0.025428033 -0.030513614 0.72012532
0.025754288 -0.031935304 0.721928
0.02659679 0.031711578 0.72093093
0.02633868 0.030390799 0.71955973
0.026093543 0.029104352 0.71825731
0.025860967 0.02785027 0.7170217
0.025642021 0.026628286 0.71585846
0.025434028 0.025434077 0.71475339
0.025110988 0.024145186 0.71303725
0.024799392 0.02289176 0.71138179
0.024719477 0.021867275 0.71095717
0.02480544 0.020989239 0.71141386
0.024979733 0.020175964 0.71233988
0.025153875 0.019349188 0.71326506
0.025309652 0.01849556 0.71409261
0.025457811 0.017624646 0.71487987
0.025603898 0.016741037 0.71565592
0.025726225 0.01583156 0.71630579
0.025849728 0.014913321 0.71696198
0.025960818 0.013978928 0.71755219
0.026058368 0.013029218 0.71807039
0.026156653 0.012072325 0.71859264
0.0262384 0.011100888 0.71902686
0.026313582 0.01012063 0.71942639
0.026389107 0.0091347396 0.71982759
0.026444249 0.0081366897 0.72012055
0.026497081 0.0071338713 0.72040117
0.026549486 0.0061267912 0.72067964
0.02658006 0.0051115453 0.72084212
0.026610702 0.0040939748 0.72100484
0.026639305 0.0030737817 0.72115684
0.026648303 0.0020498931 0.72120464
0.026654918 0.0010251701 0.72123981
0.026654825 2.9802322e-08 0.72123933
0.026648303 -0.0010249019 0.72120464
0.026639398 -0.0020491779 0.72115731
0.026610702 -0.0030704439 0.7210049
0.02658006 -0.0040892363 0.72084206
0.026549395 -0.0051056445 0.72067916
0.026497172 -0.0061147213 0.72040176
0.026444249 -0.007119596 0.72012055
0.026389107 -0.0081197321 0.71982759
0.026313582 -0.0091085434 0.71942633
0.026238488 -0.010091722 0.7190274
0.026156742 -0.011066288 0.71859306
0.026058368 -0.012026906 0.71807045
0.025960818 -0.012980402 0.71755213
0.025849814 -0.013919145 0.71696246
0.025726311 -0.014842063 0.71630633
0.025603984 -0.015756279 0.7156564
0.025457978 -0.016645551 0.71488065
0.025309734 -0.017522126 0.71409303
0.025154121 -0.018381864 0.71326637
0.024979895 -0.019215286 0.71234071
0.024805678 -0.020035356 0.71141517
0.024719477 -0.020916432 0.71095717
0.024798995 -0.021937549 0.71137965
0.025110336 -0.023178726 0.71303374
0.025433609 -0.024455398 0.71475124
0.025643125 -0.02564311 0.71586436
0.025862871 -0.026857555 0.71703184
0.02609407 -0.028101295 0.71826017
0.026337871 -0.029376805 0.71955538
0.026594779 -0.030686259 0.72092026
0.027795758 0.031913668 0.7218315
0.027510827 0.030567616 0.72037375
0.027241468 0.029259354 0.71899569
0.026985222 0.027984709 0.71768475
0.026743902 0.026743919 0.7164501
0.026514474 0.025532484 0.71527636
0.026120482 0.024185658 0.71326071
0.025833666 0.022963256 0.71179336
0.02580967 0.021986067 0.71167052
0.025955584 0.021149009 0.71241707
0.026135955 0.020327985 0.71333987
0.026315486 0.019492984 0.71425837
0.026465274 0.01862371 0.71502465
0.026616778 0.017744541 0.71579981
0.026758697 0.016848087 0.71652585
0.026884932 0.015931845 0.71717167
0.027012456 0.01500693 0.7178241
0.027120477 0.014062494 0.71837676
0.027221337 0.013106585 0.71889275
0.027322762 0.012143493 0.71941161
0.027402485 0.011164039 0.71981943
0.02748079 0.010178089 0.72022009
0.027557373 0.009185791 0.72061187
0.027613189 0.008181721 0.72089744
0.027669424 0.007173568 0.72118509
0.02771871 0.0061597526 0.72143728
0.027756557 0.0051400959 0.72163093
0.027786622 0.004116565 0.72178471
0.027810102 0.003090024 0.72190487
0.027820123 0.002060771 0.72195607
0.027829861 0.0010307431 0.7220059
0.027829861 -0 0.72200596
0.02782022 -0.0010303557 0.72195661
0.027810199 -0.0020599961 0.72190535
0.027786814 -0.0030873716 0.72178566
0.027756654 -0.0041120648 0.72163141
0.02771871 -0.0051330626 0.72143728
0.027669616 -0.0061487854 0.72118616
0.027613284 -0.0071589947 0.72089797
0.027557466 -0.0081651211 0.72061235
0.027480885 -0.0091602504 0.72022057
0.027402669 -0.010149091 0.71982038
0.027322948 -0.011131585 0.71941257
0.027221337 -0.012098342 0.71889269
0.02712057 -0.013058066 0.71837723
0.027012639 -0.014006525 0.717825
0.026885113 -0.014936179 0.71717262
0.026758697 -0.015857011 0.71652591
0.026616955 -0.01675877 0.71580064
0.026465448 -0.017643631 0.7150256
0.026315659 -0.018518388 0.71425927
0.026136126 -0.019360095 0.71334076
0.025955835 -0.020187855 0.71241832
0.025809752 -0.021030128 0.71167099
0.025833583 -0.022006392 0.71179295
0.026119802 -0.023217589 0.71325719
0.026513774 -0.024549782 0.71527278
0.026745595 -0.025754988 0.7164588
0.026986672 -0.026986659 0.71769214
0.027241468 -0.028250396 0.71899569
0.027510732 -0.029548526 0.72037327
0.027795181 -0.030883521 0.72182858
0.029033978 0.032144785 0.72286129
0.028719552 0.030770987 0.72131014
0.028420979 0.029436022 0.71983713
0.028137485 0.028137505 0.71843863
0.027871432 0.026876032 0.71712613
0.027615491 0.025642961 0.71586347
0.027133806 0.024226636 0.71348715
0.026904989 0.023061454 0.7123583
0.026925867 0.022117704 0.71246129
0.02710316 0.021295339 0.71333599
0.02728441 0.020463318 0.71423018
0.027463844 0.019617021 0.71511531
0.027619248 0.018741667 0.71588194
0.027772898 0.017854035 0.71664
0.027912352 0.016946763 0.71732795
0.028041501 0.016023725 0.71796513
0.028171945 0.015092134 0.71860862
0.028280731 0.014140397 0.7191453
0.028385812 0.013179153 0.71966368
0.028486021 0.012208313 0.72015798
0.02857223 0.011224836 0.72058332
0.028650481 0.010232329 0.72096938
0.028723218 0.0092325211 0.7213282
0.028778907 0.00822258 0.72160298
0.028834114 0.0072085261 0.72187531
0.028887128 0.0061901212 0.72213686
0.028919633 0.005164206 0.72229719
0.028951105 0.0041359067 0.7224524
0.028980928 0.003105104 0.72259963
0.028990917 0.0020708144 0.72264886
0.028996974 0.0010356307 0.72267878
0.028996974 2.9802322e-08 0.72267872
0.028990816 -0.0010353923 0.72264832
0.028980928 -0.0020700395 0.72259957
0.028951205 -0.0031019151 0.722453
0.028919633 -0.0041313767 0.72229719
0.028887028 -0.0051583946 0.72213632
0.028834013 -0.0061786771 0.72187483
0.028778907 -0.0071947277 0.72160298
0.028723218 -0.0082066059 0.7213282
0.02865058 -0.0092090964 0.72096986
0.028572328 -0.010204375 0.7205838
0.028486216 -0.01119101 0.72015899
0.028386198 -0.012165487 0.71966553
0.02828102 -0.013130456 0.71914667
0.02817204 -0.014086008 0.71860909
0.028041689 -0.015022308 0.71796596
0.02791254 -0.015950024 0.71732891
0.027772898 -0.016862094 0.71664
0.027619431 -0.017755359 0.7158829
0.027464025 -0.018636286 0.7151162
0.027286109 -0.019490093 0.71423852
0.027104042 -0.020327985 0.71334034
0.026926041 -0.021156132 0.71246213
0.026904989 -0.022100508 0.7123583
0.027133098 -0.023256898 0.71348363
0.027614392 -0.0246557 0.71585798
0.027873205 -0.025882214 0.71713477
0.028138721 -0.027133763 0.71844471
0.028419718 -0.028419703 0.71983099
0.028718065 -0.029743671 0.72130281
0.029033978 -0.031107813 0.72286129
0.030348351 0.032441378 0.72418278
0.029967256 0.031000614 0.72236758
0.029636597 0.029636621 0.72079253
0.029324718 0.028313547 0.71930707
0.029030567 0.027028501 0.71790594
0.028744176 0.025770664 0.71654183
0.028185343 0.024297714 0.71387994
0.028002318 0.023174345 0.71300817
0.028064005 0.022257686 0.71330208
0.028248858 0.021430194 0.7141825
0.028433256 0.02058965 0.71506083
0.028608495 0.019730031 0.71589553
0.028767474 0.018847644 0.71665281
0.028926287 0.01795426 0.71740925
0.02906814 0.017039955 0.71808493
0.029201303 0.016111076 0.71871918
0.029328108 0.01516971 0.71932322
0.029440032 0.01421243 0.71985632
0.029542794 0.013243347 0.7203458
0.029644849 0.012266845 0.72083187
0.029727103 0.011275798 0.72122371
0.029806621 0.010278136 0.72160244
0.029884806 0.0092746019 0.72197485
0.029944053 0.0082604289 0.72225708
0.029998004 0.0072409213 0.72251403
0.030050475 0.0062173605 0.72276396
0.030088531 0.0051876903 0.72294521
0.030117109 0.0041540861 0.72308135
0.030142266 0.003118217 0.72320122
0.030161873 0.0020801723 0.72329462
0.03017232 0.0010404587 0.72334433
0.03017232 2.9802322e-08 0.72334433
0.030161873 -0.0010400414 0.72329456
0.030142266 -0.0020787418 0.72320122
0.030117003 -0.0031155348 0.72308081
0.030088531 -0.0041500926 0.72294527
0.030050579 -0.0051811337 0.72276449
0.029998004 -0.0062064528 0.72251403
0.029944157 -0.0072278678 0.72225761
0.02988491 -0.0082440674 0.72197533
0.029806828 -0.0092503726 0.72160339
0.029727206 -0.010250717 0.72122419
0.029644951 -0.011244625 0.72083235
0.029543098 -0.012224704 0.72034723
0.029440437 -0.013197422 0.71985823
0.029328207 -0.014158398 0.71932369
0.029201597 -0.015104264 0.71872061
0.029068433 -0.016037732 0.71808624
0.028926481 -0.016956896 0.71741021
0.028767761 -0.017855853 0.71665412
0.028608685 -0.018743634 0.71589649
0.028433537 -0.019609332 0.7150622
0.028249135 -0.020456254 0.71418381
0.028064279 -0.021290123 0.71330333
0.028002227 -0.022208631 0.71300769
0.028184699 -0.023325235 0.7138769
0.028743887 -0.024779171 0.7165404
0.029031251 -0.026028007 0.71790922
0.029324519 -0.027302146 0.71930611
0.029635781 -0.028613806 0.72078872
0.02996611 -0.029966086 0.72236216
0.030342907 -0.031389177 0.72415686
0.031266231 0.031266272 0.72359061
0.030898938 0.02986899 0.72189939
0.030552825 0.028515995 0.7203058
0.030226665 0.027204007 0.71880394
0.029917223 0.025928229 0.71737921
0.02928319 0.024402678 0.71445984
0.029115099 0.023292094 0.71368587
0.029201435 0.022387773 0.71408343
0.029389199 0.021552116 0.71494794
0.029577728 0.020704418 0.71581596
0.029754592 0.019836396 0.7166304
0.029918127 0.018948168 0.71738338
0.030075455 0.018045276 0.71810776
0.030216938 0.017122984 0.71875924
0.03034809 0.016185641 0.71936309
0.030477365 0.015238702 0.71995831
0.030589487 0.014275134 0.7204746
0.03069441 0.013300925 0.72095776
0.030798141 0.012319297 0.72143531
0.030886635 0.011325121 0.72184277
0.030965317 0.010321796 0.72220504
0.031041486 0.0093124509 0.72255576
0.031108484 0.0082955956 0.72286433
0.031160636 0.007270813 0.72310442
0.031209795 0.0062419772 0.72333074
0.031255279 0.0052092373 0.72354025
0.031284977 0.0041713417 0.72367698
0.031306166 0.0031306446 0.72377443
0.031321552 0.0020881295 0.72384536
0.031329691 0.001044333 0.72388279
0.031329803 -0 0.72388333
0.031321663 -0.0010440648 0.7238459
0.031306166 -0.0020870566 0.72377449
0.031284977 -0.0031284988 0.72367698
0.031255059 -0.0041673183 0.72353917
0.031209905 -0.0052016377 0.72333127
0.031160636 -0.0062321126 0.72310448
0.031108484 -0.0072586536 0.72286427
0.031041486 -0.0082777143 0.72255576
0.030965427 -0.0092896223 0.72220558
0.030886635 -0.01029551 0.72184277
0.030798141 -0.011292607 0.72143531
0.030694516 -0.012277782 0.72095811
0.030589698 -0.013255507 0.72047555
0.030477472 -0.014222801 0.71995884
0.030348195 -0.015174091 0.71936357
0.030217145 -0.016115814 0.71876013
0.030075455 -0.017042756 0.71810782
0.029918326 -0.017950982 0.71738428
0.02975489 -0.018844754 0.71663177
0.029578121 -0.019718707 0.71581787
0.029389489 -0.020572633 0.71494925
0.029201532 -0.021414459 0.71408385
0.029115004 -0.022321522 0.71368545
0.029282615 -0.023426056 0.71445715
0.029912008 -0.024926662 0.71735519
0.030225845 -0.026195735 0.71880031
0.030552197 -0.027496964 0.72030294
0.030899471 -0.028839499 0.72190189
0.031268097 -0.030225784 0.72359914
0.03262895 0.031576425 0.7250188
0.03221643 0.030137986 0.72318065
0.031828921 0.028748721 0.72145391
0.031465225 0.027405202 0.71983331
0.031122454 0.026102692 0.71830601
0.030426471 0.024537474 0.71520472
0.030240737 0.023412198 0.71437716
0.030335166 0.022506773 0.71479785
0.030526813 0.021664232 0.71565187
0.030718341 0.020809233 0.71650529
0.030895403 0.019932508 0.71729428
0.031057034 0.019034952 0.71801448
0.031214235 0.018124402 0.71871495
0.031359907 0.0171974 0.71936411
0.031490695 0.016253263 0.7199468
0.031622365 0.015301168 0.72053349
0.031741366 0.014334828 0.72106379
0.031845633 0.013354659 0.72152841
0.031948041 0.01236701 0.72198474
0.032044649 0.011370689 0.72241521
0.032121465 0.010361791 0.72275746
0.03219584 0.0093472004 0.72308886
0.032266151 0.0083267391 0.7234022
0.0323226 0.0072986782 0.72365367
0.032368444 0.0062648952 0.723858
0.032409638 0.0052273571 0.72404158
0.032445222 0.004186511 0.72420013
0.032474138 0.0031426847 0.72432894
0.032488443 0.0020960569 0.72439265
0.032495197 0.0010482371 0.72442281
0.032495197 -0 0.72442281
0.032488558 -0.0010479987 0.72439319
0.032474138 -0.0020951033 0.72432894
0.032445338 -0.0031398535 0.72420067
0.032409526 -0.0041818917 0.72404104
0.032368332 -0.0052206516 0.72385752
0.032322485 -0.0062559247 0.7236532
0.032266151 -0.007285893 0.7234022
0.03219584 -0.0083085597 0.72308886
0.032121357 -0.0093255341 0.72275698
0.032044876 -0.010336995 0.72241616
0.031948041 -0.011336386 0.72198468
0.031845741 -0.012327373 0.72152889
0.031741582 -0.013310939 0.72106475
0.031622689 -0.014281213 0.72053504
0.031490806 -0.01523748 0.71994734
0.031360123 -0.01618588 0.71936506
0.031214338 -0.01711753 0.71871537
0.031057242 -0.018033206 0.71801543
0.030895505 -0.018935949 0.71729475
0.030718546 -0.019818395 0.71650618
0.030527219 -0.020679712 0.71565366
0.030335365 -0.021528304 0.71479881
0.030240936 -0.022436827 0.714378
0.030427475 -0.023556769 0.71520925
0.031121509 -0.025097936 0.71830177
0.031464368 -0.02638948 0.7198295
0.031828813 -0.027721852 0.72145343
0.032215975 -0.029098302 0.72317863
0.032629065 -0.030523956 0.72501922
0.033604547 0.030454159 0.72468662
0.033169545 0.029023349 0.7228089
0.032760877 0.027642012 0.72104478
0.032378014 0.026307166 0.71939206
0.031661361 0.024735451 0.71629858
0.031381972 0.023536503 0.7150926
0.031465914 0.022616118 0.71545494
0.031662416 0.021767914 0.71630311
0.03184795 0.02090022 0.71710402
0.032031033 0.020019412 0.71789432
0.032189649 0.019112647 0.71857893
0.03234797 0.018195778 0.71926242
0.032503862 0.017267674 0.71993536
0.032633487 0.016316742 0.72049487
0.032763135 0.015357703 0.72105455
0.032890633 0.014389634 0.72160488
0.032993946 0.013403803 0.72205091
0.033095144 0.0124107 0.72248769
0.033191875 0.0114097 0.72290528
0.03327648 0.010398924 0.72327048
0.03334843 0.0093792677 0.72358108
0.033415288 0.0083538294 0.72386968
0.033478178 0.0073233545 0.72414118
0.033528894 0.0062866807 0.72436005
0.03356662 0.0052447915 0.72452295
0.033598617 0.0041998625 0.72466105
0.033624373 0.003152281 0.72477221
0.033641491 0.0021026134 0.72484607
0.033651605 0.0010516346 0.7248897
0.033650652 -0 0.72488564
0.033641491 -0.0010513067 0.72484612
0.033624496 -0.0021015406 0.72477269
0.033598736 -0.0031498969 0.72466153
0.03356662 -0.0041958392 0.72452295
0.03352901 -0.0052388906 0.72436059
0.033478413 -0.0062771738 0.72414207
0.033415522 -0.0073096156 0.72387064
0.033348545 -0.0083371401 0.72358155
0.033276599 -0.0093590021 0.72327101
0.03319199 -0.01037249 0.72290576
0.033095259 -0.0113765 0.72248816
0.032994058 -0.012372732 0.72205132
0.032890748 -0.013361871 0.72160542
0.032763358 -0.014333934 0.72105551
0.032633599 -0.015297025 0.72049534
0.032504082 -0.016252041 0.71993625
0.03234819 -0.017184973 0.71926332
0.032189865 -0.018106759 0.71857989
0.032031141 -0.019018471 0.71789479
0.031848159 -0.019905061 0.71710491
0.031662729 -0.020778656 0.71630448
0.031466123 -0.02163294 0.71545577
0.031381868 -0.022555679 0.71509206
0.031656306 -0.023742199 0.71627665
0.032377247 -0.025294691 0.71938878
0.032760315 -0.026617736 0.72104234
0.033168968 -0.027986258 0.72280633
0.033605497 -0.029404819 0.72469074
0.035076678 0.030824959 0.72645295
0.034585811 0.029345512 0.72439831
0.034126043 0.027921319 0.72247374
0.033695571 0.026548058 0.72067189
0.033061601 0.025046706 0.71801817
0.032539275 0.023664951 0.71583176
0.032590602 0.022714704 0.71604669
0.032783184 0.021855474 0.71685278
0.032972962 0.020982802 0.71764714
0.033158224 0.020095944 0.71842265
0.033323392 0.019186229 0.71911401
0.033480383 0.018262058 0.71977115
0.033636559 0.017327935 0.72042489
0.033774193 0.016375363 0.72100103
0.033900656 0.01540938 0.72153038
0.034028076 0.014436215 0.72206366
0.034140408 0.013449252 0.72253394
0.034240223 0.012450993 0.72295171
0.034333419 0.011444479 0.72334182
0.034424946 0.010431826 0.72372496
0.034500215 0.0094091296 0.72404003
0.034564249 0.008379221 0.72430807
0.03462388 0.0073444843 0.72455764
0.034677342 0.0063050091 0.72478139
0.03472409 0.0052612424 0.72497708
0.034756802 0.0042129755 0.72511405
0.03477934 0.0031617582 0.7252084
0.034795247 0.0021088421 0.72527498
0.034805365 0.001054734 0.7253173
0.034803022 2.9802322e-08 0.72530746
0.034795247 -0.0010543764 0.72527498
0.034779463 -0.0021078289 0.72520894
0.034756921 -0.0031597018 0.72511452
0.034724213 -0.004208982 0.72497761
0.034677468 -0.0052541494 0.72478193
0.03462388 -0.0062952042 0.72455764
0.034564372 -0.0073318183 0.72430849
0.034500338 -0.0083637238 0.72404051
0.034425065 -0.0093885958 0.72372544
0.034333657 -0.01040408 0.72334278
0.034240346 -0.011413395 0.72295225
0.034140531 -0.012414753 0.72253442
0.034028191 -0.013404995 0.7220642
0.033900656 -0.014382064 0.72153032
0.033774074 -0.015351832 0.72100049
0.033636559 -0.016308606 0.72042483
0.033480611 -0.017247558 0.7197721
0.03332362 -0.018176496 0.71911502
0.033158451 -0.019091189 0.71842355
0.032973185 -0.019983739 0.71764803
0.032783404 -0.020862162 0.71685368
0.032590818 -0.021727175 0.71604759
0.032539167 -0.022678792 0.71583134
0.033057373 -0.024041712 0.71800053
0.033693604 -0.025525451 0.72066373
0.03412557 -0.026886791 0.72247177
0.034587394 -0.028298765 0.72440487
0.035079561 -0.029764444 0.72646505
0.036103219 0.029732078 0.72630513
0.035580073 0.028254777 0.72417974
0.03509159 0.026834756 0.72219521
0.034629617 0.025462985 0.72031832
0.033719957 0.02380234 0.71662259
0.03372547 0.022814274 0.716645
0.033904821 0.021938443 0.71737367
0.034094252 0.021058261 0.71814328
0.03428058 0.020165056 0.71890032
0.034449577 0.019251227 0.71958685
0.034610063 0.018323004 0.72023886
0.034762599 0.01738131 0.72085863
0.034909502 0.016428053 0.7214554
0.035036266 0.015457183 0.72197044
0.035158943 0.014477253 0.72246885
0.035279162 0.013489097 0.72295725
0.035381746 0.01248768 0.72337401
0.035473976 0.011476904 0.72374874
0.035562057 0.010459423 0.72410655
0.03564316 0.0094349682 0.7244361
0.035714544 0.0084034503 0.72472608
0.035771396 0.0073647201 0.72495711
0.03582133 0.0063214004 0.72515988
0.035864402 0.0052741766 0.72533488
0.035900436 0.0042235851 0.72548127
0.035928246 0.0031701624 0.72559428
0.035947148 0.0021145344 0.72567105
0.035957631 0.001057595 0.72571367
0.035957631 -0 0.72571373
0.035947274 -0.0010572672 0.72567165
0.035928246 -0.0021134019 0.72559428
0.035900563 -0.0031676888 0.72548181
0.035864402 -0.0042193234 0.72533494
0.03582133 -0.0052678287 0.72515994
0.035771526 -0.0063126087 0.72495759
0.035714667 -0.0073530078 0.72472662
0.035643537 -0.0083866715 0.72443759
0.03556193 -0.0094134212 0.72410607
0.035474099 -0.010433555 0.72374922
0.035381746 -0.011447012 0.72337395
0.035279039 -0.01245141 0.72295678
0.035158943 -0.013443112 0.72246879
0.035036389 -0.014426708 0.72197092
0.034909502 -0.015401244 0.7214554
0.034762722 -0.016358882 0.72085905
0.034610298 -0.017305136 0.72023988
0.034449812 -0.018238097 0.71958786
0.034280233 -0.019156605 0.71889889
0.034094598 -0.020055622 0.71814466
0.033904936 -0.020941287 0.71737415
0.033725582 -0.021822423 0.71664548
0.033719622 -0.02281034 0.71662128
0.034626652 -0.024442315 0.72030622
0.03509013 -0.025801539 0.72218919
0.03557995 -0.027208149 0.72417921
0.036103349 -0.028670281 0.7263056
0.037801739 0.0302414 0.72881782
0.037149161 0.028657913 0.7262423
0.036589596 0.027180851 0.72403389
0.036068123 0.025762945 0.7219758
0.034982257 0.023987859 0.71769029
0.034874305 0.02291742 0.71726424
0.035022274 0.022014022 0.7178483
0.035210285 0.021126181 0.71859026
0.035396114 0.020226359 0.71932369
0.035576131 0.019312799 0.72003412
0.035731107 0.018375993 0.72064573
0.035887312 0.017431021 0.72126222
0.03603391 0.016472667 0.7218408
0.036168758 0.015500903 0.72237307
0.036288932 0.014515579 0.72284728
0.036406208 0.013522327 0.72331017
0.036517326 0.012520224 0.72374868
0.036614049 0.011507273 0.72413045
0.036697179 0.010484904 0.72445858
0.03677718 0.009457022 0.72477424
0.036850095 0.0084229112 0.72506201
0.03691557 0.0073831081 0.72532046
0.03696683 0.0063371956 0.72552276
0.037007574 0.0052868128 0.72568351
0.037041288 0.0042333007 0.72581655
0.037066877 0.0031771958 0.72591758
0.037084177 0.0021191239 0.72598588
0.037096601 0.0010599196 0.72603488
0.037092902 2.9802322e-08 0.72602022
0.037084442 -0.0010595322 0.72598696
0.037067011 -0.0021181107 0.72591817
0.037041288 -0.0031749606 0.72581661
0.037007835 -0.0042294264 0.72568452
0.03696683 -0.0052809715 0.72552276
0.03691557 -0.0063283443 0.72532046
0.036850221 -0.0073700249 0.72506255
0.03677731 -0.0084062219 0.72477478
0.03669744 -0.0094364882 0.72445953
0.036614049 -0.010461122 0.72413045
0.036517326 -0.011476845 0.72374868
0.036406208 -0.012482107 0.72331017
0.036288802 -0.013478667 0.72284681
0.036168635 -0.014467448 0.72237253
0.036034156 -0.015443206 0.72184181
0.035887558 -0.016405731 0.72126323
0.035731349 -0.017355233 0.72064674
0.035576493 -0.01829648 0.72003555
0.03539563 -0.019214749 0.71932173
0.035207663 -0.020118654 0.71857989
0.035022035 -0.02101323 0.71784729
0.034874305 -0.021920949 0.71726429
0.034981549 -0.022987872 0.71768749
0.036066249 -0.0247311 0.72196841
0.036589209 -0.026135117 0.7240324
0.037148498 -0.027596027 0.72623974
0.037818082 -0.02917394 0.72888237
0.038871199 0.029153436 0.72877723
0.038222026 0.027604818 0.72628629
0.037619803 0.026124865 0.7239756
0.037056394 0.024704278 0.7218138
0.03606198 0.023039639 0.71799815
0.036134031 0.022081912 0.71827459
0.036322821 0.021188319 0.71899903
0.036506247 0.020281255 0.71970284
0.036686379 0.019362271 0.72039402
0.036853451 0.018426746 0.72103506
0.037002478 0.017473429 0.72160685
0.037152968 0.016512424 0.72218424
0.037292734 0.015538692 0.72272062
0.03741746 0.014551252 0.72319913
0.037530262 0.013552636 0.72363204
0.037641101 0.012547046 0.72405726
0.037742611 0.011532485 0.72444677
0.037834909 0.0105097 0.72480094
0.037909932 0.0094774961 0.72508872
0.037979592 0.0084399283 0.7253561
0.038043562 0.0073973835 0.72560149
0.038098797 0.006349802 0.72581351
0.038145494 0.0052979887 0.72599262
0.038183857 0.0042426884 0.72613978
0.038210023 0.0031841993 0.72624028
0.038226254 0.0021237135 0.7263025
0.038236905 0.0010621846 0.72634339
0.038234584 -0 0.72633445
0.03822653 -0.0010618567 0.72630364
0.038210157 -0.0021227896 0.72624081
0.038183857 -0.0031819642 0.7261399
0.038145494 -0.0042383969 0.72599268
0.038099065 -0.0052915514 0.72581452
0.0380437 -0.0063405931 0.72560203
0.037979726 -0.0073849261 0.72535658
0.037909932 -0.0084244013 0.72508872
0.037834909 -0.0094586909 0.72480094
0.037742745 -0.01048407 0.72444725
0.037641101 -0.011501431 0.72405732
0.037530392 -0.012510091 0.72363251
0.037417594 -0.013511896 0.72319967
0.037292734 -0.014502704 0.72272062
0.037152968 -0.015480369 0.7221843
0.037002604 -0.016445577 0.72160733
0.036853578 -0.017403036 0.7210356
0.036685877 -0.018342942 0.72039211
0.03650438 -0.019266188 0.71969563
0.036323067 -0.02017948 0.71899998
0.036134157 -0.021078229 0.71827507
0.03606198 -0.022037834 0.71799815
0.037053827 -0.023673266 0.7218039
0.037620861 -0.025080591 0.72397965
0.038222298 -0.026543289 0.72628736
0.038867675 -0.028071076 0.7287637
0.0400373 0.028134346 0.72909951
0.039333738 0.026576847 0.72647297
0.03868138 0.025090635 0.72403747
0.037323937 0.023201406 0.7189697
0.037273366 0.022162557 0.71878088
0.037429947 0.021244049 0.71936542
0.037612781 0.020331264 0.72004807
0.037791822 0.019406646 0.72071648
0.037964061 0.018469006 0.72135955
0.038120702 0.017514914 0.72194427
0.038262669 0.016546011 0.72247428
0.03840543 0.015569776 0.72300726
0.038537648 0.014581859 0.72350085
0.038655292 0.013581634 0.72394007
0.038759865 0.012570798 0.72433048
0.038862668 0.011553794 0.72471428
0.03895402 0.010528117 0.72505534
0.039041784 0.0094966888 0.72538304
0.039111726 0.0084565878 0.72564411
0.039171036 0.0074107051 0.72586548
0.039224513 0.0063607395 0.72606516
0.03927071 0.0053068995 0.72623765
0.03930648 0.0042493641 0.72637117
0.039333738 0.0031892061 0.72647297
0.039352588 0.0021272004 0.72654331
0.039366528 0.0010639727 0.72659534
0.039366104 2.9802322e-08 0.72659379
0.039352588 -0.0010635555 0.72654331
0.03933388 -0.0021261573 0.72647345
0.03930648 -0.0031870008 0.72637117
0.03927071 -0.0042454898 0.72623765
0.039224513 -0.0053006113 0.72606516
0.039171174 -0.006352067 0.72586596
0.039111864 -0.0073995292 0.72564459
0.039041921 -0.008441478 0.72538352
0.03895402 -0.0094752908 0.72505534
0.038862668 -0.010503381 0.72471428
0.038759865 -0.011523157 0.72433043
0.038655292 -0.012536854 0.72394007
0.038537782 -0.013540268 0.72350132
0.03840543 -0.014531732 0.72300726
0.038262539 -0.015511811 0.72247386
0.038120836 -0.016484618 0.72194481
0.037964322 -0.017443061 0.7213605
0.037792083 -0.018385351 0.72071743
0.037613034 -0.019314796 0.72004902
0.037429184 -0.020231992 0.71936262
0.037273366 -0.021155149 0.71878088
0.037323557 -0.022192359 0.71896827
0.03868315 -0.024046242 0.72404402
0.039335705 -0.02551502 0.72648031
0.040039051 -0.027053386 0.72910607
0.041278444 0.027156889 0.72967768
0.040502358 0.025580466 0.72685665
0.039788507 0.024082512 0.72426176
0.038480707 0.022278309 0.71950775
0.038532402 0.021294236 0.71969569
0.038714033 0.020375818 0.72035593
0.038891226 0.019445658 0.72099996
0.039064921 0.018504441 0.72163141
0.039228454 0.017549604 0.7222259
0.039375387 0.016579121 0.72275996
0.039510157 0.015596122 0.72324991
0.039644323 0.01460582 0.7237376
0.039768346 0.013604999 0.72418845
0.039881039 0.012594014 0.72459805
0.039976969 0.011572301 0.72494686
0.040070523 0.010544896 0.72528684
0.040152099 0.0095097125 0.72558343
0.040229283 0.0084693432 0.72586393
0.040297709 0.0074232817 0.72611272
0.040352385 0.0063714385 0.72631145
0.040395804 0.005315274 0.72646928
0.04043179 0.0042560101 0.72660011
0.040457699 0.0031940341 0.72669423
0.040474944 0.00213027 0.72675693
0.040489156 0.0010655224 0.72680861
0.040484075 2.9802322e-08 0.72679019
0.040474944 -0.0010651052 0.72675693
0.040457841 -0.0021293163 0.72669482
0.04043179 -0.0031919777 0.72660005
0.040395804 -0.0042521954 0.72646928
0.040352385 -0.0053094923 0.72631139
