# .PCD v0.7 - Point Cloud Data file format
VERSION 0.7
FIELDS x y z
SIZE 4 4 4
TYPE F F F
COUNT 1 1 1
WIDTH 1301
HEIGHT 1
VIEWPOINT 0 0 0 1 0 0 0
POINTS 1301
DATA ascii
-0.026119104 -0.031141996 0.71839315
-0.026184822 -0.032227457 0.71874231
-0.026257467 -0.033326775 0.71912819
-0.026337782 -0.03444168 0.71955496
-0.026428433 -0.035576701 0.72003651
-0.026563622 -0.036780417 0.72075474
-0.026809905 -0.038152546 0.72206318
-0.030002104 -0.0438492 0.73902273
-0.030037886 -0.04505682 0.73921287
-0.030073635 -0.046267092 0.73940271
-0.030070243 -0.047418445 0.73938471
-0.030043021 -0.048531026 0.73924011
-0.030015847 -0.049641579 0.73909575
-0.03040906 0.017029107 0.74764705
-0.029449563 0.015313774 0.74234563
-0.028868565 0.013856888 0.73913538
-0.028417494 0.012503713 0.73664314
-0.028042991 0.011217177 0.73457384
-0.027715685 0.0099776685 0.73276532
-0.027425032 0.0087760091 0.73115945
-0.027164413 0.0076060593 0.7297194
-0.026926922 0.0064624846 0.72840714
-0.02670793 0.0053416193 0.72719717
-0.026505508 0.0042408705 0.72607875
-0.026317488 0.0031581223 0.72503984
-0.026143147 0.0020914674 0.72407663
-0.025979901 0.0010392368 0.72317463
-0.025825854 -0 0.72232348
-0.025680453 -0.0010272264 0.72152007
-0.025543261 -0.0020434558 0.72076201
-0.025414821 -0.0030497611 0.72005236
-0.025292398 -0.004046768 0.71937591
-0.025175666 -0.0050351024 0.71873093
-0.02506643 -0.0060159266 0.71812743
-0.024962157 -0.0069894195 0.71755123
-0.024862073 -0.0079558492 0.71699822
-0.024768895 -0.0089167655 0.71648335
-0.024679525 -0.0098718107 0.71598965
-0.024594132 -0.010821432 0.71551782
-0.02451458 -0.011767 0.71507823
-0.024437629 -0.012707561 0.71465302
-0.02436579 -0.013644874 0.71425617
-0.024304938 -0.014582932 0.71391988
-0.024266701 -0.015530676 0.71370864
-0.024245493 -0.016486913 0.71359146
-0.024245571 -0.0174568 0.71359187
-0.024275258 -0.018449187 0.71375591
-0.02432235 -0.019457877 0.71401608
-0.024372021 -0.020472497 0.71429056
-0.024425987 -0.021494836 0.71458876
-0.024483096 -0.022524416 0.71490431
-0.024543308 -0.023561537 0.71523702
-0.024608213 -0.024608195 0.7155956
-0.024677394 -0.025664479 0.71597785
-0.024751168 -0.026731223 0.71638542
-0.024829609 -0.027809143 0.71681881
-0.024913976 -0.028900236 0.71728504
-0.025004383 -0.030005217 0.71778452
-0.025101719 -0.031126112 0.71832234
-0.025201779 -0.032258242 0.71887523
-0.025288098 -0.03338024 0.71935213
-0.02536964 -0.034502685 0.71980268
-0.025466006 -0.035652399 0.72033519
-0.025565131 -0.036813766 0.72088283
-0.025684446 -0.038012981 0.72154212
-0.025847761 -0.03928858 0.72244453
-0.026101386 -0.040718108 0.72384584
-0.027998321 -0.044797301 0.73432696
-0.0280321 -0.045972675 0.73451364
-0.028047645 -0.047120035 0.73459959
-0.028064692 -0.048271239 0.73469371
-0.028506948 -0.05017221 0.73713732
-0.028684007 0.016732365 0.74471927
-0.028037917 0.015187234 0.74100071
-0.027562389 0.01378119 0.73826379
-0.027173195 0.01245442 0.73602378
-0.026842302 0.011184335 0.7341193
-0.026549753 0.009956181 0.73243558
-0.026287211 0.0087623894 0.73092449
-0.026048617 0.0075975358 0.7295512
-0.025830854 0.006457746 0.72829783
-0.025629854 0.0053395927 0.72714096
-0.025443744 0.0042406321 0.72606987
-0.025270335 0.003158778 0.72507185
-0.025108013 0.0020923316 0.72413754
-0.02495518 0.001039803 0.7232579
-0.024811523 2.9802322e-08 0.72243106
-0.024677612 -0.0010282099 0.72166038
-0.024550291 -0.0020458102 0.72092754
-0.024428958 -0.0030536056 0.72022927
-0.024314864 -0.0040524602 0.71957254
-0.024207329 -0.0050431788 0.71895361
-0.024103997 -0.00602597 0.71835893
-0.024006469 -0.007001847 0.71779758
-0.023914613 -0.0079715252 0.71726888
-0.023826081 -0.0089347661 0.71675938
-0.023743099 -0.0098929107 0.71628171
-0.023664299 -0.010846138 0.71582818
-0.023588285 -0.01179415 0.71539068
-0.02351841 -0.012739092 0.71498853
-0.023450952 -0.013679683 0.71460027
-0.023387557 -0.014617205 0.71423542
-0.023332054 -0.015554696 0.71391594
-0.02329056 -0.016497463 0.71367711
-0.023274535 -0.017455876 0.71358496
-0.023279546 -0.018429637 0.71361375
-0.023302954 -0.019419104 0.71374846
-0.023348005 -0.020429492 0.71400779
-0.023400441 -0.021450371 0.71430951
-0.023456963 -0.022479594 0.7146349
-0.023517171 -0.023517132 0.71498144
-0.023580803 -0.024563313 0.71534765
-0.023648227 -0.025618881 0.71573567
-0.023720609 -0.026685685 0.71615231
-0.023798037 -0.02776438 0.71659797
-0.023880528 -0.028855592 0.71707273
-0.023969062 -0.029961318 0.71758229
-0.024064664 -0.031083494 0.7181325
-0.024167739 -0.032223612 0.7187258
-0.024279051 -0.033383667 0.71936643
-0.024390891 -0.034553736 0.72001016
-0.024493845 -0.035720199 0.72060269
-0.024599368 -0.03689903 0.72121
-0.024722317 -0.038113564 0.72191769
-0.024856366 -0.039355904 0.72268915
-0.025012197 -0.040644795 0.72358608
-0.025214184 -0.042023629 0.72474861
-0.025481896 -0.043531567 0.72628945
-0.025838429 -0.045217216 0.72834146
-0.026284114 -0.047092348 0.73090661
-0.02697744 -0.049458593 0.73489708
-0.027966157 0.018238842 0.74758589
-0.027204912 0.016559541 0.7430141
-0.026697675 0.015090019 0.7399677
-0.02629596 0.013719648 0.73755515
-0.025956193 0.012413859 0.73551452
-0.025660375 0.011156708 0.73373795
-0.025397882 0.0099383295 0.73216146
-0.025159847 0.0087512732 0.73073196
-0.024942778 0.0075912774 0.72942823
-0.024742659 0.0064546168 0.72822636
-0.024557624 0.0053386092 0.72711509
-0.024385415 0.0042409897 0.72608083
-0.024224438 0.0031597316 0.72511399
-0.024074042 0.0020934045 0.72421086
-0.023933539 0.0010405779 0.72336692
-0.023800792 -0 0.72256976
-0.023674836 -0.0010293126 0.72181326
-0.02355572 -0.0020483136 0.72109789
-0.023444224 -0.0030579269 0.72042829
-0.023337919 -0.0040587187 0.7197898
-0.023235887 -0.0050512552 0.71917701
-0.023141162 -0.006036818 0.71860814
-0.023050314 -0.0070153177 0.71806252
-0.022963334 -0.0079872012 0.71754014
-0.022882519 -0.0089540184 0.71705478
-0.022804553 -0.009915024 0.71658659
-0.022730891 -0.010871261 0.7161442
-0.022661759 -0.011823475 0.71572888
-0.022594985 -0.01277104 0.71532786
-0.02253365 -0.013716102 0.7149595
-0.022474788 -0.014657468 0.71460605
-0.022419468 -0.015596122 0.71427375
-0.022368731 -0.016533405 0.71396911
-0.022334186 -0.017478943 0.71376163
-0.022316553 -0.018435389 0.71365577
-0.022317499 -0.019406497 0.71366137
-0.02234002 -0.020397395 0.71379673
-0.02238103 -0.021407962 0.7140429
-0.022436161 -0.022436142 0.71437401
-0.022494966 -0.023473024 0.71472722
-0.022557877 -0.024519414 0.71510506
-0.02262458 -0.025575608 0.71550566
-0.022695066 -0.026642054 0.71592903
-0.022770617 -0.027720749 0.71638268
-0.022851253 -0.028812468 0.71686703
-0.022937691 -0.0299187 0.71738613
-0.023030521 -0.031041145 0.71794367
-0.023130519 -0.032181591 0.71854424
-0.023239123 -0.033343047 0.7191965
-0.023357922 -0.03452912 0.71990997
-0.023486808 -0.035740763 0.72068405
-0.023621123 -0.036972165 0.72149068
-0.023752525 -0.038210571 0.72227991
-0.023890154 -0.039470643 0.72310638
-0.024047043 -0.040775418 0.72404867
-0.024238944 -0.04215467 0.72520113
-0.024467845 -0.043616563 0.72657597
-0.024765324 -0.045223624 0.72836244
-0.025187271 -0.047089219 0.73089659
-0.027413303 0.019936949 0.75174922
-0.026378693 0.017985493 0.74525315
-0.025824476 0.016433775 0.74177337
-0.025406605 0.015013009 0.73914963
-0.025059788 0.013669014 0.73697197
-0.024760671 0.012380332 0.73509395
-0.024494901 0.011134028 0.73342526
-0.02425706 0.0099233687 0.73193187
-0.024041006 0.0087422132 0.73057532
-0.023842312 0.007586211 0.7293278
-0.023658847 0.0064524412 0.72817588
-0.023488635 0.005338341 0.72710717
-0.023330752 0.0042419732 0.72611582
-0.023183024 0.003161341 0.72518826
-0.02304397 0.0020949543 0.72431517
-0.022912752 0.0010415018 0.72349137
-0.022788653 2.9802322e-08 0.7227121
-0.022673041 -0.0010305941 0.72198617
-0.022562794 -0.0020511448 0.72129399
-0.022457931 -0.003062427 0.72063553
-0.022359233 -0.004065305 0.72001588
-0.022265717 -0.0050603747 0.71942878
-0.022176063 -0.0060479939 0.71886581
-0.022091825 -0.0070292056 0.71833682
-0.022012075 -0.0080043674 0.71783614
-0.021935251 -0.0089734495 0.71735382
-0.02186393 -0.0099381208 0.71690595
-0.02179561 -0.010897785 0.71647698
-0.021730749 -0.011853129 0.71606982
-0.021670433 -0.012805223 0.71569109
-0.021612238 -0.013753206 0.71532565
-0.021558756 -0.014699131 0.7149899
-0.021508083 -0.015642196 0.71467167
-0.021460323 -0.016582966 0.7143718
-0.021416768 -0.017522812 0.71409839
-0.021382265 -0.018466473 0.71388173
-0.021367809 -0.019425273 0.71379095
-0.021366971 -0.020395726 0.71378571
-0.021381775 -0.021381766 0.71387863
-0.021424204 -0.022397995 0.71414506
-0.021478076 -0.023430616 0.71448326
-0.021538813 -0.024475932 0.71486467
-0.021604316 -0.025532335 0.71527588
-0.021673664 -0.026599497 0.71571136
-0.021747217 -0.027678251 0.71617317
-0.021825567 -0.02877003 0.71666509
-0.021909468 -0.02987653 0.71719193
-0.021999566 -0.030999392 0.71775764
-0.022096749 -0.032140732 0.71836782
-0.022202101 -0.033303142 0.71902931
-0.022316601 -0.034489304 0.7197482
-0.022441294 -0.03570202 0.72053111
-0.022580003 -0.036949068 0.72140205
-0.022733148 -0.038233012 0.72236365
-0.02290008 -0.039554685 0.7234118
-0.023075096 -0.040905833 0.72451067
-0.023270177 -0.042309433 0.72573549
-0.023502052 -0.043799251 0.72719133
-0.023806309 -0.045448393 0.72910172
-0.024264885 -0.04742676 0.73198104
-0.025571328 0.01948294 0.74782938
-0.024947619 0.017819762 0.74372679
-0.024506221 0.016337514 0.74082339
-0.024150757 0.014950484 0.73848522
-0.023847271 0.013627023 0.73648906
-0.023581728 0.012352347 0.73474234
-0.023343829 0.011116147 0.73317742
-0.023127971 0.0099119842 0.73175764
-0.022931127 0.0087356865 0.73046285
-0.022749782 0.0075832605 0.72926998
-0.022581974 0.006452024 0.72816622
-0.022425883 0.0053395629 0.72713947
-0.022279795 0.0042437613 0.72617853
-0.022142587 0.0031632185 0.72527605
-0.022013497 0.0020965636 0.72442687
-0.021893114 0.0010425448 0.72363508
-0.021779127 -0 0.72288525
-0.021670533 -0.0010319054 0.72217095
-0.02156793 -0.0020540655 0.72149605
-0.021471905 -0.003067404 0.72086442
-0.021379802 -0.0040723085 0.72025859
-0.021292116 -0.0050695539 0.71968186
-0.021210331 -0.0060600638 0.71914387
-0.021131676 -0.0070438683 0.71862644
-0.021057077 -0.0080217421 0.71813577
-0.020987377 -0.0089945495 0.7176773
-0.02091996 -0.0099618733 0.71723384
-0.020857289 -0.010925204 0.71682161
-0.020797834 -0.011884451 0.7164306
-0.020740921 -0.012839615 0.71605617
-0.020688908 -0.013792604 0.7157141
-0.020638794 -0.014741957 0.71538442
-0.02059279 -0.015689731 0.71508181
-0.020549562 -0.016635329 0.71479744
-0.02050887 -0.017579019 0.71452987
-0.020472566 -0.018522769 0.71429098
-0.020441741 -0.019468337 0.7140882
-0.020423157 -0.020423144 0.71396601
-0.020423157 -0.021395683 0.71396607
-0.020442009 -0.022388875 0.71409005
-0.020473573 -0.02339834 0.71429759
-0.020525182 -0.024434686 0.7146371
-0.020588174 -0.025490105 0.71505141
-0.020655448 -0.026556998 0.71549392
-0.020727154 -0.02763617 0.71596563
-0.020803446 -0.028728575 0.7164675
-0.02088484 -0.029835463 0.71700287
-0.020972084 -0.030958772 0.71757674
-0.021065956 -0.032100499 0.71819419
-0.021167485 -0.033263177 0.718862
-0.021277536 -0.034449309 0.7195859
-0.021397969 -0.035663247 0.72037804
-0.021530828 -0.036909968 0.72125202
-0.021677604 -0.038193882 0.7222175
-0.02184212 -0.03952381 0.72329956
-0.022029104 -0.040911168 0.7245295
-0.02224385 -0.042369246 0.72594213
-0.022499807 -0.043928176 0.72762573
-0.022809524 -0.045618981 0.7296629
-0.023260625 -0.04762888 0.73263019
-0.024127712 -0.050553292 0.7383337
-0.024827044 0.021102995 0.75109899
-0.02406952 0.019255668 0.74586707
-0.023598628 0.017699003 0.74261475
-0.023229605 0.016260743 0.74006605
-0.022922009 0.014899313 0.73794162
-0.022653557 0.013592154 0.7360875
-0.022416722 0.012329221 0.73445177
-0.022202674 0.011101365 0.73297346
-0.02200765 0.0099034607 0.73162645
-0.021828109 0.008731246 0.7303865
-0.021662436 0.0075818598 0.72924221
-0.021508275 0.006452471 0.72817743
-0.021364272 0.005341053 0.72718292
-0.021229912 0.0042459965 0.72625488
-0.02110434 0.0031656623 0.72538769
-0.020986021 0.0020986199 0.72457039
-0.020873781 0.0010437071 0.72379529
-0.020767447 2.9802322e-08 0.72306079
-0.020668222 -0.0010333955 0.72237551
-0.020573782 -0.0020573735 0.72172326
-0.020483306 -0.0030724704 0.72109836
-0.020398797 -0.0040797591 0.72051471
-0.020318452 -0.0050795972 0.7199598
-0.020241218 -0.0060723424 0.71942639
-0.020169355 -0.0070592463 0.71893001
-0.020100784 -0.0080402493 0.71845645
-0.020034974 -0.0090157092 0.7180019
-0.019974219 -0.0099870861 0.71758223
-0.019915765 -0.010953635 0.71717858
-0.019860901 -0.011916518 0.71679968
-0.019809637 -0.012876272 0.71644557
-0.019760279 -0.013832182 0.71610475
-0.019715935 -0.014786929 0.71579844
-0.019673288 -0.015738606 0.71550387
-0.019634064 -0.016688943 0.71523291
-0.019598158 -0.017638326 0.71498495
-0.019564057 -0.018585861 0.71474946
-0.019534629 -0.019534618 0.7145462
-0.019506697 -0.020482033 0.71435332
-0.019492313 -0.021441519 0.71425396
-0.019491229 -0.022414893 0.71424645
-0.019500941 -0.023401111 0.71431351
-0.019532001 -0.024414986 0.71452802
-0.01957945 -0.025453269 0.71485573
-0.019641519 -0.02651602 0.71528441
-0.019710382 -0.027594507 0.71576005
-0.01978427 -0.028687179 0.71627039
-0.01986309 -0.029794604 0.71681476
-0.01994729 -0.03091827 0.71739632
-0.020037739 -0.032060385 0.71802104
-0.020135421 -0.03322342 0.71869564
-0.020241011 -0.034409672 0.7194249
-0.020356977 -0.035624713 0.72022587
-0.020483941 -0.036871076 0.72110277
-0.02062422 -0.038154811 0.72207165
-0.020780943 -0.039483786 0.72315407
-0.02095866 -0.040869385 0.72438145
-0.02116276 -0.042325497 0.7257911
-0.021403326 -0.043876797 0.72745264
-0.021702034 -0.045574248 0.72951567
-0.02210317 -0.04752183 0.73228621
-0.022787908 -0.050133407 0.73701543
-0.023196749 0.020755023 0.74827135
-0.022681557 0.019100308 0.74452585
-0.022298116 0.017603785 0.74173814
-0.021982785 0.01619786 0.73944557
-0.021714319 0.014857203 0.73749381
-0.021476056 0.013563812 0.73576164
-0.021262869 0.012310147 0.73421174
-0.021069812 0.011089385 0.73280817
-0.020892734 0.0098965466 0.73152083
-0.0207294 0.0087281764 0.73033333
-0.020578114 0.0075814426 0.7292335
-0.02043774 0.0064540505 0.72821295
-0.020306561 0.0053438544 0.72725928
-0.020183256 0.0042491257 0.72636282
-0.020066995 0.0031684637 0.72551757
-0.019957069 0.0021007657 0.72471839
-0.019854549 0.0010449886 0.72397304
-0.019757219 2.9802322e-08 0.72326541
-0.01966474 -0.0010349751 0.72259313
-0.019577056 -0.0020607412 0.72195566
-0.019494789 -0.0030781329 0.72135758
-0.019416079 -0.0040875971 0.72078532
-0.019341379 -0.0050898194 0.7202422
-0.019271325 -0.0060856938 0.719733
-0.019204127 -0.0070751905 0.71924442
-0.019140895 -0.008059293 0.71878469
-0.0190813 -0.0090384781 0.71835142
-0.019023933 -0.010012567 0.71793437
-0.018971303 -0.010983407 0.71755171
-0.018920926 -0.011950046 0.71718544
-0.018873464 -0.012913376 0.71684045
-0.018829819 -0.01387459 0.71652311
-0.01878787 -0.014832526 0.71621811
-0.018750213 -0.015789658 0.71594441
-0.018714631 -0.016744614 0.71568567
-0.01868196 -0.017698675 0.7154482
-0.01865273 -0.018652707 0.71523571
-0.018625 -0.019605249 0.71503407
-0.018601703 -0.020559758 0.71486461
-0.018580111 -0.02151379 0.71470761
-0.018564971 -0.022473365 0.71459758
-0.018561495 -0.023446083 0.71457231
-0.018574674 -0.024440348 0.71466815
-0.01859962 -0.025452107 0.71484953
-0.01864196 -0.026491195 0.71515733
-0.018697973 -0.027554899 0.71556461
-0.018768836 -0.028647155 0.71607971
-0.018844323 -0.029754192 0.71662855
-0.018925363 -0.030878216 0.71721774
-0.019012218 -0.032020539 0.7178492
-0.019105881 -0.033183843 0.71853012
-0.019207653 -0.034371614 0.71926999
-0.019318236 -0.035586208 0.72007394
-0.019439392 -0.036832511 0.72095478
-0.019572986 -0.03811577 0.72192603
-0.019722119 -0.039444238 0.7230103
-0.01989047 -0.040827781 0.72423416
-0.020083256 -0.042280525 0.72563577
-0.020309335 -0.043825418 0.72727942
-0.020586437 -0.045506805 0.72929394
-0.020950988 -0.047415376 0.73194432
-0.021524651 -0.04984653 0.73611492
-0.022350498 0.02235049 0.75114626
-0.021756155 0.020547479 0.74658525
-0.0213522 0.018979758 0.74348533
-0.021031825 0.017526537 0.7410267
-0.020759251 0.016146094 0.73893499
-0.020522799 0.014822036 0.73712045
-0.020311538 0.013541073 0.73549914
-0.020119999 0.012295574 0.73402929
-0.019945776 0.01108104 0.7326923
-0.019785289 0.0098926723 0.73146075
-0.019637154 0.0087276399 0.73032391
-0.019499315 0.0075830817 0.72926617
-0.019370617 0.0064568818 0.72827852
-0.019249763 0.0053471625 0.72735107
-0.019136222 0.0042524934 0.72647977
-0.019030167 0.003171742 0.72566593
-0.018930031 0.0021033287 0.72489744
-0.018834854 0.0010464191 0.72416705
-0.018744631 2.9802322e-08 0.72347468
-0.018660406 -0.001036644 0.72282833
-0.018579835 -0.0020644069 0.72221005
-0.018503027 -0.0030838549 0.72162062
-0.018431358 -0.0040958524 0.72107065
-0.018362947 -0.0051007867 0.72054565
-0.018297421 -0.0060991049 0.72004277
-0.018236645 -0.0070920289 0.71957642
-0.01817837 -0.0080792606 0.71912915
-0.018123167 -0.0090615451 0.71870548
-0.018071834 -0.010039896 0.71831161
-0.018022491 -0.011013746 0.71793294
-0.017977038 -0.011984676 0.71758413
-0.017934216 -0.012952447 0.71725553
-0.017893692 -0.013917297 0.71694446
-0.017857043 -0.014880836 0.7166633
-0.017821968 -0.015841722 0.71639407
-0.017790636 -0.016802251 0.71615374
-0.017761711 -0.017761707 0.71593165
-0.017734995 -0.018720239 0.71572667
-0.017711993 -0.019679964 0.71555018
-0.017690511 -0.020638883 0.71538526
-0.017672699 -0.021599948 0.71524858
-0.01765725 -0.022561997 0.71513009
-0.017643983 -0.023525268 0.71502823
-0.017641773 -0.024502426 0.7150113
-0.017650731 -0.02549547 0.71508002
-0.017673399 -0.02651009 0.71525401
-0.01771041 -0.027549505 0.71553802
-0.017763952 -0.028619647 0.71594888
-0.017829327 -0.029715538 0.71645057
-0.0179068 -0.030839503 0.71704513
-0.017990028 -0.031982273 0.71768379
-0.018079648 -0.033145994 0.71837157
-0.018176518 -0.034333438 0.71911496
-0.018281924 -0.035548151 0.71992385
-0.018396962 -0.036793888 0.7208066
-0.018523902 -0.038076878 0.72178078
-0.018665481 -0.039404929 0.72286731
-0.018824389 -0.040786147 0.72408676
-0.019006046 -0.042235643 0.72548079
-0.019218111 -0.043774575 0.72710824
-0.019474488 -0.045440465 0.72907567
-0.019805711 -0.04731366 0.73161751
-0.020300139 -0.049622566 0.73541176
-0.021590903 0.02413103 0.75506353
-0.020828864 0.022054106 0.74887168
-0.020396035 0.020396054 0.74535465
-0.020065125 0.018884838 0.74266589
-0.019792005 0.017463535 0.74044669
-0.019554015 0.016103327 0.73851287
-0.019344822 0.014793128 0.73681307
-0.01915637 0.013522178 0.73528188
-0.018985165 0.012284547 0.73389071
-0.018827645 0.011075109 0.73261082
-0.018682377 0.0098906755 0.73143041
-0.018547494 0.008728236 0.7303344
-0.01842159 0.0075853765 0.72931147
-0.018304141 0.0064602792 0.72835714
-0.01819453 0.0053513646 0.72746646
-0.018091273 0.0042567849 0.72662747
-0.017993595 0.003175348 0.72583377
-0.017900961 0.0021060407 0.72508109
-0.017814359 0.0010479093 0.72437739
-0.017732445 -0 0.72371185
-0.017653931 -0.0010384619 0.72307384
-0.017580083 -0.0020682216 0.7224738
-0.01751061 -0.0030900836 0.72190928
-0.01744391 -0.0041044652 0.72136736
-0.017381182 -0.0051121116 0.72085762
-0.017322106 -0.0061136782 0.72037762
-0.017265258 -0.0071092248 0.71991569
-0.017212532 -0.008100003 0.71948731
-0.017162459 -0.0090860128 0.71908039
-0.017114643 -0.010067374 0.71869189
-0.017070897 -0.011045873 0.71833646
-0.017028982 -0.012020439 0.71799582
-0.016990239 -0.012992531 0.71768099
-0.016954288 -0.013962299 0.71738887
-0.016920129 -0.014929533 0.71711135
-0.016890001 -0.015896469 0.71686649
-0.016861554 -0.016861558 0.71663547
-0.016836062 -0.017826408 0.71642828
-0.016813274 -0.018791288 0.71624315
-0.016792055 -0.019755334 0.71607071
-0.016774949 -0.020721972 0.71593165
-0.016759379 -0.021688581 0.71580517
-0.016746664 -0.022657245 0.71570194
-0.016736964 -0.023628622 0.71562308
-0.016728934 -0.02460137 0.71555781
-0.016726553 -0.025581777 0.7155385
-0.01673436 -0.026578069 0.71560192
-0.016753104 -0.027593315 0.71575421
-0.016788207 -0.028638691 0.71603942
-0.016832642 -0.02970463 0.7164005
-0.016896322 -0.030810922 0.71691793
-0.016970392 -0.031944275 0.71751976
-0.017055638 -0.033107996 0.71821243
-0.017147731 -0.03429544 0.71896076
-0.017247766 -0.035510123 0.71977353
-0.017356776 -0.036755472 0.72065938
-0.017476955 -0.038038075 0.72163588
-0.017610887 -0.0393655 0.72272408
-0.017760478 -0.040744632 0.7239396
-0.017931119 -0.04219085 0.72532618
-0.018129351 -0.043723732 0.72693682
-0.018366847 -0.045376897 0.72886658
-0.018669544 -0.047222942 0.7313261
-0.019100862 -0.049437493 0.7348308
-0.019907169 0.023639798 0.75149208
-0.019430092 0.021858871 0.74737334
-0.01908708 0.020280063 0.744412
-0.01880846 0.018808484 0.74200666
-0.018572442 0.017411679 0.73996902
-0.018364076 0.016068548 0.73817015
-0.018177746 0.014769435 0.73656148
-0.018009396 0.013507038 0.73510808
-0.017855585 0.012275755 0.73378015
-0.017713739 0.011071086 0.73255563
-0.017582504 0.0098901987 0.73142254
-0.017460693 0.0087303519 0.730371
-0.017347133 0.0075893998 0.72939056
-0.017240474 0.0064651966 0.72846973
-0.017139992 0.0053562522 0.72760224
-0.017045073 0.0042613149 0.7267828
-0.016956331 0.0031793118 0.72601664
-0.016872458 0.0021090806 0.72529256
-0.016792905 0.0010495782 0.72460574
-0.016717035 -0 0.72395074
-0.016646331 -0.0010403693 0.72334033
-0.016578879 -0.0020723343 0.722758
-0.016514264 -0.0030964017 0.72220016
-0.016454358 -0.004113555 0.72168297
-0.016397035 -0.0051240623 0.72118807
-0.016342297 -0.0061283708 0.72071552
-0.016291603 -0.0071275532 0.72027785
-0.016242944 -0.0081214309 0.71985775
-0.016197383 -0.009111017 0.71946442
-0.016154822 -0.010096729 0.7190969
-0.016113956 -0.011078328 0.71874416
-0.016077098 -0.012057841 0.71842593
-0.016042028 -0.013034135 0.7181232
-0.016009428 -0.014008224 0.71784174
-0.015979964 -0.01498121 0.71758741
-0.015952 -0.015951991 0.71734595
-0.015927812 -0.016923279 0.7171371
-0.015905239 -0.017893404 0.71694231
-0.015885115 -0.018863589 0.7167685
-0.015868057 -0.019835055 0.71662128
-0.015852517 -0.020806432 0.71648705
-0.015840482 -0.02178067 0.71638316
-0.01583047 -0.022756279 0.71629673
-0.015822522 -0.023733735 0.71622813
-0.015818313 -0.024716079 0.71619183
-0.015815791 -0.025700629 0.71617001
-0.015816316 -0.026690036 0.7161746
-0.015823837 -0.027691692 0.71623945
-0.015841115 -0.028712004 0.71638864
-0.015869327 -0.029754966 0.71663219
-0.015914015 -0.030833364 0.71701801
-0.01596613 -0.031932235 0.71746796
-0.016037865 -0.033078045 0.7180872
-0.016121216 -0.034257561 0.71880686
-0.01621582 -0.035472065 0.71962357
-0.016318759 -0.036717176 0.72051227
-0.016432256 -0.037999541 0.72149211
-0.016558398 -0.039326191 0.72258115
-0.016698789 -0.040703267 0.72379315
-0.016858708 -0.042146742 0.72517383
-0.017043484 -0.043673903 0.72676903
-0.017263303 -0.04531613 0.72866684
-0.017538566 -0.047134876 0.73104322
-0.01791933 -0.04927811 0.73433048
-0.018703479 -0.052603483 0.74110025
-0.019012474 0.025350004 0.75471067
-0.018453674 0.023374677 0.74956477
-0.018093657 0.021712393 0.74624938
-0.017811473 0.020186335 0.74365079
-0.017573955 0.018745601 0.74146354
-0.017368615 0.017368615 0.73957253
-0.017186075 0.016040355 0.73789161
-0.017020894 0.014751434 0.73637044
-0.016870847 0.013496697 0.73498875
-0.016732704 0.012270689 0.73371655
-0.016605394 0.011070251 0.73254418
-0.016487131 0.0098923147 0.73145509
-0.01637679 0.0087342858 0.73043907
-0.016273379 0.0075942576 0.7294867
-0.016176131 0.0064705014 0.72859114
-0.016085256 0.0053617954 0.72775429
-0.015999814 0.0042666197 0.72696751
-0.015918627 0.0031837523 0.72621983
-0.015841691 0.0021122098 0.72551131
-0.015769672 0.0010513365 0.72484815
-0.015701178 2.9802322e-08 0.72421741
-0.015635965 -0.001042366 0.72361684
-0.015574551 -0.002076596 0.72305131
-0.015516641 -0.0031033158 0.72251803
-0.015461194 -0.0041229725 0.72200739
-0.015409283 -0.0051364005 0.72152936
-0.015360205 -0.0061440766 0.72107744
-0.015313173 -0.0071461201 0.7206443
-0.015269876 -0.008143872 0.7202456
-0.015228643 -0.0091371536 0.71986592
-0.015189701 -0.010126442 0.71950728
-0.015154096 -0.011112988 0.71917939
-0.015119991 -0.012095988 0.71886533
-0.015089101 -0.013077229 0.7185809
-0.01506032 -0.014056265 0.71831584
-0.01503347 -0.015033454 0.71806854
-0.01501005 -0.016010672 0.71785289
-0.014987912 -0.016986281 0.71764904
-0.0149688 -0.017962545 0.71747303
-0.014951942 -0.018939108 0.71731782
-0.014936724 -0.019915611 0.71717763
-0.014925079 -0.020895064 0.7170704
-0.0149149 -0.021875143 0.7169767
-0.014907424 -0.022858024 0.7169078
-0.014902692 -0.023844302 0.71686429
-0.014899706 -0.024832815 0.71683675
-0.014900204 -0.02582702 0.7168414
-0.01490314 -0.026825637 0.71686834
-0.014908171 -0.027828544 0.71691471
-0.014917344 -0.028840154 0.71699917
-0.014933974 -0.029867917 0.71715236
-0.014961069 -0.030919522 0.71740186
-0.014997183 -0.031993955 0.7177344
-0.01505102 -0.033112258 0.71823019
-0.015111182 -0.034252018 0.71878421
-0.015191977 -0.035447925 0.7195282
-0.015282902 -0.03667894 0.72036558
-0.015389826 -0.037961543 0.72135019
-0.015508064 -0.03928706 0.72243899
-0.015639201 -0.040661901 0.72364658
-0.015788648 -0.042103052 0.72502291
-0.015960146 -0.043624371 0.7266022
-0.016163003 -0.045256406 0.72847033
-0.016412701 -0.047049731 0.73076969
-0.016749416 -0.049131602 0.73387045
-0.017341744 -0.052025199 0.73932511
-0.018353544 0.027530372 0.76071513
-0.01747228 0.024960399 0.75202006
-0.017085958 0.023188084 0.74820834
-0.016798021 0.021597445 0.74536741
-0.016561288 0.02011013 0.74303174
-0.016357314 0.018694103 0.74101907
-0.016177639 0.017333239 0.73924631
-0.016017012 0.01601702 0.73766148
-0.015871271 0.014737636 0.73622352
-0.015737316 0.013489157 0.73490179
-0.015613969 0.012268126 0.73368478
-0.015499462 0.011071086 0.73255503
-0.015392881 0.0098954439 0.73150337
-0.015293258 0.0087390244 0.73052043
-0.015200463 0.0076002479 0.7296049
-0.015113231 0.0064770877 0.72874421
-0.015030791 0.0053681433 0.72793084
-0.01495252 0.0042721331 0.72715849
-0.014879314 0.0031884611 0.7264362
-0.014810401 0.0021157861 0.72575629
-0.014744422 0.0010531843 0.72510529
-0.01468203 -0 0.72448969
-0.014623707 -0.0010445416 0.72391421
-0.014567884 -0.0020810962 0.72336346
-0.014514712 -0.0031102598 0.72283882
-0.014465444 -0.0041329563 0.72235262
-0.014418106 -0.0051493049 0.72188562
-0.014373508 -0.0061600208 0.72144556
-0.014331996 -0.0071659982 0.72103608
-0.014292147 -0.008166939 0.72064286
-0.014255398 -0.0091641545 0.72028029
-0.014220925 -0.010157794 0.71994013
-0.014188213 -0.011147887 0.71961737
-0.01415883 -0.012136102 0.71932751
-0.014130862 -0.013121516 0.71905154
-0.014105538 -0.014105529 0.71880162
-0.014082685 -0.015088588 0.71857619
-0.014061187 -0.016069919 0.71836406
-0.014043119 -0.017052323 0.71818578
-0.014026512 -0.018034071 0.71802199
-0.014012115 -0.019016415 0.71787989
-0.014000477 -0.020000696 0.71776509
-0.013990175 -0.020985246 0.71766341
-0.013983127 -0.021973461 0.71759385
-0.013978057 -0.022963911 0.71754384
-0.013974679 -0.023956567 0.71751046
-0.013975054 -0.024955422 0.71751422
-0.013977212 -0.025957644 0.7175355
-0.013981719 -0.026964754 0.71757996
-0.013989939 -0.027979881 0.71766108
-0.014000477 -0.029000968 0.71776509
-0.014013625 -0.030029207 0.71789485
-0.014031429 -0.031069547 0.71807045
-0.014057058 -0.03213039 0.71832329
-0.014092599 -0.033218235 0.71867394
-0.014138924 -0.034337342 0.71913105
-0.014200069 -0.035500169 0.71973437
-0.014270985 -0.036696762 0.72043407
-0.014359875 -0.037951082 0.72131109
-0.01446273 -0.039255977 0.72232592
-0.014581761 -0.040620625 0.72350037
-0.014720807 -0.042059451 0.72487229
-0.01487926 -0.043574929 0.72643566
-0.015065598 -0.045196801 0.72827423
-0.015293427 -0.046972662 0.7305221
-0.015593269 -0.049007386 0.73348051
-0.016242962 -0.052209496 0.73989081
-0.016494138 0.026644409 0.75488764
-0.016065156 0.024715662 0.75032949
-0.015768342 0.023046046 0.74717557
-0.015531116 0.021504641 0.74465501
-0.015330533 0.020047635 0.74252367
-0.015154641 0.018651903 0.74065471
-0.014997619 0.017304957 0.73898625
-0.014855967 0.015998751 0.73748106
-0.014726663 0.014726698 0.73610717
-0.014607865 0.01348421 0.73484486
-0.014497871 0.012267441 0.73367614
-0.014395896 0.011073798 0.73259252
-0.014301003 0.0099007189 0.73158425
-0.014211897 0.0087458193 0.73063743
-0.014128075 0.0076074302 0.72974682
-0.014049063 0.0064841807 0.72890723
-0.01397482 0.0053749382 0.72811842
-0.013905107 0.0042785406 0.72737765
-0.013839058 0.0031936765 0.72667581
-0.013775988 0.002119422 0.72600567
-0.013717042 0.0010551512 0.72537935
-0.013661254 2.9802322e-08 0.72478658
-0.013607785 -0.001046747 0.72421843
-0.013557871 -0.0020857751 0.72368807
-0.013510633 -0.0031178296 0.72318614
-0.013465272 -0.0041431487 0.72270417
-0.01342329 -0.0051627755 0.72225803
-0.013383468 -0.0061770082 0.7218349
-0.013345493 -0.0071860254 0.72143137
-0.013310757 -0.0081912577 0.7210623
-0.013277569 -0.0091921687 0.72070974
-0.013246771 -0.010189831 0.72038245
-0.013218508 -0.011184901 0.7200821
-0.013191582 -0.012176841 0.719796
-0.013167771 -0.013167739 0.71954298
-0.013145608 -0.014156818 0.71930748
-0.013125347 -0.015144616 0.71909219
-0.013107769 -0.016132623 0.71890545
-0.01309148 -0.017119586 0.71873236
-0.013078017 -0.01810804 0.71858937
-0.013066436 -0.01909706 0.71846628
-0.013056376 -0.020086706 0.71835935
-0.01304959 -0.021080106 0.71828723
-0.013044262 -0.022074908 0.71823066
-0.013041094 -0.02307269 0.71819699
-0.013040742 -0.02407521 0.71819323
-0.013042194 -0.025081128 0.71820867
-0.013046419 -0.026092827 0.71825355
-0.013053599 -0.027111292 0.71832985
-0.013062861 -0.028135359 0.71842825
-0.013075142 -0.029167593 0.71855873
-0.013091302 -0.030210674 0.71873045
-0.013110259 -0.031262934 0.71893191
-0.013132525 -0.032326192 0.71916854
-0.013159344 -0.033404499 0.71945351
-0.013194598 -0.034508914 0.71982807
-0.013238424 -0.035641879 0.72029376
-0.013297937 -0.036825061 0.72092611
-0.01336547 -0.038040191 0.72164369
-0.013452809 -0.039323568 0.72257173
-0.013550553 -0.040651619 0.72361028
-0.013669079 -0.042058676 0.72486973
-0.013812605 -0.0435628 0.72639477
-0.013982047 -0.045172751 0.72819519
-0.01419176 -0.046941996 0.73042351
-0.01448044 -0.049010694 0.73349094
-0.015556063 0.028519452 0.75869441
-0.015032575 0.026307017 0.7526685
-0.014723472 0.024539143 0.7491104
-0.014484795 0.022934288 0.74636292
-0.014286485 0.021429747 0.74408025
-0.014114546 0.01999563 0.74210095
-0.01396323 0.01861766 0.74035925
-0.013826364 0.017282993 0.73878378
-0.013702248 0.015985966 0.73735499
-0.013588098 0.01472041 0.73604107
-0.013483011 0.013483047 0.73483139
-0.013385511 0.012270033 0.73370904
-0.013294756 0.011078984 0.73266435
-0.013209623 0.0099072158 0.73168439
-0.013129679 0.0087531209 0.73076415
-0.013054992 0.007615447 0.72990441
-0.012984835 0.0064924359 0.72909677
-0.012918373 0.0053826869 0.72833174
-0.012855458 0.0042851865 0.72760761
-0.01279618 0.0031990409 0.72692525
-0.012740311 0.0021234155 0.72628206
-0.012687138 0.0010572672 0.72567004
-0.012636689 2.9802322e-08 0.72508931
-0.012589569 -0.0010491014 0.72454697
-0.012544564 -0.0020907521 0.72402889
-0.012501893 -0.0031254292 0.72353768
-0.012462165 -0.0041539967 0.72308034
-0.012424203 -0.005176723 0.72264338
-0.012388621 -0.0061943233 0.72223377
-0.012355553 -0.0072073936 0.72185314
-0.012323809 -0.0082158148 0.7214877
-0.012295065 -0.0092212856 0.72115684
-0.012268014 -0.010223359 0.72084546
-0.012242638 -0.011222392 0.72055334
-0.012219916 -0.012219936 0.72029185
-0.012198614 -0.013215125 0.72004652
-0.012179713 -0.014209628 0.71982902
-0.012162653 -0.015203297 0.71963269
-0.012147046 -0.016196042 0.71945298
-0.012134284 -0.017190248 0.71930611
-0.012122949 -0.018184394 0.71917558
-0.012113525 -0.019179702 0.7190671
-0.01210658 -0.020177603 0.71898723
-0.012101038 -0.021176785 0.71892345
-0.012098126 -0.022179902 0.71888989
-0.012097265 -0.023186386 0.71887994
-0.012098043 -0.024196088 0.71888894
-0.012101983 -0.025212437 0.7189343
-0.012108101 -0.02623421 0.71900469
-0.012116157 -0.027261347 0.71909738
-0.012127644 -0.028297812 0.71922964
-0.012142086 -0.029343367 0.71939594
-0.012159172 -0.030397922 0.71959257
-0.01217938 -0.031463414 0.71982521
-0.01220437 -0.032544971 0.72011286
-0.012233363 -0.033641756 0.72044665
-0.012266876 -0.034756154 0.72083235
-0.012305663 -0.035891503 0.72127885
-0.012350806 -0.037052393 0.72179848
-0.012409255 -0.038261831 0.7224713
-0.012479248 -0.039517611 0.72327703
-0.012567314 -0.040843755 0.72429079
-0.012668492 -0.042228281 0.72545546
-0.012796547 -0.043721527 0.72692949
-0.012955185 -0.045343131 0.72875553
-0.013167853 -0.047184795 0.73120356
-0.013658565 -0.050081402 0.73685217
-0.013991678 0.027983338 0.75532842
-0.013661774 0.026081562 0.75118566
-0.013421101 0.024401993 0.7481634
-0.013225071 0.022843331 0.74570173
-0.013058202 0.021367967 0.74360633
-0.012911116 0.019953549 0.74175924
-0.012780125 0.018589318 0.74011427
-0.012661707 0.017265946 0.73862731
-0.012552972 0.015976548 0.73726177
-0.012453006 0.014717162 0.7360065
-0.012360268 0.013483942 0.73484194
-0.012274057 0.012274057 0.7337594
-0.012193583 0.011085093 0.73274881
-0.012118556 0.0099152029 0.73180664
-0.012048127 0.0087622702 0.73092228
-0.011981759 0.0076247752 0.73008883
-0.011918767 0.006501168 0.72929776
-0.0118597 0.0053907633 0.7285561
-0.011804239 0.0042924583 0.72785962
-0.011751363 0.0032049119 0.72719562
-0.011701134 0.0021275282 0.72656482
-0.011654238 0.0010594726 0.72597593
-0.011609695 -0 0.7254166
-0.011567084 -0.0010515451 0.72488153
-0.011527467 -0.0020959079 0.72438407
-0.011489894 -0.003133595 0.72391224
-0.01145409 -0.004165113 0.72346258
-0.011420979 -0.0051913559 0.72304678
-0.011389606 -0.0062125027 0.72265285
-0.011359903 -0.0072290003 0.72227985
-0.011332829 -0.0082420409 0.72193986
-0.011307093 -0.0092512369 0.72161669
-0.011283576 -0.010257781 0.72132134
-0.011261901 -0.01126188 0.72104919
-0.011241583 -0.012263507 0.72079408
-0.011223996 -0.013264656 0.72057319
-0.011207615 -0.014264196 0.72036749
-0.011193043 -0.01526323 0.7201845
-0.011180763 -0.016262919 0.72003031
-0.011169693 -0.01726225 0.71989125
-0.011161004 -0.018263429 0.71978217
-0.01115404 -0.019266039 0.71969473
-0.011148376 -0.020269781 0.71962357
-0.011145642 -0.021278024 0.71958923
-0.01114435 -0.02228868 0.71957302
-0.01114473 -0.023302585 0.71957779
-0.011148186 -0.024323285 0.71962112
-0.011153356 -0.025348514 0.71968609
-0.011160395 -0.026379108 0.71977448
-0.011170952 -0.027419567 0.71990705
-0.011183821 -0.028467923 0.72006869
-0.011199097 -0.029524893 0.7202605
-0.011217684 -0.030593663 0.72049391
-0.011240347 -0.031677306 0.72077852
-0.011266633 -0.03277564 0.72110862
-0.011297058 -0.033891141 0.72149068
-0.011332318 -0.035027146 0.72193348
-0.011373411 -0.036188126 0.72244948
-0.011421418 -0.037379146 0.72305226
-0.01147776 -0.038607001 0.72375983
-0.011544511 -0.039881021 0.72459805
-0.011624174 -0.041212946 0.72559839
-0.011720586 -0.042620271 0.72680908
-0.011849175 -0.044165075 0.72842383
-0.012023993 -0.045909792 0.73061919
-0.012394689 -0.04845193 0.7352742
-0.012954012 0.029794246 0.75856495
-0.012582318 0.027681112 0.7534306
-0.012337921 0.025909662 0.75005472
-0.012145692 0.024291396 0.74739939
-0.011983744 0.022769123 0.74516237
-0.011843012 0.021317452 0.74321842
-0.011717725 0.019920141 0.74148774
-0.011604786 0.018567681 0.73992771
-0.011501873 0.017252833 0.7385062
-0.011407547 0.015970588 0.73720318
-0.011320269 0.014716357 0.73599756
-0.011239453 0.013487369 0.73488122
-0.011164308 0.012280792 0.73384327
-0.0110938 0.011093825 0.73286933
-0.011027612 0.0099248588 0.73195505
-0.01096524 0.0087722242 0.73109347
-0.01090653 0.0076345801 0.73028255
-0.01085157 0.006510973 0.72952336
-0.010799672 0.005399853 0.72880644
-0.010750017 0.0042999983 0.72812057
-0.010703473 0.003211081 0.72747761
-0.010659738 0.0021319985 0.72687346
-0.010617949 0.0010617673 0.72629631
-0.010578444 -0 0.72575057
-0.010541585 -0.0010541677 0.72524142
-0.010506281 -0.0021012723 0.72475374
-0.010473093 -0.00314188 0.72429532
-0.010442204 -0.0041768551 0.72386861
-0.010412699 -0.0052063465 0.72346109
-0.010385391 -0.0062312484 0.72308391
-0.010359886 -0.0072518885 0.72273153
-0.010335655 -0.0082685053 0.72239685
-0.010313969 -0.0092825294 0.72209728
-0.010293478 -0.010293454 0.72181427
-0.010274665 -0.011302114 0.7215544
-0.010258116 -0.01230973 0.72132576
-0.010242535 -0.01331526 0.72111058
-0.010229147 -0.014320821 0.72092563
-0.010217339 -0.015325993 0.72076249
-0.010206714 -0.016330719 0.72061574
-0.010198664 -0.01733771 0.72050452
-0.010191744 -0.018345118 0.72040898
-0.010186507 -0.019354343 0.72033662
-0.010183577 -0.020367116 0.72029608
-0.010181904 -0.021381974 0.72027308
-0.010182253 -0.022400945 0.72027785
-0.010184937 -0.023425341 0.72031498
-0.010189194 -0.024454057 0.72037375
-0.010195622 -0.025489062 0.7204625
-0.010204928 -0.026532769 0.72059107
-0.010216217 -0.027583778 0.72074699
-0.010229816 -0.028643489 0.72093487
-0.010246876 -0.029715925 0.72117049
-0.010267146 -0.030801445 0.72145057
-0.010290736 -0.03190124 0.72177637
-0.01031812 -0.033017963 0.72215462
-0.0103499 -0.034154683 0.72259361
-0.010386987 -0.035315782 0.72310591
-0.010430375 -0.036506295 0.72370529
-0.010481399 -0.037732989 0.72441006
-0.01054181 -0.039004683 0.72524452
-0.010614046 -0.04033336 0.72624236
-0.010701548 -0.041736037 0.72745109
-0.010815186 -0.043260723 0.72902071
-0.010973089 -0.044989675 0.73120195
-0.011285001 -0.047396988 0.73551047
-0.011980806 0.031948864 0.76350999
-0.011487681 0.029357433 0.75594151
-0.011236141 0.027466118 0.75208092
-0.011046661 0.025775582 0.74917269
-0.010890914 0.024202049 0.7467823
-0.010756416 0.022707999 0.74471796
-0.010638249 0.021276504 0.74290431
-0.010531885 0.019893557 0.74127185
-0.010435593 0.018552214 0.7397939
-0.010347163 0.017245322 0.73843676
-0.010265808 0.015969068 0.7371881
-0.010190414 0.014719486 0.73603094
-0.010120327 0.013493776 0.73495519
-0.010054633 0.012288988 0.73394692
-0.0099930679 0.011103421 0.73300213
-0.009935461 0.0099354684 0.73211789
-0.0098814685 0.0087835193 0.73128921
-0.009830405 0.007645905 0.73050547
-0.0097821541 0.0065214634 0.72976494
-0.0097363582 0.0054091215 0.72906202
-0.0096936207 0.0043082535 0.72840613
-0.0096530328 0.0032177269 0.72778314
-0.0096142674 0.0021364987 0.72718817
-0.0095781432 0.0010643005 0.72663373
-0.0095439563 2.9802322e-08 0.72610903
-0.0095112287 -0.0010567904 0.7256068
-0.0094809076 -0.0021068454 0.72514135
-0.00945218 -0.0031507313 0.72470045
-0.0094248541 -0.0041888356 0.72428107
-0.0093998648 -0.0052221119 0.72389752
-0.0093760584 -0.0062507093 0.72353208
-0.0093538752 -0.0072751939 0.72319168
-0.0093337493 -0.0082966387 0.72288275
-0.0093145519 -0.009314537 0.72258818
-0.009297437 -0.010330439 0.72232544
-0.0092818327 -0.011344433 0.72208589
-0.0092672743 -0.012356341 0.72186244
-0.0092550013 -0.013368309 0.7216742
-0.0092437817 -0.014379203 0.72150195
-0.0092340875 -0.015390128 0.72135311
-0.0092263212 -0.016402364 0.72123396
-0.0092195831 -0.017414778 0.72113055
-0.0092148222 -0.018429637 0.72105747
-0.0092117134 -0.019446909 0.72100973
-0.009209781 -0.020466149 0.72098011
-0.0092101293 -0.021490306 0.72098541
-0.009212126 -0.022518516 0.72101611
-0.0092155831 -0.023550928 0.72106916
-0.0092213936 -0.024590373 0.72115827
-0.0092294067 -0.025637239 0.72128129
-0.0092392825 -0.026691228 0.72143292
-0.0092513226 -0.027753919 0.72161764
-0.0092666643 -0.028829604 0.72185308
-0.0092846658 -0.02991724 0.7221294
-0.009305615 -0.031018674 0.72245097
-0.0093300082 -0.032136708 0.72282529
-0.0093583232 -0.033274025 0.72325993
-0.009391685 -0.034436166 0.72377193
-0.0094306655 -0.035626948 0.72437024
-0.0094761075 -0.036851525 0.72506768
-0.0095301596 -0.038120627 0.72589731
-0.009595002 -0.039446115 0.72689253
-0.009673547 -0.040843844 0.72809803
-0.0097744744 -0.042356044 0.72964704
-0.009914374 -0.044063866 0.73179424
-0.010172714 -0.046342313 0.73575926
-0.010379304 0.031137913 0.75884289
-0.010114467 0.029079109 0.75427002
-0.0099282898 0.027302802 0.75105536
-0.009778291 0.025668055 0.74846536
-0.0096516721 0.024129182 0.74627912
-0.009540325 0.022658288 0.74435651
-0.0094413618 0.021243066 0.74264777
-0.0093520703 0.019873172 0.74110603
-0.0092703365 0.01854068 0.73969477
-0.0091952747 0.01724118 0.73839867
-0.0091257924 0.015970141 0.73719895
-0.0090612154 0.014724463 0.73608392
-0.009000985 0.013501495 0.73504394
-0.0089447433 0.012299031 0.73407286
-0.0088922223 0.011115283 0.73316604
-0.0088426815 0.0099480748 0.73231053
-0.0087957373 0.008795768 0.73150003
-0.0087516382 0.0076577067 0.73073858
-0.0087102745 0.0065327287 0.73002434
-0.0086710062 0.0054193735 0.72934633
-0.0086337505 0.0043168664 0.72870308
-0.0085986769 0.0032245219 0.72809744
-0.0085657379 0.0021414459 0.72752869
-0.0085343365 0.0010668039 0.72698653
-0.0085047446 2.9802322e-08 0.7264756
-0.008477048 -0.0010595918 0.72599733
-0.0084506422 -0.002112627 0.72554135
-0.0084259808 -0.0031597316 0.7251156
-0.0084030656 -0.0042015314 0.72471988
-0.0083811609 -0.0052382052 0.72434169
-0.0083612492 -0.0062709153 0.72399783
-0.008342661 -0.0072998106 0.72367692
-0.008325058 -0.0083250701 0.723373
-0.008309532 -0.0093482137 0.72310495
-0.0082950462 -0.010368794 0.72285473
-0.0082819369 -0.011387646 0.72262847
-0.0082705077 -0.012405753 0.72243112
-0.0082599698 -0.0134224 0.72224915
-0.008251261 -0.014439702 0.72209877
-0.0082438849 -0.015457243 0.72197139
-0.0082374914 -0.016474962 0.72186106
-0.0082331588 -0.017495453 0.7217862
-0.0082299681 -0.018517405 0.72173113
-0.0082279481 -0.019541323 0.72169626
-0.0082281185 -0.020570308 0.72169918
-0.0082295416 -0.021602511 0.72172374
-0.0082323318 -0.022638887 0.72177196
-0.0082375193 -0.023682863 0.72186148
-0.0082442854 -0.024732828 0.72197831
-0.0082527781 -0.025789887 0.72212499
-0.0082635842 -0.026856631 0.72231156
-0.0082769524 -0.02793473 0.72254241
-0.0082927039 -0.029024482 0.72281432
-0.0083110994 -0.030127734 0.72313201
-0.0083325226 -0.03124693 0.7235018
-0.0083577838 -0.032386392 0.72393811
-0.0083873942 -0.033549547 0.7244494
-0.0084218942 -0.034740299 0.72504503
-0.008462063 -0.035963774 0.72573858
-0.0085093984 -0.037228584 0.72655588
-0.0085668489 -0.038550824 0.72754788
-0.0086365081 -0.039943814 0.72875065
-0.0087250322 -0.041443884 0.73027915
-0.0088473838 -0.043130964 0.73239177
-0.0090671899 -0.045335978 0.7361871
-0.0092711374 0.033111215 0.76257735
-0.0089713652 0.030758977 0.75666177
-0.0087880287 0.028874964 0.75304395
-0.0086457627 0.027172416 0.75023663
-0.0085267434 0.025580257 0.74788797
-0.0084242299 0.02406925 0.74586505
-0.008333249 0.02261886 0.7440697
-0.0082512377 0.021217525 0.74245131
-0.0081766658 0.019857645 0.74097979
-0.008108479 0.018533677 0.73963422
-0.008045461 0.017240286 0.73839068
-0.0079871211 0.015974253 0.73723948
-0.0079329144 0.014732599 0.73616976
-0.0078821536 0.013512284 0.7351681
-0.0078346031 0.012311518 0.73422974
-0.007789779 0.011128277 0.73334527
-0.0077475971 0.0099612176 0.73251289
-0.0077080382 0.0088092089 0.73173225
-0.0076708607 0.0076708794 0.73099864
-0.0076353825 0.0065446496 0.73029852
-0.0076020081 0.0054300129 0.72963989
-0.0075706579 0.0043261349 0.72902131
-0.0075409035 0.0032318234 0.72843415
-0.007512656 0.0021465123 0.72787672
-0.0074862884 0.0010694861 0.72735643
-0.0074613085 -0 0.72686344
-0.0074375835 -0.0010625124 0.72639525
-0.0074155936 -0.0021187663 0.72596139
-0.0073948633 -0.0031692088 0.72555232
-0.0073751882 -0.004214406 0.72516406
-0.0073573599 -0.0052552223 0.72481215
-0.0073404713 -0.0062918067 0.72447896
-0.0073249228 -0.0073249042 0.72417212
-0.0073107746 -0.0083551407 0.72389293
-0.0072975256 -0.0093825161 0.7236315
-0.0072859302 -0.010408461 0.72340262
-0.0072754142 -0.011432767 0.72319514
-0.0072658919 -0.012455791 0.72300726
-0.0072580385 -0.013479203 0.72285223
-0.0072511625 -0.014502287 0.72271657
-0.0072453832 -0.015525818 0.72260261
-0.0072413008 -0.016551524 0.72252196
-0.007238179 -0.017578423 0.72246039
-0.0072363671 -0.018607795 0.72242469
-0.0072361655 -0.019641012 0.72242063
-0.0072370963 -0.020677418 0.72243905
-0.0072395126 -0.021718532 0.72248673
-0.0072437949 -0.022766203 0.72257125
-0.0072494452 -0.023819596 0.72268265
-0.007256622 -0.024879813 0.72282434
-0.0072661713 -0.025950581 0.7230128
-0.0072776014 -0.027031064 0.72323835
-0.0072911615 -0.028123021 0.72350591
-0.0073070284 -0.029228091 0.72381902
-0.0073256963 -0.030349284 0.72418737
-0.0073479074 -0.031491011 0.72462571
-0.0073736473 -0.032654703 0.72513366
-0.0074036731 -0.033845365 0.72572613
-0.0074386466 -0.035067916 0.72641629
-0.00747986 -0.0363307 0.72722948
-0.0075295027 -0.037647486 0.72820914
-0.0075903116 -0.039035857 0.7294091
-0.0076666791 -0.040523857 0.73091608
-0.0077719516 -0.042190552 0.73299342
-0.0079555912 -0.044323981 0.73661727
-0.0078072986 0.032530427 0.75936818
-0.0076251714 0.03050071 0.75517529
-0.0074912012 0.028716266 0.75209099
-0.0073819887 0.027067304 0.74957669
-0.0072883377 0.025509179 0.74742067
-0.0072063049 0.024021029 0.74553204
-0.0071327914 0.02258718 0.74383962
-0.0070663556 0.021199048 0.74231017
-0.0070053786 0.019848585 0.74090636
-0.006949394 0.01853174 0.73961747
-0.0068975757 0.017243981 0.73842442
-0.0068494412 0.015982032 0.73731631
-0.0068043857 0.014742851 0.73627901
-0.0067622 0.013524443 0.73530775
-0.0067226854 0.012324959 0.73439807
-0.0066857091 0.01114291 0.73354679
-0.0066508222 0.009976238 0.73274362
-0.0066179167 0.0088239014 0.73198611
-0.0065866243 0.0076844096 0.73126572
-0.0065573845 0.0065573752 0.73059249
-0.0065298132 0.0054415166 0.72995782
-0.0065034917 0.0043356717 0.72935176
-0.006478745 0.0032393932 0.72878206
-0.0064555877 0.0021518767 0.72824895
-0.0064334758 0.0010722876 0.72773993
-0.0064127599 2.9802322e-08 0.72726297
-0.0063934135 -0.0010655522 0.72681761
-0.006375026 -0.0021249652 0.72639424
-0.0063579446 -0.0031789541 0.72600096
-0.0063421037 -0.0042280555 0.72563624
-0.0063271043 -0.0052725673 0.72529101
-0.0063135829 -0.0063135922 0.72497964
-0.0063009639 -0.0073510706 0.72468913
-0.0062892823 -0.0083856881 0.72442025
-0.0062791016 -0.0094186664 0.72418588
-0.0062696589 -0.010449409 0.72396845
-0.0062612989 -0.01147902 0.72377598
-0.0062542763 -0.012508541 0.72361434
-0.0062479917 -0.013537288 0.72346961
-0.0062430077 -0.014567018 0.72335494
-0.0062391437 -0.01559785 0.72326601
-0.0062361131 -0.016629606 0.72319615
-0.0062345657 -0.017664611 0.72316056
-0.0062340866 -0.018702239 0.72314954
-0.0062345876 -0.019742876 0.72316104
-0.0062366794 -0.020788908 0.7232092
-0.0062401039 -0.021840364 0.72328806
-0.0062447116 -0.022897273 0.72339416
-0.0062508145 -0.023961455 0.7235347
-0.0062588612 -0.025035381 0.72371984
-0.006268492 -0.026118696 0.72394162
-0.0062798974 -0.027212858 0.72420418
-0.0062933196 -0.028319925 0.72451317
-0.0063094525 -0.029444069 0.72488457
-0.0063283383 -0.030586958 0.72531939
-0.0063502514 -0.031751245 0.72582388
-0.006375846 -0.032941848 0.72641307
-0.0064057154 -0.034163803 0.72710079
-0.0064409305 -0.035425127 0.72791153
-0.0064828643 -0.03673622 0.72887695
-0.0065348111 -0.038119704 0.7300728
-0.0065993401 -0.039596051 0.73155844
-0.0066880146 -0.041242719 0.7335999
-0.0068379184 -0.043306828 0.73705101
-0.0066233617 0.034441531 0.76260823
-0.006438138 0.03219071 0.75749117
-0.0063135703 0.030305177 0.75404978
-0.0062151402 0.028589666 0.75133049
-0.0061322502 0.02698195 0.74904048
-0.0060598035 0.025451183 0.74703908
-0.0059954957 0.023982018 0.7452625
-0.0059376084 0.022562951 0.74366331
-0.0058848076 0.021185338 0.74220455
-0.0058363718 0.019843698 0.74086648
-0.0057915454 0.018532962 0.73962808
-0.0057499576 0.017249912 0.73847908
-0.0057112221 0.01599142 0.737409
-0.0056750611 0.014755189 0.7364099
-0.0056412807 0.013539076 0.73547673
-0.0056094872 0.012340873 0.7345984
