# .PCD v0.7 - Point Cloud Data file format
VERSION 0.7
FIELDS x y z
SIZE 4 4 4
TYPE F F F
COUNT 1 1 1
WIDTH 1334
HEIGHT 1
VIEWPOINT 0 0 0 1 0 0 0
POINTS 1334
DATA ascii
-0.0056478586 -0.0056478381 0.73565847
-0.0056627207 -0.0067952275 0.73606902
-0.0056778998 -0.0079490542 0.73648846
-0.0056931605 -0.00910905 0.73690999
-0.0057085468 -0.010275364 0.73733509
-0.0057240166 -0.011447996 0.73776245
-0.0057396819 -0.012627304 0.73819518
-0.0057555442 -0.013813287 0.73863345
-0.0057716062 -0.015006155 0.73907721
-0.0057878261 -0.016205907 0.7395252
-0.0058041373 -0.017412394 0.73997587
-0.0058206087 -0.018625885 0.74043095
-0.0058372426 -0.019846588 0.74089044
-0.0058542257 -0.021075189 0.74135971
-0.0058713309 -0.022311032 0.74183226
-0.0058885366 -0.023554146 0.74230754
-0.0059058429 -0.024804503 0.74278569
-0.0059234169 -0.026062995 0.74327117
-0.0059412858 -0.027329922 0.74376488
-0.0059593581 -0.028604895 0.74426407
-0.0059775645 -0.029887795 0.74476707
-0.0059959069 -0.031178683 0.74527383
-0.0060145324 -0.032478452 0.7457884
-0.0060335682 -0.033787996 0.74631435
-0.0060526999 -0.035105646 0.7468428
-0.0060719778 -0.036431849 0.74737537
-0.0060913544 -0.037766367 0.74791074
-0.0061112568 -0.039112031 0.74846059
-0.0061314665 -0.04046765 0.74901891
-0.0061517847 -0.041832149 0.7495802
-0.0061722379 -0.043205649 0.7501452
-0.0061930604 -0.044590026 0.7507205
-0.0062143872 -0.045986474 0.75130969
-0.0062358612 -0.047392517 0.75190294
-0.0062575103 -0.048808545 0.75250101
-0.0062794168 -0.050235331 0.75310624
-0.0063020112 -0.051676482 0.75373048
-0.0063247685 -0.053128064 0.75435919
-0.0063476907 -0.054590136 0.75499237
-0.006370944 -0.056064308 0.75563484
-0.0063949451 -0.057554483 0.75629783
-0.0064206803 -0.05907023 0.75700885
-0.0041901674 0.050282001 0.72432739
-0.0041963747 0.049307406 0.72454178
-0.0042044879 0.048351586 0.72482198
-0.0042174268 0.047446042 0.72526878
-0.0042225611 0.046448171 0.72544611
-0.0042277384 0.045448214 0.7256248
-0.0042294068 0.044408798 0.7256825
-0.0042220517 0.043276042 0.72542846
-0.0042130798 0.042130798 0.7251187
-0.004204161 0.040990561 0.72481072
-0.0041967896 0.039869547 0.72455609
-0.0041896063 0.038753867 0.72430801
-0.0041831387 0.037648261 0.72408473
-0.0041773072 0.036551476 0.72388333
-0.0041714623 0.035457432 0.72368145
-0.0041668741 0.034376711 0.72352308
-0.0041624708 0.033299774 0.72337103
-0.0041596326 0.032237202 0.72327292
-0.0041641612 0.031231254 0.72342938
-0.0041728085 0.030252904 0.72372794
-0.0041814772 0.029270351 0.72402734
-0.004190329 0.028284729 0.72433305
-0.0041992189 0.027294934 0.72464001
-0.004208162 0.026301026 0.72494876
-0.0042171427 0.025302857 0.72525895
-0.0042262068 0.024300724 0.72557199
-0.0042354153 0.023294777 0.72588998
-0.0042446642 0.022284508 0.7262094
-0.0042539686 0.021269888 0.72653067
-0.0042632991 0.020250678 0.72685289
-0.0042727934 0.019227564 0.72718072
-0.0042823758 0.018200129 0.7275117
-0.0042919861 0.017167985 0.72784352
-0.0043016551 0.016131252 0.72817743
-0.0043113679 0.01508984 0.72851288
-0.0043212813 0.014044195 0.72885525
-0.0043312409 0.012993753 0.72919911
-0.0043412461 0.011938483 0.72954464
-0.0043513617 0.010878444 0.72989398
-0.0043615559 0.0098135471 0.73024607
-0.0043718787 0.008743763 0.7306025
-0.0043822504 0.007668972 0.73096061
-0.0043926882 0.0065890551 0.7313211
-0.0044032889 0.0055041313 0.73168719
-0.0044140075 0.004414022 0.73205733
-0.0044247778 0.003318578 0.73242927
-0.0044355839 0.0022178292 0.73280245
-0.0044464604 0.0011116564 0.73317802
-0.0044575734 -0 0.73356181
-0.0044687423 -0.0011171699 0.73394752
-0.0044799843 -0.0022399426 0.73433578
-0.0044913338 -0.0033684671 0.73472774
-0.0045027751 -0.0045027435 0.7351228
-0.0045143603 -0.0056429207 0.73552287
-0.0045260056 -0.006788969 0.73592502
-0.0045378492 -0.0079412162 0.73633397
-0.0045497729 -0.0090995133 0.73674577
-0.0045617763 -0.010263979 0.73716027
-0.0045738788 -0.011434704 0.73757821
-0.0045861164 -0.012611806 0.73800081
-0.0045985435 -0.013795614 0.73843002
-0.0046110568 -0.014985889 0.7388621
-0.004623692 -0.016182899 0.7392984
-0.0046363785 -0.017386407 0.73973656
-0.0046492256 -0.018596858 0.74018013
-0.0046622357 -0.019814521 0.74062943
-0.0046754656 -0.021039575 0.7410863
-0.004688771 -0.022271633 0.7415458
-0.0047021518 -0.023510754 0.74200785
-0.0047156843 -0.024757326 0.74247527
-0.0047293892 -0.026011646 0.74294847
-0.0047433251 -0.027274102 0.74342972
-0.0047573624 -0.028544158 0.74391448
-0.0047714831 -0.029821754 0.74440211
-0.0047856877 -0.031106979 0.74489266
-0.0048001711 -0.032401115 0.7453928
-0.0048148977 -0.033704251 0.74590135
-0.0048297546 -0.035015702 0.74641442
-0.0048446837 -0.036335111 0.74693
-0.0048597851 -0.037663311 0.74745148
-0.0048752003 -0.039001584 0.74798381
-0.004890814 -0.040349215 0.74852306
-0.0049065286 -0.041705459 0.74906564
-0.0049223648 -0.043070674 0.74961251
-0.0049383645 -0.044445246 0.7501651
-0.0049548196 -0.045832068 0.75073332
-0.0049714264 -0.047228515 0.75130683
-0.0049881241 -0.048634171 0.75188339
-0.0050049555 -0.050049514 0.75246465
-0.0050222822 -0.051478386 0.75306296
-0.0050398144 -0.052918017 0.75366849
-0.0050574699 -0.054367781 0.75427818
-0.0050752712 -0.055827945 0.75489289
-0.0050935689 -0.057302624 0.75552475
-0.0051123281 -0.058791757 0.75617266
-0.0031479255 0.050366819 0.72457147
-0.0031534107 0.049403429 0.72482401
-0.0031591163 0.048439771 0.72508675
-0.0031682029 0.047523111 0.72550511
-0.0031720777 0.046523839 0.72568351
-0.0031758603 0.045520693 0.72585768
-0.0031758039 0.04446131 0.72585505
-0.0031691596 0.043311864 0.7255491
-0.0031621058 0.042161435 0.72522438
-0.0031555295 0.041021913 0.72492158
-0.0031498258 0.039897799 0.72465897
-0.0031441646 0.038778067 0.72439831
-0.0031392307 0.037670761 0.7241711
-0.0031345652 0.036569923 0.72395623
-0.0031302981 0.035476714 0.72375983
-0.0031267877 0.034394681 0.72359818
-0.003123296 0.033315182 0.72343743
-0.0031216457 0.03225702 0.72336143
-0.0031262068 0.0312621 0.72357142
-0.0031325952 0.030281782 0.72386557
-0.0031389985 0.029297352 0.72416043
-0.0031454617 0.028309166 0.72445798
-0.0031520291 0.027317584 0.72476041
-0.0031586352 0.026321977 0.72506464
-0.0031652581 0.02532208 0.72536951
-0.0031719198 0.024318069 0.7256763
-0.0031786552 0.023310184 0.72598636
-0.0031854871 0.022298425 0.72630101
-0.0031923489 0.021282345 0.72661698
-0.00319924 0.020261884 0.72693419
-0.0032061841 0.019237101 0.72725397
-0.0032132161 0.018208236 0.72757775
-0.0032203258 0.017175108 0.72790509
-0.0032274551 0.016137272 0.7282334
-0.003234616 0.015094906 0.72856307
-0.0032418915 0.014048219 0.72889805
-0.0032492469 0.012997001 0.72923678
-0.0032566357 0.011941016 0.72957689
-0.0032640586 0.010880202 0.72991872
-0.0032715029 0.0098145306 0.73026145
-0.0032790778 0.00874421 0.73061025
-0.0032867363 0.0076690912 0.73096293
-0.0032944186 0.0065888464 0.73131663
-0.0033021735 0.0055036545 0.73167372
-0.0033100143 0.0044133663 0.73203468
-0.0033179293 0.0033179224 0.73239917
-0.0033258945 0.0022172928 0.73276591
-0.0033338983 0.0011112988 0.73313439
-0.0033420532 2.9802322e-08 0.73350996
-0.003350273 -0.0011167526 0.73388845
-0.0033585464 -0.0022390187 0.73426932
-0.0033668608 -0.0033668578 0.73465222
-0.0033752162 -0.0045002401 0.73503691
-0.0033837415 -0.0056395233 0.73542941
-0.0033923099 -0.0067846179 0.73582399
-0.0034009737 -0.0079355836 0.73622286
-0.0034097082 -0.0090925395 0.73662508
-0.0034184745 -0.010255396 0.73702872
-0.0034273781 -0.011424571 0.73743868
-0.0034363281 -0.012599826 0.73785073
-0.0034454584 -0.013781786 0.73827112
-0.0034546368 -0.014970094 0.73869377
-0.0034638511 -0.01616466 0.73911804
-0.003473155 -0.017365754 0.73954642
-0.0034825637 -0.018573672 0.73997962
-0.0034921328 -0.019788712 0.74042028
-0.003501782 -0.021010697 0.74086452
-0.0035114847 -0.022239387 0.74131125
-0.0035212415 -0.023474932 0.74176049
-0.0035311363 -0.024717957 0.74221611
-0.0035411853 -0.025968641 0.74267882
-0.0035513623 -0.027227104 0.74314743
-0.003561598 -0.028492749 0.74361873
-0.0035718929 -0.029765755 0.74409276
-0.0035822906 -0.03104651 0.74457157
-0.0035928793 -0.032335907 0.74505907
-0.0036036181 -0.033633769 0.74555349
-0.0036144212 -0.034939378 0.74605095
-0.0036252893 -0.036252886 0.74655133
-0.0036362377 -0.03757444 0.74705547
-0.0036474611 -0.038906246 0.74757218
-0.0036588144 -0.040246934 0.74809498
-0.0036702536 -0.041596174 0.7486217
-0.0036817642 -0.042953908 0.74915171
-0.0036933781 -0.044320524 0.74968642
-0.0037053425 -0.045699209 0.75023729
-0.0037173692 -0.047086656 0.75079107
-0.0037294738 -0.048483163 0.7513485
-0.0037416734 -0.049888968 0.75191015
-0.0037541429 -0.051306605 0.75248432
-0.0037668387 -0.052735716 0.75306892
-0.0037796206 -0.054174513 0.7536574
-0.0037925059 -0.055623412 0.75425076
-0.0038055766 -0.057083637 0.75485247
-0.0038189993 -0.058557987 0.75547057
-0.0038608937 -0.06048733 0.75739956
-0.0021035972 0.050486356 0.72491544
-0.002107346 0.049522638 0.72517437
-0.0021145681 0.048635095 0.72567314
-0.0021167882 0.047627747 0.7258265
-0.0021190052 0.046618134 0.72597963
-0.0021212497 0.045606881 0.72613466
-0.0021199568 0.044519097 0.72604531
-0.0021150419 0.043358386 0.72570586
-0.0021102394 0.042204857 0.72537416
-0.0021058389 0.041063875 0.72507024
-0.0021018058 0.039934337 0.72479177
-0.0020977953 0.03880927 0.72451472
-0.0020945375 0.037701696 0.72428972
-0.0020914222 0.036599904 0.7240746
-0.0020885507 0.035505384 0.72387624
-0.002086031 0.034419537 0.72370219
-0.002083583 0.033337355 0.72353309
-0.0020833057 0.032291263 0.72351402
-0.0020866606 0.031299949 0.72374564
-0.0020908487 0.030317277 0.72403497
-0.0020950539 0.02933076 0.72432536
-0.0020992761 0.02834025 0.724617
-0.0021035599 0.027346283 0.72491282
-0.0021078913 0.02634868 0.72521198
-0.0021122401 0.025346905 0.72551233
-0.002116615 0.024341106 0.72581446
-0.0021210001 0.023331016 0.72611737
-0.0021254641 0.02231738 0.72642565
-0.0021299704 0.02129972 0.7267369
-0.0021344875 0.020277649 0.72704899
-0.0021390319 0.019251287 0.72736281
-0.0021435954 0.018220574 0.72767794
-0.0021482564 0.017186075 0.72799987
-0.0021529372 0.016147077 0.7283231
-0.0021576388 0.015103519 0.72864789
-0.0021623687 0.014055431 0.72897464
-0.0021671669 0.013003021 0.72930598
-0.0021720103 0.011946082 0.72964048
-0.002176875 0.010884404 0.72997648
-0.00218177 0.0098179877 0.73031455
-0.0021867109 0.0087468624 0.73065579
-0.0021917389 0.007671088 0.73100305
-0.0021967739 0.0065903366 0.73135078
-0.0022018403 0.005504638 0.73170072
-0.00220693 0.004413873 0.73205221
-0.0022120762 0.003318131 0.73240769
-0.002217296 0.0022173226 0.73276818
-0.0022225489 0.0011112988 0.73313105
-0.0022278519 5.9604645e-08 0.73349726
-0.0022331967 -0.0011166036 0.73386645
-0.0022385842 -0.0022385418 0.73423851
-0.0022440318 -0.0033660233 0.73461473
-0.0022494972 -0.0044989884 0.73499221
-0.0022550665 -0.0056376457 0.73537683
-0.0022606803 -0.0067820549 0.73576462
-0.0022663225 -0.0079320967 0.73615426
-0.0022720015 -0.0090879798 0.73654652
-0.0022777088 -0.010249674 0.73694068
-0.002283524 -0.011417598 0.73734236
-0.0022893865 -0.012591571 0.73774725
-0.0022953146 -0.013771892 0.73815668
-0.0023012736 -0.014958292 0.73856825
-0.0023072723 -0.016150892 0.73898256
-0.0023133564 -0.017350167 0.73940277
-0.0023194819 -0.01855582 0.73982584
-0.0023257218 -0.019768596 0.74025679
-0.0023319859 -0.020987839 0.7406894
-0.0023382932 -0.022213757 0.74112505
-0.0023446532 -0.02344656 0.74156433
-0.0023511038 -0.024686575 0.74200982
-0.0023576366 -0.025933981 0.74246103
-0.0023642434 -0.027188778 0.7429173
-0.0023708779 -0.028450519 0.74337548
-0.0023775497 -0.029719353 0.74383634
-0.0023843164 -0.030996114 0.7443037
-0.0023912084 -0.032281309 0.74477971
-0.0023981791 -0.033574492 0.74526119
-0.0024051806 -0.034875125 0.74574476
-0.0024122233 -0.036183327 0.74623114
-0.0024193369 -0.037499696 0.7467224
-0.002426621 -0.038825929 0.74722552
-0.0024339692 -0.040160477 0.74773306
-0.002441372 -0.04150331 0.74824429
-0.00244881 -0.04285416 0.74875802
-0.0024563239 -0.044213802 0.749277
-0.0024640372 -0.045584708 0.74980974
-0.0024718195 -0.046964556 0.7503472
-0.002479651 -0.048353165 0.75088811
-0.0024875221 -0.049750447 0.75143182
-0.002495548 -0.051158726 0.75198603
-0.0025037418 -0.052578539 0.75255197
-0.0025119788 -0.05400756 0.75312084
-0.0025202702 -0.055445939 0.75369358
-0.0025286274 -0.056894094 0.75427079
-0.0025372782 -0.058357388 0.75486827
-0.0025564719 -0.060077071 0.75619382
-0.0010545136 0.050616682 0.72529042
-0.0010562363 0.049643129 0.72552848
-0.0010596914 0.048745811 0.72600567
-0.0010608103 0.047736466 0.72616023
-0.0010619315 0.046724975 0.72631514
-0.0010628613 0.045703053 0.72644353
-0.0010615222 0.044583946 0.72625852
-0.0010589594 0.043417364 0.72590458
-0.0010564802 0.042259216 0.72556216
-0.0010542108 0.041114241 0.72524863
-0.0010520814 0.0399791 0.72495449
-0.0010501087 0.038854033 0.72468197
-0.0010484317 0.037743539 0.72445035
-0.0010467637 0.03663674 0.72421992
-0.0010452848 0.035539716 0.72401565
-0.0010439785 0.034451336 0.72383517
-0.0010427412 0.033367723 0.72366428
-0.0010429021 0.032329977 0.72368652
-0.001044822 0.031344682 0.72395182
-0.0010468854 0.030359685 0.72423679
-0.0010489569 0.029370785 0.72452289
-0.0010510365 0.02837801 0.72481018
-0.0010531245 0.027381241 0.72509861
-0.0010552506 0.026381284 0.72539228
-0.0010573932 0.025377482 0.72568822
-0.0010595442 0.024369538 0.72598535
-0.001061704 0.023357481 0.72628373
-0.0010638803 0.02234152 0.72658432
-0.0010660923 0.021321863 0.72688979
-0.0010683172 0.020298064 0.72719717
-0.0010705516 0.019269943 0.7275058
-0.0010727991 0.018237591 0.72781628
-0.0010750716 0.017201155 0.72813022
-0.0010773734 0.016160607 0.72844815
-0.0010796889 0.015115649 0.72876799
-0.0010820105 0.01406613 0.72908866
-0.0010843499 0.013012201 0.72941184
-0.0010867193 0.01195395 0.72973919
-0.0010891152 0.010891169 0.73007005
-0.0010915216 0.0098237097 0.73040247
-0.0010939427 0.0087515414 0.73073691
-0.0010963946 0.0076747835 0.73107558
-0.0010988659 0.0065931976 0.731417
-0.0011013563 0.0055067837 0.73176098
-0.0011038581 0.0044154227 0.73210657
-0.0011063878 0.0033191741 0.73245597
-0.001108958 0.0022179186 0.73281103
-0.0011115402 0.001111567 0.73316771
-0.0011141304 -0 0.73352551
-0.0011167367 -0.0011167526 0.73388559
-0.0011193637 -0.0022386909 0.73424834
-0.0011220371 -0.0033660829 0.73461759
-0.0011247231 -0.0044988692 0.73498869
-0.0011274435 -0.0056371987 0.73536444
-0.0011301812 -0.0067811012 0.73574269
-0.0011329368 -0.007930547 0.73612326
-0.0011357231 -0.0090857744 0.73650813
-0.0011385231 -0.010246694 0.73689497
-0.0011413808 -0.011413813 0.73728967
-0.0011442573 -0.012586802 0.73768699
-0.0011471482 -0.013765752 0.73808634
-0.0011500582 -0.014950722 0.73848832
-0.0011529832 -0.016141742 0.73889238
-0.0011559589 -0.017339379 0.73930341
-0.0011589681 -0.018543452 0.73971903
-0.0011620066 -0.019754082 0.74013871
-0.0011650658 -0.020971149 0.74056131
-0.0011681364 -0.022194594 0.74098551
-0.0011712508 -0.023425013 0.74141574
-0.0011744052 -0.024662495 0.74185145
-0.0011776001 -0.025907189 0.74229276
-0.0011808169 -0.027158767 0.74273711
-0.0011840513 -0.02841723 0.74318385
-0.0011873037 -0.029682577 0.74363315
-0.0011906214 -0.030956149 0.74409139
-0.001193977 -0.032237351 0.74455494
-0.001197366 -0.033526212 0.74502307
-0.0012007694 -0.034822315 0.74549317
-0.0012041973 -0.036125898 0.74596667
-0.001207674 -0.037437886 0.74644697
-0.0012112203 -0.038759023 0.7469368
-0.0012147924 -0.040088147 0.74743021
-0.0012183905 -0.041425258 0.74792719
-0.0012220052 -0.042770177 0.74842656
-0.0012256717 -0.044124186 0.74893296
-0.001229416 -0.045488387 0.74945021
-0.0012331884 -0.046861172 0.74997133
-0.001236984 -0.04824236 0.75049561
-0.0012408032 -0.049632132 0.75102317
-0.0012446876 -0.051032186 0.75155973
-0.0012486593 -0.052443653 0.7521084
-0.0012526513 -0.053864002 0.75265974
-0.0012566741 -0.055293649 0.75321549
-0.0012607228 -0.056732506 0.7537747
-0.0012648837 -0.058184624 0.75434947
-0.0012726238 -0.059813291 0.75541866
0 0.051838249 0.72576153
0 0.050768226 0.72572666
0 0.049796104 0.72597802
0 0.048887074 0.72642994
0 0.047866374 0.72655904
0 0.046849161 0.72670484
0 0.045807958 0.72678065
0 0.044661254 0.72651285
0 0.04348889 0.72614563
0 0.04232356 0.72578436
0 0.041174382 0.7254616
0 0.040037066 0.72516501
0 0.038908839 0.72488666
0 0.037792742 0.724639
0 0.036680251 0.7243917
0 0.035583079 0.72419196
0 0.034491628 0.72400397
0 0.033408731 0.72384131
0 0.032382876 0.72392237
0 0.031396836 0.72419196
0 0.030409038 0.72447181
0 0.029417604 0.72475374
0 0.028422326 0.72503674
0 0.027423084 0.72532094
0 0.026419967 0.7256062
0 0.025413871 0.72589779
0 0.024403691 0.72619057
0 0.023389488 0.72648448
0 0.022371203 0.72677958
0 0.021349013 0.72707748
0 0.020323157 0.72737974
0 0.019293159 0.72768384
0 0.01825887 0.7279892
0 0.017220348 0.72829574
0 0.016177893 0.72860736
0 0.015131265 0.72892189
0 0.014080197 0.72923779
0 0.013024658 0.72955501
0 0.011964738 0.72987473
0 0.010900646 0.73020077
0 0.0098318458 0.7305277
0 0.0087584853 0.73085654
0 0.0076803863 0.73118627
0 0.0065976679 0.7315191
0 0.0055103302 0.7318579
0 0.0044180751 0.73219836
0 0.003320992 0.73254025
0 0.0022190213 0.73288703
0 0.0011120439 0.73323601
0 5.9604645e-08 0.73358834
0 -0.0011171401 0.73394287
0 -0.0022394359 0.73429847
0 -0.0033670664 0.73466271
0 -0.0045000613 0.73502862
0 -0.0056383014 0.73539519
0 -0.0067819953 0.73576403
0 -0.0079310834 0.73613405
0 -0.0090860426 0.73651302
0 -0.010246605 0.73689312
0 -0.011412978 0.73727816
0 -0.012585133 0.73766571
0 -0.01376307 0.73805517
0 -0.014947027 0.73844898
0 -0.016136974 0.73884541
0 -0.017333537 0.73924941
0 -0.01853627 0.73965669
0 -0.019745141 0.74006605
0 -0.02096042 0.74047875
0 -0.022181839 0.74089301
0 -0.02341035 0.74131453
0 -0.024645746 0.7417413
0 -0.025887907 0.74217176
0 -0.027136683 0.74260443
0 -0.028392136 0.74303949
0 -0.02965501 0.74348074
0 -0.030925304 0.74392766
0 -0.032203346 0.74438101
0 -0.033488482 0.74483681
0 -0.034780592 0.74529457
0 -0.036080182 0.74575615
0 -0.037388384 0.74622637
0 -0.038705111 0.74670404
0 -0.040029466 0.74718451
0 -0.041361243 0.74766707
0 -0.042700857 0.74815303
0 -0.044049561 0.74864674
0 -0.04540801 0.74915028
0 -0.046774626 0.74965692
0 -0.048149437 0.75016648
0 -0.049532503 0.75067919
0 -0.050926059 0.75120211
0 -0.052329868 0.75173402
0 -0.053742439 0.75226927
0 -0.055163831 0.75280786
0 -0.056594074 0.75334978
0 -0.058036774 0.75390548
0 -0.059624255 0.75486302
0.0010602279 0.0519512 0.72607976
0.0010612153 0.050938338 0.7262162
0.0010629524 0.049958795 0.72645611
0.0010660655 0.049039006 0.72688615
0.0010670064 0.048015296 0.72701609
0.0010679528 0.046989948 0.72714686
0.0010680679 0.045926929 0.72716278
0.0010655459 0.044752985 0.72681439
0.0010627512 0.043572783 0.72642833
0.0010599861 0.042399436 0.72604638
0.0010576638 0.041248918 0.72572559
0.001055378 0.040104389 0.72540987
0.0010532998 0.038972139 0.72512281
0.001051382 0.037849784 0.72485787
0.001049601 0.036736041 0.72461188
0.0010481139 0.035635889 0.72440648
0.0010466349 0.034538954 0.72420216
0.0010456486 0.033460796 0.7240659
0.0010466165 0.032445133 0.72419965
0.001048576 0.031457305 0.72447026
0.0010505428 0.030465782 0.724742
0.0010525542 0.029471546 0.72501981
0.0010545697 0.028473377 0.72529823
0.0010565929 0.027471423 0.72557771
0.0010586276 0.026465684 0.72585875
0.0010606741 0.02545619 0.72614145
0.0010627626 0.024443537 0.72642994
0.0010648592 0.02342689 0.72671956
0.0010669642 0.02240625 0.72701037
0.0010690738 0.021381497 0.72730172
0.0010712148 0.020353109 0.72759748
0.0010733838 0.019320935 0.72789705
0.0010755616 0.018284559 0.72819787
0.0010777481 0.017243981 0.72849995
0.0010799437 0.016199172 0.72880328
0.0010821719 0.015150428 0.72911096
0.001084425 0.014097512 0.72942221
0.0010866877 0.013040245 0.72973478
0.0010889596 0.011978596 0.7300486
0.0010912572 0.010912597 0.73036599
0.0010935767 0.0098421872 0.73068631
0.0010959221 0.0087673962 0.73101032
0.0010982733 0.0076879263 0.7313351
0.0011006349 0.006603837 0.73166132
0.0011030434 0.0055152476 0.73199403
0.0011054666 0.0044218898 0.73232877
0.0011079046 0.0033237338 0.73266554
0.0011103576 0.0022207499 0.73300433
0.0011128214 0.0011128485 0.73334467
0.0011153171 -0 0.73368943
0.0011178406 -0.0011178553 0.734038
0.0011203759 -0.0022407472 0.73438823
0.0011229479 -0.0033687949 0.73474348
0.0011255319 -0.0045020878 0.73510045
0.0011281363 -0.0056406856 0.73546016
0.0011307613 -0.0067845583 0.7358228
0.0011333987 -0.0079337656 0.7361871
0.0011360962 -0.0090887547 0.73655969
0.0011388065 -0.010249227 0.73693413
0.0011415341 -0.011415333 0.73731089
0.001144266 -0.012586921 0.73768818
0.0011470155 -0.013764143 0.73806798
0.0011498093 -0.014947474 0.73845387
0.0011526346 -0.016136855 0.73884422
0.0011554918 -0.017332375 0.73923886
0.0011583677 -0.018533885 0.73963612
0.0011612625 -0.019741446 0.74003601
0.0011641764 -0.020955145 0.74043852
0.0011671232 -0.022175312 0.7408455
0.0011701173 -0.023402333 0.74125916
0.0011731405 -0.024635941 0.74167669
0.0011761795 -0.025875956 0.74209654
0.001179239 -0.027122498 0.74251908
0.0011823097 -0.028375417 0.74294329
0.0011854436 -0.029636085 0.7433762
0.0011886132 -0.030903935 0.74381405
0.0011918094 -0.032178819 0.74425554
0.0011950277 -0.033460766 0.74470007
0.0011982586 -0.034749478 0.74514633
0.0012015312 -0.036045939 0.74559844
0.0012048656 -0.037350804 0.746059
0.0012082333 -0.038663447 0.74652421
0.001211615 -0.039983273 0.74699134
0.0012150208 -0.041310698 0.7474618
0.0012184456 -0.042645544 0.74793482
0.0012219549 -0.043990374 0.74841964
0.0012254999 -0.045343488 0.74890924
0.0012290705 -0.04670465 0.74940246
0.0012326569 -0.04807362 0.7498979
0.0012362694 -0.049450785 0.75039697
0.00123996 -0.050838351 0.75090671
0.0012437038 -0.052235544 0.75142384
0.0012474705 -0.05364123 0.75194412
0.0012512599 -0.05505538 0.75246763
0.0012550724 -0.056478232 0.75299424
0.0012589829 -0.057913214 0.75353444
0.0012656427 -0.059485197 0.75445437
0.0021273799 0.052120835 0.72655797
0.0021304127 0.051129907 0.72676748
0.0021337753 0.050143719 0.72699976
0.0021394934 0.049208373 0.72739464
0.0021411879 0.048176736 0.7275117
0.0021430161 0.04714638 0.72763795
0.0021420517 0.046054125 0.72757137
0.0021361357 0.044858903 0.72716272
0.0021301762 0.043668658 0.72675109
0.0021246064 0.042492151 0.72636646
0.0021196925 0.041334033 0.72602707
0.0021147938 0.0401811 0.7256887
0.0021105539 0.039045274 0.72539598
0.0021066817 0.037920296 0.72512847
0.0021029725 0.036802024 0.72487235
0.0020997357 0.035695493 0.72464871
0.0020966567 0.034594893 0.72443604
0.0020950539 0.033520877 0.72432536
0.0020978323 0.03251639 0.72451729
0.002101687 0.031525314 0.72478354
0.0021055557 0.030530572 0.72505069
0.0021094535 0.029532343 0.72531992
0.0021134336 0.028531373 0.72559482
0.0021174212 0.027526498 0.72587025
0.0021214313 0.026517957 0.72614717
0.0021254492 0.025505424 0.72642469
0.0021295052 0.024489313 0.72670478
0.0021336377 0.023470044 0.72699022
0.0021377788 0.022446662 0.72727621
0.0021419358 0.021419376 0.72756332
0.0021461169 0.020388126 0.72785211
0.002150353 0.019353181 0.72814465
0.002154653 0.01831457 0.72844172
0.0021589624 0.017271727 0.72873926
0.0021632812 0.016224623 0.72903758
0.0021676251 0.015173405 0.72933763
0.0021720577 0.014118373 0.72964376
0.0021765169 0.013059109 0.72995174
0.0021809859 0.011995465 0.73026037
0.0021854818 0.010927409 0.73057091
0.002190012 0.009855032 0.73088384
0.0021946179 0.0087784827 0.73120195
0.0021992512 0.0076973736 0.73152196
0.0022039043 0.0066117346 0.73184329
0.0022085935 0.0055215359 0.73216712
0.002213344 0.0044267178 0.73249525
0.0022181312 0.0033272207 0.73282588
0.0022229475 0.0022229552 0.73315853
0.0022277851 0.0011139214 0.73349267
0.0022326771 2.9802322e-08 0.73383045
0.0022376496 -0.0011187792 0.73417389
0.0022426357 -0.0022426248 0.73451835
0.0022476611 -0.0033714771 0.73486543
0.0022527094 -0.0045053959 0.73521405
0.0022577972 -0.0056444705 0.73556548
0.0022629683 -0.0067888796 0.73592257
0.0022681633 -0.0079385638 0.73628139
0.0022734168 -0.0090936422 0.73664427
0.0022787123 -0.010254174 0.73701
0.0022840411 -0.011420161 0.73737806
0.0022894216 -0.012591779 0.7377497
0.0022948275 -0.013768971 0.73812306
0.0023003391 -0.014952183 0.73850369
0.0023058949 -0.016141266 0.73888743
0.0023114865 -0.01733613 0.73927361
0.0023170966 -0.018536717 0.73966104
0.0023227336 -0.019743204 0.74005038
0.002328435 -0.02095592 0.74044412
0.0023342189 -0.022175074 0.74084365
0.0023400872 -0.023400873 0.74124897
0.002345985 -0.024632841 0.7416563
0.0023519127 -0.025871038 0.74206567
0.002357889 -0.027115732 0.74247849
0.0023639239 -0.028367072 0.74289525
0.0023700653 -0.029625803 0.74331945
0.002376277 -0.030891567 0.74374843
0.0023825113 -0.032163858 0.74417901
0.0023887788 -0.033442885 0.74461192
0.0023950888 -0.034728765 0.74504769
0.0024015098 -0.036022604 0.74549115
0.0024080239 -0.037324369 0.74594116
0.0024145932 -0.038633496 0.74639481
0.0024211882 -0.039949596 0.74685031
0.0024278197 -0.041272938 0.74730837
0.0024345273 -0.042604208 0.74777156
0.002441392 -0.043945074 0.74824572
0.0024482959 -0.04529348 0.74872249
0.0024552492 -0.046649694 0.74920273
0.0024622418 -0.048013687 0.74968576
0.0024692747 -0.049385458 0.75017148
0.002476502 -0.050768286 0.75067067
0.0024837931 -0.052159637 0.75117421
0.0024911165 -0.053558975 0.75167996
0.0024984831 -0.054966599 0.7521888
0.0025059041 -0.056382835 0.75270134
0.0025135179 -0.057810903 0.75322723
0.0025266295 -0.059375793 0.75413275
0.0026927635 -0.064626276 0.765607
0.0032045026 0.052340239 0.72717655
0.0032090787 0.051345259 0.72738719
0.0032199537 0.050445974 0.72788793
0.0032221866 0.049406856 0.72799075
0.0032244108 0.048366159 0.72809321
0.003226358 0.047319978 0.72818285
0.0032224543 0.046188533 0.72800303
0.0032128345 0.044979721 0.72756016
0.0032033522 0.043779194 0.7271235
0.0031948178 0.042597622 0.72673059
0.0031868981 0.041429698 0.72636592
0.0031791083 0.040268719 0.72600722
0.0031728223 0.039131492 0.72571778
0.0031665612 0.037998766 0.72542953
0.00316075 0.036875457 0.72516191
0.0031557416 0.035765082 0.72493136
0.0031508491 0.034659326 0.72470605
0.0031498924 0.03359884 0.72466201
0.0031545144 0.032596648 0.72487485
0.0031602017 0.031602025 0.7251367
0.0031659096 0.030603826 0.72539949
0.0031716379 0.029601991 0.7256633
0.0031773986 0.02859661 0.72592849
0.0031832936 0.027588576 0.72619998
0.0031892105 0.026576757 0.72647238
0.0031951496 0.025561243 0.7267459
0.003201111 0.024541885 0.72702038
0.0032071406 0.023519069 0.72729802
0.0032132741 0.022492945 0.72758037
0.0032194194 0.021462858 0.72786331
0.0032255999 0.020428836 0.72814792
0.0032317925 0.019390792 0.72843301
0.0032380675 0.018349081 0.72872198
0.003244438 0.017303705 0.72901529
0.0032508215 0.016254097 0.72930926
0.0032572304 0.015200436 0.72960436
0.0032637122 0.014142781 0.72990274
0.0032702677 0.013081104 0.73020458
0.0032768738 0.012015224 0.7305088
0.0032835191 0.010945112 0.73081475
0.0032901911 0.0098705888 0.73112202
0.0032969143 0.0087917745 0.7314316
0.0033037632 0.0077088177 0.73174691
0.0033106406 0.0066212714 0.73206359
0.0033175468 0.0055292845 0.73238152
0.003324494 0.0044326782 0.73270148
0.003331508 0.003331542 0.73302442
0.0033386264 0.0022257566 0.73335218
0.0033457754 0.0011153221 0.73368132
0.003352955 2.9802322e-08 0.73401189
0.0033602542 -0.0011200905 0.734348
0.0033675721 -0.0022450387 0.73468494
0.0033749735 -0.003374964 0.7350257
0.0033824074 -0.004509896 0.73536801
0.0033898868 -0.0056498051 0.73571241
0.003397516 -0.0067950189 0.73606372
0.0034051926 -0.0079454184 0.73641711
0.003412904 -0.009101063 0.73677218
0.0034206633 -0.010261983 0.73712945
0.0034284582 -0.011428177 0.73748839
0.0034363943 -0.012600064 0.73785383
0.0034443676 -0.013777435 0.73822093
0.0034524444 -0.014960587 0.73859286
0.0034605996 -0.016149431 0.73896825
0.0034687801 -0.017343879 0.73934495
0.0034770262 -0.018544108 0.7397247
0.003485339 -0.019750208 0.74010742
0.0034937738 -0.020962626 0.74049574
0.0035023319 -0.022181422 0.74088985
0.0035109182 -0.023406148 0.7412852
0.0035195604 -0.024636924 0.74168313
0.0035282318 -0.025873691 0.74208242
0.0035369736 -0.027116746 0.74248493
0.0035458717 -0.028366953 0.74289465
0.0035548997 -0.029624134 0.74331027
0.0035639741 -0.030887753 0.74372804
0.0035730945 -0.032157838 0.74414802
0.0035822762 -0.03343457 0.74457085
0.0035915631 -0.034718424 0.74499846
0.0036010144 -0.036010116 0.74543363
0.0036105595 -0.03730911 0.74587315
0.0036201701 -0.038615137 0.74631566
0.0036298174 -0.039927989 0.74675983
0.0036395306 -0.041247994 0.74720711
0.0036494157 -0.042576492 0.74766219
0.0036594598 -0.043913484 0.74812466
0.003669559 -0.045257896 0.74858975
0.0036797295 -0.046609908 0.74905801
0.003689941 -0.047969222 0.74952817
0.0037002559 -0.049336761 0.75000316
0.0037108441 -0.050714821 0.75049067
0.0037214935 -0.052100897 0.75098097
0.003732204 -0.053494871 0.75147414
0.0037429607 -0.054896742 0.7519694
0.0037537955 -0.056306899 0.75246829
0.003764963 -0.057729393 0.7529825
0.0037854901 -0.059305966 0.75392765
0.0040253317 -0.064405292 0.76497102
0.0042931475 0.052591085 0.7278837
0.0042989659 0.051587611 0.72808456
0.0043124463 0.050671279 0.72855014
0.0043146987 0.049619019 0.72862792
0.0043176743 0.048573852 0.72873068
0.0043197908 0.047517747 0.72880375
0.0043108365 0.046341509 0.72849452
0.0042968383 0.045116842 0.72801113
0.0042835171 0.043906063 0.7275511
0.0042715967 0.042715967 0.72713947
0.004260215 0.041537136 0.72674638
0.0042498959 0.04037407 0.72639
0.0042408207 0.039227575 0.72607672
0.004231784 0.038086057 0.72576463
0.0042240755 0.036960691 0.72549838
0.004216963 0.035844207 0.72525275
0.0042102765 0.034734815 0.7250219
0.0042105448 0.033684373 0.72503108
0.0042174864 0.032685578 0.72527087
0.0042249304 0.031686991 0.72552788
0.0042324318 0.030685157 0.72578692
0.0042399592 0.029679716 0.72604692
0.0042475131 0.028670728 0.72630781
0.0042551104 0.027658224 0.72657019
0.0042628711 0.026642948 0.72683817
0.0042706612 0.025624007 0.72710711
0.0042784791 0.024601281 0.72737718
0.004286326 0.023574799 0.72764814
0.0042942637 0.02254495 0.7279222
0.0043023396 0.021511734 0.72820103
0.0043104463 0.020474643 0.72848105
0.0043185833 0.019433647 0.72876203
0.004326751 0.018388718 0.72904414
0.0043350444 0.017340183 0.72933054
0.0043434338 0.016287893 0.72962022
0.0043518711 0.01523158 0.72991157
0.0043603252 0.014171064 0.73020351
0.0043688607 0.013106585 0.73049825
0.0043774615 0.012038052 0.73079526
0.0043861936 0.010965496 0.73109686
0.0043949438 0.0098886192 0.73139906
0.004403729 0.0088074803 0.73170245
0.0044126646 0.007722199 0.73201096
0.0044216365 0.006632477 0.73232079
0.0044307108 0.005538404 0.73263413
0.0044398224 0.0044398308 0.73294884
0.0044489712 0.0033367574 0.7332648
0.0044582756 0.0022291243 0.73358607
0.0044676685 0.0011169016 0.73391044
0.0044771009 2.9802322e-08 0.73423624
0.0044865911 -0.0011216402 0.73456389
0.0044961376 -0.0022480488 0.73489356
0.004505794 -0.0033793449 0.73522705
0.0045155599 -0.0045155287 0.73556423
0.0045253686 -0.0056566894 0.73590297
0.004535289 -0.0068029165 0.73624557
0.0045453049 -0.0079542696 0.73659146
0.0045553651 -0.009110719 0.73693883
0.0045655402 -0.010272443 0.73729026
0.0045757438 -0.011439353 0.73764265
0.0045860987 -0.012611747 0.73800015
0.0045965891 -0.013789743 0.73836243
0.0046071457 -0.014973193 0.73872703
0.0046177511 -0.016162127 0.73909324
0.004628405 -0.017356515 0.73946118
0.0046391631 -0.018556654 0.73983264
0.0046500796 -0.019762844 0.74020976
0.0046611214 -0.020975024 0.74059093
0.0046722521 -0.022193164 0.74097532
0.0046834359 -0.023417175 0.74136162
0.0046946919 -0.024647117 0.7417503
0.0047060396 -0.025883168 0.74214214
0.0047175358 -0.027125806 0.74253911
0.0047292388 -0.028375417 0.74294329
0.0047409809 -0.029631108 0.74334872
0.0047528008 -0.030893177 0.74375701
0.0047646794 -0.032161564 0.74416715
0.0047765602 -0.033435911 0.74457741
0.0047887508 -0.034718424 0.74499846
0.0048011201 -0.036008388 0.74542558
0.0048135342 -0.037304878 0.74585426
0.0048260125 -0.038608074 0.74628526
0.0048385556 -0.039918065 0.74671841
0.0048512234 -0.041235387 0.74715579
0.0048641767 -0.042561531 0.74760312
0.0048772395 -0.043895155 0.74805427
0.0048903921 -0.04523614 0.74850845
0.0049035959 -0.046584129 0.74896443
0.0049168919 -0.047939688 0.7494235
0.0049304026 -0.049303979 0.74989009
0.0049441527 -0.050677538 0.75036496
0.004958 -0.052058995 0.75084317
0.0049719047 -0.053447932 0.75132328
0.0049858871 -0.054844767 0.7518062
0.0050000539 -0.056250602 0.75229543
0.0050145546 -0.057667375 0.75279617
0.0050453721 -0.059283108 0.75386041
0.005355366 -0.064264387 0.76456547
0.0054102889 0.054102927 0.72909516
0.0053941556 0.052862763 0.7286495
0.0054020337 0.051859528 0.72886717
0.0054181544 0.050930649 0.72931254
0.0054207812 0.049871236 0.72938508
0.0054234308 0.048810929 0.72945827
0.0054232725 0.047724813 0.72945392
0.0054082228 0.046510726 0.72903812
0.005389425 0.045271158 0.72851884
0.005371727 0.04404819 0.72802985
0.0053560161 0.04284814 0.72759587
0.0053411829 0.041661233 0.72718608
0.00532773 0.040490776 0.72681439
0.005315389 0.03933391 0.72647345
0.0053036921 0.03818658 0.72615027
0.0052938545 0.037056983 0.7258786
0.0052842223 0.03593275 0.7256124
0.0052761789 0.034822792 0.7253902
0.0052790069 0.033785641 0.7254684
0.0052879616 0.032785386 0.72571576
0.0052969283 0.031781584 0.72596341
0.005306114 0.030775487 0.72621721
0.0053153704 0.029766083 0.72647291
0.0053246394 0.028753102 0.72672898
0.0053339601 0.027736604 0.72698653
0.0053433138 0.02671656 0.72724497
0.0053528734 0.025693804 0.72750902
0.005362506 0.024667531 0.72777522
0.0053721736 0.023637563 0.72804219
0.0053818757 0.022603899 0.72831023
0.0053916718 0.021566689 0.72858089
0.0054016216 0.020526201 0.72885573
0.0054116272 0.019481868 0.72913218
0.0054216706 0.01843369 0.72940964
0.0054317513 0.017381638 0.72968811
0.0054419888 0.01632598 0.72997099
0.0054523451 0.015266597 0.73025709
0.0054627606 0.014203221 0.73054481
0.0054732165 0.013135731 0.73083371
0.0054837121 0.012064159 0.73112369
0.0054944307 0.010988891 0.73141974
0.0055052121 0.0099094212 0.73171759
0.005516056 0.0088257194 0.73201716
0.0055269431 0.007737726 0.73231792
0.0055379141 0.0066455305 0.73262101
0.0055489908 0.0055489838 0.73292708
0.0055601951 0.0044482052 0.73323661
0.005571445 0.0033428967 0.73354739
0.0055828239 0.0022331178 0.7338618
0.0055943131 0.0011188984 0.7341792
0.0056058709 2.9802322e-08 0.7344985
0.0056175394 -0.0011235178 0.73482084
0.0056292363 -0.0022516847 0.7351439
0.0056410455 -0.00338462 0.73547024
0.0056530763 -0.004522413 0.73580253
0.0056651589 -0.0056651235 0.73613638
0.0056772926 -0.0068127215 0.73647159
0.0056895227 -0.0079653263 0.73680949
0.0057017831 -0.0091228485 0.73714823
0.0057142945 -0.010285735 0.73749387
0.0057268608 -0.011453718 0.73784101
0.0057395492 -0.012626976 0.73819149
0.0057523828 -0.013805717 0.73854613
0.0057652732 -0.014989704 0.73890227
0.0057782223 -0.016178995 0.73925996
0.00579132 -0.017373949 0.73962176
0.005804522 -0.018574476 0.73998654
0.0058179442 -0.019780993 0.74035734
0.0058314507 -0.020993203 0.74073046
0.0058450438 -0.022211134 0.74110597
0.0058587003 -0.023434788 0.74148333
0.0058724205 -0.024664134 0.7418623
0.0058863922 -0.025900066 0.7422483
0.0059005232 -0.027142406 0.74263871
0.0059147933 -0.028391004 0.74303293
0.0059291562 -0.029645771 0.74342972
0.0059435652 -0.030906528 0.74382776
0.0059580924 -0.032173693 0.74422908
0.0059728106 -0.033447713 0.74463576
0.0059877946 -0.034729213 0.74504972
0.0060028778 -0.036017269 0.74546641
0.0060180132 -0.037311643 0.7458846
0.0060332497 -0.038612783 0.74630547
0.0060485387 -0.03992036 0.74672794
0.0060641035 -0.041235894 0.74715787
0.0060799471 -0.042559624 0.74759555
0.0060958741 -0.043890238 0.74803555
0.0061118845 -0.045227945 0.74847794
0.0061280043 -0.046572834 0.74892324
0.0061442098 -0.047924817 0.74937093
0.0061608329 -0.049286634 0.74983019
0.0061775977 -0.050656289 0.75029331
0.0061944532 -0.052033365 0.75075895
0.0062114275 -0.053418249 0.75122792
0.0062284693 -0.054810524 0.75169873
0.0062458669 -0.056212753 0.75217938
0.0062635201 -0.05762437 0.75266707
0.0063079461 -0.059294671 0.75389439
0.0066882162 -0.064206868 0.76439995
0.0065145083 0.054287612 0.72960544
0.0065118931 0.053180456 0.72954524
0.0065201973 0.052161574 0.72973639
0.0065386663 0.051219612 0.73016155
0.0065406314 0.050144881 0.73020685
0.0065433178 0.049074888 0.73026872
0.0065391692 0.047953933 0.73017317
0.0065163639 0.046700597 0.72964817
0.00649211 0.045444816 0.72908974
0.0064695603 0.044208705 0.7285707
0.0064493343 0.042995602 0.72810495
0.0064306706 0.041799366 0.72767532
0.0064136814 0.040619999 0.72728419
0.0063979984 0.039454371 0.72692311
0.006383487 0.038300931 0.72658908
0.0063707475 0.037162721 0.72629571
0.0063585336 0.036031693 0.72601449
0.0063507487 0.034929156 0.72583532
0.0063563138 0.03390035 0.72596341
0.0063668601 0.032895476 0.72620618
0.0063774637 0.031887352 0.72645032
0.0063880808 0.030875742 0.72669476
0.0063988473 0.029861301 0.72694266
0.006409788 0.028844029 0.72719455
0.0064207902 0.027823448 0.72744781
0.0064318296 0.026799291 0.72770202
0.006442884 0.025771558 0.72795647
0.0064542331 0.024741232 0.72821778
0.0064656222 0.02370733 0.72847992
0.0064770752 0.022669762 0.72874367
0.0064885691 0.021628588 0.72900826
0.0065000802 0.0205836 0.72927332
0.0065118694 0.019535601 0.7295447
0.0065237493 0.018483996 0.72981817
0.0065356726 0.017428458 0.7300927
0.0065476159 0.016369045 0.73036766
0.0065597231 0.015306056 0.73064637
0.0065720202 0.014239401 0.73092943
0.006584364 0.013168722 0.73121369
0.0065967538 0.012094051 0.7314989
0.006609166 0.011015266 0.73178464
0.0066218711 0.009932816 0.73207712
0.0066346494 0.0088462234 0.73237133
0.0066475016 0.0077554286 0.73266721
0.0066604041 0.0066604316 0.73296428
0.006673357 0.0055611432 0.73326254
0.0066866106 0.004457742 0.7335676
0.0066999425 0.0033499599 0.7338745
0.0067133023 0.002237767 0.73418212
0.0067267912 0.0011211336 0.73449266
0.0067403088 2.9802322e-08 0.73480386
0.0067540347 -0.0011256337 0.73511982
0.0067678681 -0.0022559166 0.73543835
0.0067817578 -0.0033908486 0.73575807
0.006795886 -0.0045305789 0.73608333
0.0068100994 -0.0056750476 0.73641056
0.0068243719 -0.0068243444 0.73673916
0.0068387571 -0.0079785287 0.73707038
0.0068532294 -0.0091376305 0.73740351
0.0068679214 -0.010301888 0.73774177
0.006882783 -0.011471272 0.73808384
0.0068977089 -0.012645811 0.73842758
0.006912753 -0.013825446 0.73877388
0.0069278367 -0.015010297 0.73912108
0.0069430401 -0.016200423 0.7394712
0.0069585 -0.017396241 0.7398271
0.0069740834 -0.018597573 0.7401858
0.0069898739 -0.019804627 0.74054939
0.0070057088 -0.021017104 0.74091387
0.0070216432 -0.022235185 0.74128073
0.0070376773 -0.023458898 0.74164987
0.0070538693 -0.024688542 0.74202269
0.0070703877 -0.025924772 0.74240297
0.0070869834 -0.027166724 0.74278498
0.0071037142 -0.028414845 0.7431702
0.0071205241 -0.029668838 0.74355721
0.0071374136 -0.030928761 0.74394608
0.0071545271 -0.03219533 0.74434
0.0071718954 -0.033468813 0.74473995
0.0071894932 -0.03474918 0.74514508
0.0072071482 -0.036035717 0.74555153
0.0072248909 -0.037328601 0.74596
0.0072427499 -0.038627982 0.74637115
0.007260757 -0.039934158 0.7467857
0.0072792396 -0.041249007 0.74721122
0.0072978167 -0.042570561 0.74763882
0.0073164585 -0.043898731 0.74806803
0.0073352261 -0.045233876 0.74850011
0.0073540597 -0.046575695 0.74893367
0.0073732045 -0.04792583 0.74937445
0.0073927236 -0.049284786 0.74982381
0.007412347 -0.050651014 0.75027561
0.0074320752 -0.052024484 0.75072974
0.0074519077 -0.053405315 0.75118637
0.0074718469 -0.054793537 0.75164539
0.0074923337 -0.056192487 0.7521171
0.0075134072 -0.057602793 0.75260222
0.007587818 -0.059437901 0.75431532
0.0076448037 0.054605693 0.73048449
0.0076488764 0.053542167 0.73056483
0.0076571479 0.052506208 0.73072803
0.007677367 0.051548064 0.73112702
0.0076792641 0.050463766 0.73116446
0.0076807938 0.049376577 0.73119462
0.0076700123 0.048211545 0.73098189
0.0076375678 0.046916515 0.73034167
0.007606647 0.045639932 0.7297315
0.0075787888 0.044390082 0.72918171
0.0075536268 0.043163568 0.7286852
0.0075299931 0.041952819 0.72821891
0.0075089978 0.04076314 0.72780454
0.0074899518 0.039589763 0.72742867
0.0074720741 0.03842783 0.72707587
0.0074560973 0.0372805 0.72676063
0.0074409596 0.036141813 0.72646195
0.0074344757 0.035048276 0.72633398
0.0074433275 0.034026623 0.72650868
0.0074553499 0.033016562 0.7267459
0.0074674906 0.032003552 0.72698545
0.0074796714 0.030987233 0.72722584
0.0074918922 0.029967606 0.727467
0.0075041256 0.028944492 0.7277084
0.0075167255 0.027919292 0.72795701
0.0075293938 0.026890725 0.72820699
0.0075420784 0.025858581 0.72845733
0.0075548058 0.02482295 0.72870845
0.0075676856 0.02378419 0.72896266
0.0075808032 0.02274242 0.72922152
0.007593994 0.021697134 0.72948176
0.0076072305 0.020648211 0.729743
0.0076204855 0.019595534 0.73000449
0.007634067 0.018539846 0.73027253
0.0076477528 0.017480582 0.7305426
0.0076614879 0.016417503 0.73081362
0.0076752729 0.01535058 0.73108566
0.0076890783 0.014279723 0.73135811
0.0077031902 0.013205498 0.73163652
0.0077174399 0.012127399 0.73191774
0.0077317427 0.011045396 0.73220003
0.0077461558 0.0099593997 0.73248446
0.0077606807 0.0088693798 0.73277104
0.0077753766 0.0077753961 0.73306108
0.0077901571 0.0066772997 0.73335272
0.0078050238 0.005575031 0.73364604
0.0078200642 0.0044686496 0.73394287
0.0078352811 0.0033580065 0.73424315
0.0078506162 0.0022430718 0.73454571
0.0078660417 0.0011237264 0.73485017
0.0078815278 -2.9802322e-08 0.7351557
0.0078971339 -0.0011281669 0.73546374
0.0079130437 -0.0022608638 0.73577768
0.0079290476 -0.0033981502 0.7360934
0.0079451157 -0.004540056 0.7364105
0.0079612806 -0.0056866109 0.73672956
0.0079775415 -0.0068378747 0.73705047
0.007994052 -0.0079940557 0.73737627
0.008010664 -0.009155035 0.73770404
0.0080274362 -0.010320991 0.73803508
0.008044404 -0.011491954 0.73836982
0.0080614742 -0.012668014 0.73870671
0.0080786189 -0.01384902 0.73904496
0.0080959294 -0.015035272 0.73938662
0.0081132827 -0.01622653 0.73972905
0.0081310607 -0.01742366 0.74007982
0.0081489477 -0.018626124 0.7404328
0.0081669139 -0.019833922 0.74078739
0.0081849918 -0.021047115 0.74114406
0.0082031172 -0.022265583 0.74150181
0.0082214866 -0.023489952 0.7418642
0.0082400683 -0.024720192 0.74223089
0.0082589304 -0.025956601 0.74260318
0.0082779117 -0.027198821 0.74297768
0.0082969815 -0.028446764 0.74335396
0.0083161052 -0.029700369 0.74373144
0.0083354842 -0.030960351 0.7441138
0.0083550885 -0.032226771 0.74450064
0.0083749872 -0.033499926 0.74489337
0.0083950143 -0.03477931 0.74528849
0.0084151374 -0.036064833 0.74568558
0.0084353574 -0.037356555 0.74608463
0.0084556751 -0.038654476 0.74648553
0.0084764361 -0.039960325 0.74689519
0.0084975073 -0.041273564 0.747311
0.0085186483 -0.042593241 0.74772823
0.00853993 -0.043919593 0.74814814
0.0085612833 -0.045252472 0.74856949
0.0085828146 -0.046592385 0.74899441
0.0086048804 -0.047941446 0.74942982
0.0086270962 -0.049297661 0.74986827
0.0086494638 -0.050661117 0.75030965
0.0086719096 -0.052031457 0.75075257
0.008694509 -0.0534091 0.75119853
0.0087173367 -0.054794669 0.75164902
0.0087407259 -0.056190342 0.75211048
0.0087663066 -0.057607144 0.75261533
0.0090293046 -0.060625345 0.75780511
0.008802278 0.055014253 0.73161292
0.0088099381 0.05396089 0.73174524
0.008840709 0.053044319 0.73227656
0.0088399872 0.051934928 0.73226404
0.0088393297 0.050826162 0.73225272
0.0088391984 0.049720526 0.73225045
0.0088149318 0.04848215 0.73183149
0.0087740691 0.047160655 0.73112589
0.0087353466 0.045860589 0.73045725
0.0087011317 0.044593304 0.7298665
0.0086701838 0.043350905 0.72933221
0.0086411191 0.042125463 0.72883028
0.0086159287 0.040925682 0.72839534
0.0085922489 0.039739162 0.72798651
0.0085705826 0.038567632 0.72761238
0.0085514216 0.037412494 0.72728157
0.0085329898 0.036265254 0.72696328
0.0085294712 0.035184085 0.72690248
0.0085417507 0.034167022 0.72711456
0.0085549895 0.033150584 0.72734308
0.0085682068 0.032130778 0.72757131
0.0085818665 0.031109303 0.72780716
0.0085955709 0.03008455 0.72804385
0.0086093191 0.029056519 0.7282812
0.0086231111 0.02802512 0.72851932
0.0086371358 0.02699104 0.72876155
0.0086513944 0.025954187 0.72900772
0.0086656995 0.024913877 0.72925472
0.0086800531 0.02387014 0.72950256
0.008694455 0.022822976 0.72975123
0.0087091895 0.021772981 0.73000568
0.0087240394 0.020719588 0.73026204
0.0087389406 0.019662619 0.73051929
0.008753892 0.018602043 0.7307775
0.0087690884 0.01753819 0.73103988
0.0087844357 0.01647085 0.73130488
0.0087999338 0.015399903 0.73157245
0.0088154869 0.014325202 0.73184103
0.0088310624 0.013246596 0.73210996
0.0088470541 0.012164712 0.73238611
0.0088631371 0.011078954 0.73266375
0.0088792797 0.009989202 0.73294258
0.0088954475 0.0088954866 0.73322171
0.0089117074 0.0077977479 0.73350239
0.0089282952 0.0066962242 0.73378885
0.008945046 0.0055906773 0.73407805
0.0089618582 0.0044809282 0.73436838
0.0089788372 0.0033670962 0.73466152
0.0089959139 0.0022490025 0.73495638
0.0090131238 0.0011266768 0.73525357
0.0090305367 5.9604645e-08 0.73555422
0.0090480177 -0.0011309683 0.73585606
0.0090657389 -0.002266407 0.73616207
0.0090836687 -0.0034063458 0.73647159
0.0091016693 -0.0045508146 0.73678243
0.0091198105 -0.005699873 0.73709565
0.0091380253 -0.0068534911 0.73741019
0.0091564534 -0.0080119073 0.73772836
0.0091751684 -0.0091751218 0.73805153
0.009193995 -0.010343224 0.73837662
0.0092129717 -0.011516184 0.73870426
0.0092319902 -0.012694001 0.73903263
0.0092511233 -0.013876647 0.73936296
0.0092705889 -0.015064687 0.73969913
0.0092901364 -0.016257733 0.74003667
0.0093099847 -0.017456234 0.74037933
0.0093299923 -0.018659949 0.7407248
0.0093500493 -0.019868851 0.74107111
0.0093702655 -0.021083057 0.74142015
0.0093906438 -0.022302777 0.74177206
0.0094112232 -0.023528039 0.74212736
0.0094321547 -0.024759412 0.7424888
0.0094532156 -0.025996327 0.74285245
0.0094744097 -0.027238905 0.74321842
0.0094956616 -0.028486967 0.74358535
0.0095170075 -0.029740632 0.74395394
0.0095387958 -0.031001031 0.74433011
0.0095608365 -0.032267839 0.74471068
0.0095830951 -0.033540815 0.74509501
0.0096054189 -0.034819663 0.74548054
0.0096278861 -0.03610456 0.74586838
0.0096504586 -0.037395507 0.74625814
0.0096733337 -0.038693309 0.74665314
0.0096966736 -0.03999877 0.74705613
0.0097201662 -0.041310698 0.7474618
0.0097437715 -0.042629004 0.74786937
0.0097674932 -0.043953687 0.74827898
0.0097913295 -0.045284867 0.74869049
0.0098155672 -0.046623945 0.74910903
0.00984025 -0.047971219 0.74953526
0.0098650986 -0.049325466 0.74996424
0.009890032 -0.050686419 0.75039482
0.0099150911 -0.052054226 0.75082749
0.0099403188 -0.053429186 0.75126308
0.0099660931 -0.054813504 0.75170809
0.0099921701 -0.056205958 0.75215834
0.010023321 -0.057634085 0.75269622
0.010566081 -0.062075734 0.76206785
0.0099941501 0.055523098 0.73301864
0.010001508 0.054452658 0.73313159
0.01003394 0.053514332 0.73362935
0.010029202 0.052374721 0.73355663
0.010026873 0.051248491 0.73352087
0.010021241 0.050106198 0.73343444
0.0099805109 0.048793644 0.73280931
0.0099286428 0.047436893 0.73201323
0.0098804832 0.046108931 0.73127413
0.0098390775 0.044822514 0.73063856
0.0098011037 0.043560505 0.73005569
0.0097660935 0.042319745 0.72951841
0.0097357566 0.041106552 0.72905278
0.0097064879 0.039904475 0.7286036
0.0096811047 0.038724422 0.72821397
0.0096576652 0.037557602 0.72785425
0.0096374964 0.036408335 0.72754472
0.0096381912 0.035340071 0.72755533
0.0096525801 0.034320295 0.72777623
0.0096671525 0.033297986 0.72799987
0.0096817706 0.032272577 0.72822422
0.0096964305 0.031244069 0.72844923
0.0097112423 0.03021276 0.72867656
0.0097264173 0.029179275 0.72890943
0.0097416732 0.028142601 0.72914362
0.0097569441 0.027102619 0.72937799
0.0097722616 0.026059389 0.72961307
0.0097879507 0.025013626 0.72985387
