# .PCD v0.7 - Point Cloud Data file format
VERSION 0.7
FIELDS x y z
SIZE 4 4 4
TYPE F F F
COUNT 1 1 1
WIDTH 1332
HEIGHT 1
VIEWPOINT 0 0 0 1 0 0 0
POINTS 1332
DATA ascii
-0.0067579485 0.0078842938 0.73520994
-0.0067579229 0.0067579448 0.73520935
-0.0067579229 0.0056316257 0.73520935
-0.0067579229 0.0045053065 0.73520929
-0.0067579229 0.0033789873 0.73520935
-0.0067579229 0.0022526681 0.73520941
-0.0067579229 0.0011263192 0.73520935
-0.0067579229 2.9802322e-08 0.73520929
-0.0067578973 -0.0011263192 0.73520881
-0.0067578973 -0.0022526085 0.73520875
-0.0067578973 -0.0033789277 0.73520875
-0.0067578973 -0.0045052469 0.73520875
-0.0067578973 -0.0056315362 0.73520875
-0.0067578973 -0.0067578852 0.73520875
-0.0067578973 -0.0078842044 0.73520881
-0.0067578717 -0.009010464 0.73520815
-0.0067578717 -0.010136813 0.73520815
-0.0067578717 -0.011263102 0.73520815
-0.0067578717 -0.012389421 0.73520815
-0.0067578717 -0.013515741 0.73520815
-0.0067578717 -0.01464203 0.73520815
-0.0067578717 -0.015768379 0.73520821
-0.0067578461 -0.016894579 0.73520762
-0.0067578461 -0.018020928 0.73520762
-0.0067578461 -0.019147217 0.73520756
-0.0067578461 -0.020273507 0.73520762
-0.0067578461 -0.021399796 0.73520756
-0.0067578461 -0.022526145 0.73520756
-0.0067578461 -0.023652464 0.73520756
-0.0067578205 -0.024778634 0.73520696
-0.0067578205 -0.025904983 0.73520702
-0.0067578205 -0.027031243 0.73520702
-0.0067578205 -0.028157562 0.73520702
-0.0067578205 -0.029283881 0.73520696
-0.0067578205 -0.030410171 0.73520696
-0.0067578205 -0.03153646 0.73520696
-0.0067577949 -0.03266269 0.73520648
-0.0067578205 -0.033789068 0.73520696
-0.0067578205 -0.034915417 0.73520702
-0.0067578205 -0.036041707 0.73520696
-0.0067578205 -0.037167996 0.73520702
-0.0067577949 -0.038294166 0.73520637
-0.0067577949 -0.039420456 0.73520643
-0.0067577949 -0.040546775 0.73520643
-0.0067577949 -0.041673064 0.73520637
-0.0067581022 -0.042801291 0.73521346
-0.006771618 -0.044015497 0.73552459
-0.0067995372 -0.045330197 0.73616737
-0.0068281847 -0.046659231 0.73682696
-0.0068597365 -0.048018128 0.73755336
-0.0068931528 -0.049400896 0.73832262
-0.0069295582 -0.050816745 0.73916078
-0.0069690174 -0.052267611 0.74006915
-0.0070101125 -0.053744167 0.74101526
-0.0070285574 -0.055057019 0.74143988
-0.0070336829 -0.056269407 0.74155796
-0.007039038 -0.057485491 0.74168122
-0.0070289448 -0.058574557 0.74144888
-0.0070287231 -0.05974412 0.74144375
-0.0059350254 0.060537279 0.74359185
-0.0058825263 0.058825254 0.74214154
-0.0057878033 0.056720465 0.73952466
-0.0056965845 0.054687232 0.73700458
-0.0056375167 0.052992702 0.73537278
-0.0056255306 0.051754892 0.73504162
-0.005624807 0.050623268 0.73502165
-0.005624807 0.049498349 0.73502159
-0.005624807 0.048373371 0.73502165
-0.005624807 0.047248423 0.73502159
-0.0056247856 0.046123236 0.735021
-0.0056247856 0.044998318 0.735021
-0.0056247856 0.04387334 0.735021
-0.0056247856 0.042748392 0.735021
-0.0056247641 0.041623265 0.7350204
-0.0056247641 0.040498346 0.73502046
-0.0056247641 0.039373368 0.73502046
-0.0056247641 0.03824842 0.73502046
-0.0056247641 0.037123501 0.7350204
-0.0056247432 0.035998344 0.73501986
-0.0056247432 0.034873426 0.7350198
-0.0056247432 0.033748507 0.7350198
-0.0056247432 0.0326235 0.7350198
-0.0056247218 0.031498462 0.73501921
-0.0056247218 0.030373514 0.73501927
-0.0056247218 0.029248565 0.73501933
-0.0056247218 0.028123617 0.73501927
-0.0056247218 0.026998699 0.73501921
-0.0056247003 0.025873631 0.73501867
-0.0056247003 0.024748713 0.73501861
-0.0056247003 0.023623735 0.73501867
-0.0056247003 0.022498846 0.73501861
-0.0056246794 0.021373779 0.73501813
-0.0056246794 0.02024889 0.73501807
-0.0056246794 0.019123942 0.73501807
-0.0056246794 0.017998964 0.73501813
-0.0056246794 0.016874045 0.73501807
-0.005624658 0.015749067 0.73501754
-0.005624658 0.014624119 0.73501754
-0.005624658 0.013499171 0.73501754
-0.005624658 0.012374282 0.73501754
-0.0056246365 0.011249304 0.73501688
-0.0056246365 0.010124385 0.73501688
-0.0056246365 0.0089994371 0.73501688
-0.0056246365 0.0078745186 0.73501694
-0.0056246365 0.0067496002 0.73501694
-0.0056246156 0.0056246519 0.73501635
-0.0056246156 0.0044997036 0.73501629
-0.0056246156 0.003374815 0.73501629
-0.0056246156 0.0022498369 0.73501635
-0.0056246156 0.0011249185 0.73501635
-0.0056245942 -2.9802322e-08 0.73501575
-0.0056245942 -0.0011248887 0.73501575
-0.0056245942 -0.0022498369 0.73501575
-0.0056245942 -0.0033747554 0.73501575
-0.0056245727 -0.0044996738 0.73501521
-0.0056245727 -0.0056245625 0.73501515
-0.0056245518 -0.0067494512 0.73501456
-0.0056245518 -0.0078743696 0.73501456
-0.0056245518 -0.0089992881 0.73501456
-0.0056245518 -0.010124147 0.73501456
-0.0056245518 -0.011249065 0.73501456
-0.0056245304 -0.012373924 0.7350139
-0.0056245304 -0.013498843 0.73501396
-0.0056245304 -0.014623731 0.73501396
-0.0056245304 -0.01574865 0.73501396
-0.0056245304 -0.016873568 0.73501396
-0.005624509 -0.017998427 0.73501337
-0.005624509 -0.019123316 0.73501343
-0.005624509 -0.020248234 0.73501343
-0.005624509 -0.021373153 0.73501343
-0.005624509 -0.022498012 0.73501337
-0.005624488 -0.023622811 0.73501277
-0.005624488 -0.024747729 0.73501277
-0.005624488 -0.025872618 0.73501277
-0.005624488 -0.026997507 0.73501277
-0.005624488 -0.028122425 0.73501277
-0.0056244666 -0.029247195 0.73501217
-0.0056244666 -0.030372083 0.73501217
-0.0056244666 -0.031496972 0.73501217
-0.0056244666 -0.03262189 0.73501223
-0.0056244666 -0.033746779 0.73501223
-0.0056244666 -0.034871668 0.73501223
-0.0056244452 -0.035996407 0.73501158
-0.0056244452 -0.037121296 0.73501164
-0.0056244452 -0.038246185 0.73501164
-0.0056244452 -0.039371103 0.73501164
-0.0056244452 -0.040495992 0.73501164
-0.0056244242 -0.041620731 0.73501104
-0.0056246156 -0.04274708 0.73501635
-0.0056347395 -0.043950915 0.73529601
-0.0056575071 -0.045260072 0.73592508
-0.0056808931 -0.046583325 0.73657107
-0.0057070791 -0.047939479 0.73729455
-0.00573448 -0.049316525 0.73805153
-0.0057642227 -0.050725162 0.73887318
-0.0057963314 -0.052166998 0.73976028
-0.0058299419 -0.053635448 0.7406888
-0.0058470434 -0.054962188 0.74116123
-0.0058513233 -0.056172699 0.74127948
-0.0058556776 -0.057385623 0.74139977
-0.0058477107 -0.058477074 0.7411797
-0.0058478718 -0.059648275 0.74118412
-0.0047384878 0.060415715 0.74326277
-0.0046944697 0.058680892 0.74174261
-0.0046207285 0.056603938 0.73919606
-0.0045493376 0.054592073 0.73673075
-0.004504378 0.052926451 0.73517811
-0.0044958149 0.051701844 0.73488241
-0.0044954247 0.050573558 0.73486894
-0.0044954247 0.049449712 0.73486888
-0.004495407 0.048325658 0.73486835
-0.004495407 0.047201812 0.73486835
-0.004495407 0.046077937 0.73486841
-0.004495407 0.044954091 0.73486829
-0.0044953902 0.043830097 0.73486775
-0.0044953902 0.042706221 0.73486775
-0.0044953902 0.041582406 0.73486775
-0.0044953902 0.04045856 0.73486781
-0.0044953735 0.039334536 0.73486716
-0.0044953735 0.03821069 0.73486722
-0.0044953735 0.037086874 0.73486716
-0.0044953735 0.035962969 0.73486722
-0.0044953567 0.034839034 0.73486656
-0.0044953567 0.033715189 0.73486662
-0.0044953567 0.032591313 0.73486662
-0.0044953567 0.031467497 0.73486656
-0.004495339 0.030343592 0.73486602
-0.004495339 0.029219687 0.73486602
-0.004495339 0.028095871 0.73486596
-0.004495339 0.026972055 0.73486596
-0.0044953222 0.02584812 0.73486543
-0.0044953222 0.024724305 0.73486543
-0.0044953222 0.023600429 0.73486537
-0.0044953222 0.022476614 0.73486543
-0.0044953055 0.021352738 0.73486483
-0.0044953055 0.020228863 0.73486483
-0.0044953055 0.019105077 0.73486483
-0.0044953055 0.017981231 0.73486483
-0.0044952887 0.016857326 0.73486423
-0.0044952887 0.01573351 0.73486423
-0.0044952887 0.014609694 0.73486423
-0.0044952887 0.013485879 0.73486423
-0.004495271 0.012362033 0.73486364
-0.004495271 0.011238188 0.73486364
-0.004495271 0.010114372 0.7348637
-0.004495271 0.008990556 0.73486364
-0.0044952543 0.0078667104 0.73486304
-0.0044952543 0.0067428946 0.73486304
-0.0044952543 0.0056190789 0.73486304
-0.0044952543 0.0044952929 0.73486304
-0.0044952375 0.0033714473 0.73486245
-0.0044952375 0.0022476315 0.73486245
-0.0044952375 0.0011238158 0.73486251
-0.0044952375 2.9802322e-08 0.73486251
-0.0044952207 -0.001123786 0.73486185
-0.0044952207 -0.0022475719 0.73486185
-0.0044952207 -0.0033713877 0.73486191
-0.0044952207 -0.0044952035 0.73486185
-0.0044952035 -0.0056190193 0.73486131
-0.0044952035 -0.0067427754 0.73486131
-0.0044952035 -0.0078665912 0.73486131
-0.0044952035 -0.008990407 0.73486131
-0.0044951863 -0.010114163 0.73486072
-0.0044951863 -0.011237919 0.73486072
-0.0044951863 -0.012361765 0.73486072
-0.0044951863 -0.013485551 0.73486072
-0.0044951695 -0.014609277 0.73486012
-0.0044951695 -0.015733093 0.73486012
-0.0044951695 -0.016856879 0.73486018
-0.0044951695 -0.017980665 0.73486018
-0.0044951527 -0.019104391 0.73485959
-0.0044951527 -0.020228177 0.73485953
-0.0044951527 -0.021351933 0.73485953
-0.0044951527 -0.022475779 0.73485959
-0.0044951355 -0.023599446 0.73485893
-0.0044951355 -0.024723202 0.73485893
-0.0044951355 -0.025847048 0.73485899
-0.0044951355 -0.026970804 0.73485893
-0.0044951183 -0.0280945 0.73485839
-0.0044951183 -0.029218286 0.73485839
-0.0044951183 -0.030342042 0.73485839
-0.0044951183 -0.031465828 0.73485839
-0.0044951015 -0.032589436 0.73485774
-0.0044951015 -0.033713251 0.73485774
-0.0044951015 -0.034837008 0.7348578
-0.0044951015 -0.035960793 0.73485774
-0.0044950848 -0.03708443 0.7348572
-0.0044950848 -0.038208187 0.7348572
-0.0044950848 -0.039331973 0.7348572
-0.0044950848 -0.040455759 0.7348572
-0.0044950675 -0.041579336 0.73485661
-0.0044951527 -0.042703927 0.73485959
-0.0045026899 -0.043901175 0.73511982
-0.0045206221 -0.045206219 0.73573911
-0.0045392173 -0.046526998 0.73638129
-0.0045598531 -0.047878444 0.73709387
-0.0045813476 -0.04924944 0.73783612
-0.0046048099 -0.050652862 0.73864633
-0.0046299184 -0.052086562 0.7395134
-0.0046565598 -0.053550422 0.74043345
-0.0046715727 -0.05489096 0.7409519
-0.0046747671 -0.056097209 0.74106222
-0.0046782419 -0.057308465 0.74118221
-0.0046725087 -0.058406353 0.7409842
-0.0046719401 -0.059567213 0.74096459
-0.0035494831 0.060341239 0.74306095
-0.0035146803 0.058578014 0.74145842
-0.0034599688 0.056512862 0.73893929
-0.0034073906 0.054518282 0.73651826
-0.0033755735 0.052884012 0.73505342
-0.0033692764 0.051662266 0.73476344
-0.0033690345 0.05053553 0.7347523
-0.0033690345 0.049412519 0.7347523
-0.0033690345 0.048289537 0.7347523
-0.0033690219 0.047166318 0.7347517
-0.0033690345 0.046043485 0.7347523
-0.0033690219 0.044920325 0.7347517
-0.0033690219 0.043797284 0.7347517
-0.0033690219 0.042674303 0.7347517
-0.0033690094 0.041551143 0.73475111
-0.0033690094 0.040428132 0.73475105
-0.0033690094 0.039305121 0.73475111
-0.0033690094 0.03818211 0.73475111
-0.0033689965 0.037059009 0.73475051
-0.0033689965 0.035935998 0.73475051
-0.0033689965 0.034812957 0.73475051
-0.0033689837 0.033689857 0.73474991
-0.0033689837 0.032566845 0.73474997
-0.0033689837 0.031443864 0.73474997
-0.0033689837 0.030320883 0.73474991
-0.0033689709 0.029197752 0.73474938
-0.0033689709 0.028074771 0.73474938
-0.0033689709 0.02695179 0.73474932
-0.0033689584 0.025828719 0.73474872
-0.0033689584 0.024705708 0.73474878
-0.0033689584 0.023582727 0.73474884
-0.0033689584 0.022459716 0.73474872
-0.0033689456 0.021336675 0.73474813
-0.0033689456 0.020213723 0.73474818
-0.0033689456 0.019090712 0.73474818
-0.003368933 0.017967671 0.73474753
-0.003368933 0.01684466 0.73474759
-0.003368933 0.015721738 0.73474759
-0.003368933 0.014598727 0.73474759
-0.0033689202 0.013475686 0.73474699
-0.0033689202 0.012352705 0.73474705
-0.0033689202 0.011229753 0.73474699
-0.0033689202 0.010106742 0.73474699
-0.0033689074 0.0089837909 0.7347464
-0.0033689074 0.0078607798 0.73474646
-0.0033689074 0.0067378283 0.73474646
-0.0033688948 0.0056148469 0.73474586
-0.0033688948 0.0044918656 0.7347458
-0.0033688948 0.0033689141 0.73474586
-0.0033688948 0.0022459328 0.73474586
-0.003368882 0.0011230111 0.73474526
-0.003368882 2.9802322e-08 0.73474526
-0.003368882 -0.0011229515 0.73474526
-0.0033688692 -0.0022458732 0.73474461
-0.0033688692 -0.0033688545 0.73474467
-0.0033688692 -0.004491806 0.73474467
-0.0033688692 -0.0056147277 0.73474467
-0.0033688566 -0.006737709 0.73474407
-0.0033688566 -0.0078606606 0.73474407
-0.0033688566 -0.0089836121 0.73474407
-0.0033688438 -0.010106504 0.73474348
-0.0033688438 -0.011229455 0.73474354
-0.0033688438 -0.012352407 0.73474348
-0.0033688438 -0.013475329 0.73474348
-0.0033688312 -0.01459825 0.73474288
-0.0033688312 -0.015721172 0.73474294
-0.0033688312 -0.016844124 0.73474288
-0.0033688184 -0.017967016 0.73474234
-0.0033688184 -0.019089967 0.73474228
-0.0033688184 -0.020212919 0.73474234
-0.0033688184 -0.02133581 0.73474234
-0.0033688056 -0.022458702 0.73474175
-0.0033688056 -0.023581594 0.73474175
-0.0033688056 -0.024704546 0.73474169
-0.0033687928 -0.025827378 0.73474115
-0.0033687928 -0.02695033 0.73474115
-0.0033687928 -0.028073281 0.73474115
-0.0033687928 -0.029196203 0.73474115
-0.0033687802 -0.030319005 0.73474056
-0.0033687802 -0.031441927 0.73474056
-0.0033687802 -0.032564819 0.73474056
-0.0033687677 -0.033687651 0.73474002
-0.0033687677 -0.034810573 0.73474002
-0.0033687677 -0.035933524 0.73474002
-0.0033687677 -0.037056446 0.73473996
-0.0033687549 -0.038179219 0.73473936
-0.0033687549 -0.039302111 0.73473936
-0.0033687549 -0.040425032 0.73473942
-0.0033687421 -0.041547775 0.73473883
-0.0033687677 -0.042671025 0.73474002
-0.0033741693 -0.043864161 0.73498869
-0.0033874928 -0.045166582 0.7356022
-0.0034012722 -0.046484053 0.73623663
-0.0034166155 -0.047832578 0.73694313
-0.0034324941 -0.049199075 0.73767418
-0.0034499215 -0.05059883 0.73847663
-0.0034684835 -0.052027225 0.73933136
-0.0034882277 -0.053486139 0.7402404
-0.0035001473 -0.054835647 0.74078929
-0.003502703 -0.056043237 0.74090695
-0.0035053317 -0.057253748 0.74102801
-0.0035011498 -0.05835247 0.74083543
-0.0035010264 -0.059517413 0.74082971
-0.0023639428 0.060280532 0.7428965
-0.0023404185 0.058510453 0.74127185
-0.0023043046 0.056455493 0.73877758
-0.002269323 0.054463804 0.7363615
-0.0022489955 0.052851439 0.73495758
-0.0022450483 0.051636159 0.73468494
-0.0022449465 0.050511301 0.73467791
-0.0022449382 0.049388677 0.73467731
-0.0022449382 0.048266172 0.73467731
-0.0022449382 0.047143728 0.73467731
-0.0022449296 0.046021074 0.73467672
-0.0022449296 0.044898629 0.73467672
-0.0022449209 0.043775976 0.73467618
-0.0022449209 0.042653561 0.73467612
-0.0022449209 0.041531056 0.73467618
-0.0022449126 0.040408462 0.73467553
-0.0022449126 0.039285988 0.73467565
-0.0022449126 0.038163543 0.73467559
-0.0022449042 0.037040949 0.73467493
-0.0022449042 0.035918474 0.73467505
-0.0022449042 0.034796029 0.73467499
-0.0022448958 0.033673465 0.73467445
-0.0022448958 0.032550991 0.73467445
-0.0022448872 0.031428427 0.7346738
-0.0022448872 0.030306011 0.73467386
-0.0022448872 0.029183567 0.7346738
-0.0022448786 0.028061002 0.73467326
-0.0022448786 0.026938587 0.7346732
-0.0022448786 0.025816113 0.73467326
-0.0022448702 0.024693608 0.73467267
-0.0022448702 0.023571193 0.73467267
-0.0022448618 0.022448629 0.73467207
-0.0022448618 0.021326214 0.73467207
-0.0022448618 0.020203739 0.73467207
-0.0022448534 0.019081265 0.73467153
-0.0022448534 0.01795885 0.73467147
-0.0022448534 0.016836435 0.73467147
-0.0022448448 0.01571393 0.73467088
-0.0022448448 0.014591515 0.73467088
-0.0022448448 0.01346907 0.73467088
-0.0022448364 0.012346596 0.73467028
-0.0022448364 0.01122421 0.73467028
-0.002244828 0.010101765 0.73466974
-0.002244828 0.0089793205 0.73466969
-0.002244828 0.0078569353 0.73466969
-0.0022448194 0.0067344904 0.73466915
-0.0022448194 0.0056120753 0.73466909
-0.0022448194 0.0044896901 0.73466915
-0.0022448108 0.0033672452 0.73466861
-0.0022448108 0.0022448301 0.73466855
-0.0022448108 0.0011224151 0.73466855
-0.0022448024 2.9802322e-08 0.73466796
-0.0022448024 -0.0011223853 0.73466802
-0.002244794 -0.0022448003 0.73466736
-0.002244794 -0.0033671856 0.73466742
-0.002244794 -0.0044896007 0.73466742
-0.0022447857 -0.0056119561 0.73466682
-0.0022447857 -0.0067343414 0.73466682
-0.0022447857 -0.0078567266 0.73466676
-0.002244777 -0.0089791119 0.73466623
-0.002244777 -0.010101467 0.73466623
-0.0022447684 -0.011223823 0.73466563
-0.0022447684 -0.012346208 0.73466557
-0.0022447684 -0.013468593 0.73466563
-0.00224476 -0.014590919 0.73466504
-0.00224476 -0.015713334 0.73466504
-0.00224476 -0.01683566 0.73466504
-0.0022447517 -0.017958015 0.73466444
-0.0022447517 -0.0190804 0.73466444
-0.0022447517 -0.020202756 0.73466444
-0.0022447431 -0.021325052 0.7346639
-0.0022447431 -0.022447407 0.7346639
-0.0022447347 -0.023569703 0.73466337
-0.0022447347 -0.024692059 0.73466325
-0.0022447347 -0.025814414 0.73466331
-0.0022447263 -0.02693668 0.73466271
-0.0022447263 -0.028059065 0.73466271
-0.0022447263 -0.029181391 0.73466271
-0.0022447179 -0.030303687 0.73466212
-0.0022447179 -0.031426013 0.73466212
-0.0022447179 -0.032548398 0.73466212
-0.0022447093 -0.033670604 0.73466152
-0.0022447093 -0.034792989 0.73466152
-0.0022447093 -0.035915315 0.73466152
-0.0022447007 -0.037037551 0.73466098
-0.0022447007 -0.038159877 0.73466092
-0.0022446923 -0.039282084 0.73466039
-0.0022446923 -0.040404469 0.73466039
-0.0022446923 -0.041526765 0.73466039
-0.0022446839 -0.042648971 0.73465973
-0.0022482644 -0.043841124 0.73490703
-0.0022569573 -0.045139104 0.73550749
-0.0022660375 -0.046453744 0.73613459
-0.0022762096 -0.047800392 0.73683715
-0.0022867196 -0.049164444 0.73756301
-0.0022982592 -0.050561666 0.73836005
-0.0023105617 -0.051987648 0.73920971
-0.0023236773 -0.053444564 0.74011558
-0.0023317027 -0.054794967 0.74066985
-0.0023335046 -0.056004107 0.7407943
-0.0023350986 -0.057209909 0.74090445
-0.0023323426 -0.058308542 0.74071401
-0.0023323609 -0.059475183 0.74071538
-0.0011815629 0.0602597 0.74284011
-0.0011695282 0.058476418 0.74117768
-0.0011516215 0.056429476 0.7387042
-0.0011342546 0.054444253 0.7363053
-0.0011242257 0.052838653 0.73492002
-0.0011222445 0.051623255 0.73464632
-0.0011222021 0.050499141 0.73464048
-0.0011222021 0.049376905 0.73464048
-0.0011222021 0.048254699 0.73464048
-0.001122198 0.047132343 0.73463988
-0.001122198 0.046010137 0.73463988
-0.0011221938 0.044887781 0.73463929
-0.0011221938 0.043765545 0.73463935
-0.0011221938 0.042643368 0.73463935
-0.0011221895 0.041521013 0.73463869
-0.0011221895 0.040398866 0.73463869
-0.0011221853 0.03927651 0.73463815
-0.0011221853 0.038154334 0.73463815
-0.0011221853 0.037032127 0.73463809
-0.0011221811 0.035909802 0.73463756
-0.0011221811 0.034787655 0.73463756
-0.0011221768 0.033665329 0.73463702
-0.0011221768 0.032543123 0.73463696
-0.0011221768 0.031420946 0.73463696
-0.0011221725 0.03029868 0.73463637
-0.0011221725 0.029176503 0.73463643
-0.0011221683 0.028054237 0.73463577
-0.0011221683 0.026932061 0.73463583
-0.0011221683 0.025809914 0.73463577
-0.0011221641 0.024687618 0.73463523
-0.0011221641 0.023565471 0.73463523
-0.0011221599 0.022443205 0.73463464
-0.0011221599 0.021321058 0.73463464
-0.0011221599 0.020198911 0.73463458
-0.0011221556 0.019076675 0.73463404
-0.0011221556 0.017954499 0.73463404
-0.0011221514 0.016832262 0.73463345
-0.0011221514 0.015710115 0.73463345
-0.0011221514 0.014588028 0.73463345
-0.0011221471 0.013465792 0.73463285
-0.0011221471 0.012343615 0.73463285
-0.0011221429 0.011221409 0.73463225
-0.0011221429 0.010099292 0.73463225
-0.0011221429 0.0089771748 0.73463231
-0.0011221386 0.0078549683 0.73463172
-0.0011221386 0.0067328513 0.73463172
-0.0011221344 0.0056107342 0.73463112
-0.0011221344 0.0044885576 0.73463112
-0.0011221344 0.0033664107 0.73463112
-0.0011221302 0.0022442937 0.73463053
-0.0011221302 0.0011221766 0.73463047
-0.001122126 2.9802322e-08 0.73462999
-0.001122126 -0.001122117 0.73462993
-0.001122126 -0.0022442043 0.73462993
-0.0011221218 -0.0033663511 0.73462939
-0.0011221218 -0.0044884682 0.73462939
-0.0011221175 -0.0056105554 0.7346288
-0.0011221175 -0.0067327023 0.7346288
-0.0011221175 -0.0078548193 0.7346288
-0.0011221132 -0.0089769065 0.7346282
-0.0011221132 -0.010099024 0.73462814
-0.001122109 -0.011221081 0.73462766
-0.001122109 -0.012343168 0.7346276
-0.001122109 -0.013465285 0.7346276
-0.0011221048 -0.014587343 0.73462701
-0.0011221048 -0.01570946 0.73462701
-0.0011221048 -0.016831547 0.73462701
-0.0011221005 -0.017953604 0.73462641
-0.0011221005 -0.019075662 0.73462641
-0.0011221005 -0.020197779 0.73462641
-0.0011220963 -0.021319807 0.73462582
-0.0011220963 -0.022441924 0.73462582
-0.0011220963 -0.023564011 0.73462582
-0.0011220921 -0.024686009 0.73462522
-0.0011220921 -0.025808126 0.73462522
-0.0011220921 -0.026930213 0.73462528
-0.0011220879 -0.028052211 0.73462468
-0.0011220879 -0.029174298 0.73462468
-0.0011220879 -0.030296326 0.73462474
-0.0011220835 -0.031418324 0.73462415
-0.0011220835 -0.032540441 0.73462415
-0.0011220835 -0.033662498 0.73462415
-0.0011220793 -0.034784466 0.73462355
-0.0011220793 -0.035906523 0.73462349
-0.0011220793 -0.037028611 0.73462355
-0.0011220751 -0.038150519 0.7346229
-0.0011220751 -0.039272636 0.7346229
-0.0011220751 -0.040394694 0.73462296
-0.0011220709 -0.041516602 0.7346223
-0.0011220709 -0.042638689 0.73462236
-0.0011237499 -0.043826222 0.73485428
-0.0011281278 -0.045125067 0.73545897
-0.0011326519 -0.046438694 0.73608392
-0.0011377304 -0.047784626 0.73678541
-0.0011429731 -0.049147815 0.73750961
-0.0011487433 -0.050544709 0.7383067
-0.0011548592 -0.051968634 0.73915142
-0.0011613985 -0.053424358 0.74005479
-0.0011656274 -0.054784477 0.74063897
-0.0011664366 -0.055988938 0.74075073
-0.0011673203 -0.057198673 0.74087274
-0.0011659473 -0.058297336 0.74068314
-0.0011658284 -0.059457213 0.74066669
0 0.060252517 0.74282068
0 0.058474362 0.74117208
0 0.056428373 0.73870116
0 0.054444045 0.7363047
0 0.052838653 0.73492002
0 0.051623076 0.73464572
0 0.050498754 0.73463929
0 0.049376518 0.73463929
0 0.048254341 0.73463929
0 0.047131956 0.73463875
0 0.046009809 0.73463869
0 0.044887453 0.73463815
0 0.043765247 0.73463815
0 0.04264307 0.73463815
0 0.041520745 0.7346375
0 0.040398508 0.73463756
0 0.039276183 0.73463696
0 0.038154006 0.73463696
0 0.037031859 0.73463696
0 0.035909534 0.73463643
0 0.034787387 0.73463637
0 0.03366521 0.73463637
0 0.032542914 0.73463583
0 0.031420738 0.73463577
0 0.030298442 0.73463523
0 0.029176295 0.73463517
0 0.028054118 0.73463523
0 0.026931882 0.73463464
0 0.025809735 0.73463464
0 0.024687529 0.73463464
0 0.023565292 0.73463404
0 0.022443116 0.73463404
0 0.021320909 0.73463345
0 0.020198733 0.73463351
0 0.019076616 0.73463345
0 0.017954409 0.73463285
0 0.016832232 0.73463285
0 0.015710056 0.73463285
0 0.014587879 0.73463231
0 0.013465762 0.73463231
0 0.012343585 0.73463225
0 0.011221409 0.73463225
0 0.010099292 0.73463166
0 0.0089771152 0.73463172
0 0.0078549683 0.73463172
0 0.0067328215 0.73463112
0 0.0056107342 0.73463112
0 0.0044885576 0.73463112
0 0.0033664107 0.73463053
0 0.0022442937 0.73463053
0 0.0011221766 0.73463047
0 2.9802322e-08 0.73462999
0 -0.001122117 0.73462993
0 -0.0022442043 0.73462993
0 -0.0033663511 0.73462939
0 -0.0044884682 0.73462939
0 -0.0056105852 0.73462933
0 -0.0067327023 0.7346288
0 -0.0078548193 0.7346288
0 -0.0089769065 0.73462874
0 -0.010099024 0.73462814
0 -0.011221081 0.73462814
0 -0.012343228 0.7346282
0 -0.013465285 0.7346276
0 -0.014587402 0.7346276
0 -0.01570949 0.7346276
0 -0.016831547 0.73462701
0 -0.017953664 0.73462701
0 -0.019075751 0.73462701
0 -0.020197779 0.73462641
0 -0.021319926 0.73462647
0 -0.022441983 0.73462647
0 -0.023564011 0.73462582
0 -0.024686098 0.73462582
0 -0.025808215 0.73462594
0 -0.026930213 0.73462528
0 -0.02805227 0.73462534
0 -0.029174387 0.73462534
0 -0.030296326 0.73462474
0 -0.031418443 0.73462474
0 -0.03254053 0.73462468
0 -0.033662498 0.73462415
0 -0.034784555 0.73462415
0 -0.035906672 0.73462415
0 -0.037028611 0.73462355
0 -0.038150698 0.73462355
0 -0.039272785 0.73462355
0 -0.040394694 0.73462296
0 -0.041516751 0.73462296
0 -0.042638808 0.73462296
0 -0.043827862 0.73486012
0 -0.045125932 0.73546195
0 -0.04644087 0.73609108
0 -0.047786862 0.73679268
0 -0.04914993 0.73751634
0 -0.050546259 0.73831159
0 -0.051970243 0.73915642
0 -0.05342558 0.74005854
0 -0.054778695 0.74062186
0 -0.055985838 0.74074185
0 -0.057189256 0.74084622
0 -0.058288187 0.74065787
0 -0.059457928 0.74066865
0.0011820935 0.06028679 0.74291342
0.0011701679 0.058508396 0.74126613
0.0011521167 0.056453705 0.73877269
0.0011346181 0.054461658 0.73635554
0.0011244637 0.052849799 0.73495281
0.001122503 0.051635146 0.73468196
0.0011224479 0.050510168 0.73467439
0.0011224436 0.049387544 0.7346738
0.0011224436 0.0482651 0.73467386
0.0011224436 0.047142625 0.73467386
0.0011224393 0.046020031 0.7346732
0.0011224393 0.044897586 0.73467326
0.0011224351 0.043774962 0.73467267
0.0011224351 0.042652547 0.73467267
0.0011224351 0.041530102 0.73467267
0.0011224309 0.040407538 0.73467207
0.0011224351 0.039285243 0.73467267
0.0011224351 0.038162798 0.73467267
0.0011224309 0.037040234 0.73467207
0.0011224309 0.035917789 0.73467207
0.0011224309 0.034795403 0.73467207
0.0011224267 0.033672839 0.73467147
0.0011224267 0.032550395 0.73467147
0.0011224267 0.031427979 0.73467147
0.0011224224 0.030305445 0.73467088
0.0011224224 0.029183 0.73467088
0.0011224224 0.028060615 0.73467088
0.0011224224 0.02693814 0.73467094
0.0011224182 0.025815636 0.73467028
0.0011224182 0.024693251 0.73467034
0.0011224182 0.023570806 0.73467028
0.001122414 0.022448272 0.73466974
0.001122414 0.021325856 0.73466974
0.001122414 0.020203471 0.73466974
0.0011224097 0.019080967 0.73466909
0.0011224097 0.017958552 0.73466915
0.0011224097 0.016836166 0.73466915
0.0011224054 0.015713692 0.73466855
0.0011224054 0.014591277 0.73466855
0.0011224054 0.013468891 0.73466855
0.0011224012 0.012346447 0.73466796
0.0011224012 0.011224031 0.73466802
0.0011224012 0.010101616 0.73466796
0.0011224012 0.0089792013 0.73466802
0.001122397 0.0078567863 0.73466736
0.001122397 0.006734401 0.73466742
0.001122397 0.0056119859 0.73466742
0.0011223928 0.0044895709 0.73466682
0.0011223928 0.0033672154 0.73466676
0.0011223928 0.0022448003 0.73466682
0.0011223885 0.0011223853 0.73466623
0.0011223885 2.9802322e-08 0.73466623
0.0011223885 -0.0011223555 0.73466617
0.0011223842 -0.0022447109 0.73466563
0.0011223842 -0.003367126 0.73466563
0.0011223842 -0.0044895113 0.73466563
0.0011223842 -0.0056118965 0.73466569
0.00112238 -0.006734252 0.73466504
0.00112238 -0.0078566074 0.73466504
0.00112238 -0.0089790225 0.73466498
0.0011223758 -0.010101378 0.7346645
0.0011223758 -0.011223733 0.7346645
0.0011223758 -0.012346119 0.73466444
0.0011223715 -0.013468444 0.7346639
0.0011223715 -0.0145908 0.73466384
0.0011223715 -0.015713185 0.7346639
0.0011223673 -0.016835511 0.73466331
0.0011223673 -0.017957866 0.73466331
0.0011223673 -0.019080222 0.73466331
0.0011223631 -0.020202518 0.73466271
0.0011223631 -0.021324873 0.73466271
0.0011223631 -0.022447258 0.73466265
0.0011223631 -0.023569614 0.73466265
0.001122359 -0.02469188 0.73466212
0.001122359 -0.025814205 0.73466206
0.001122359 -0.026936591 0.73466212
0.0011223546 -0.028058857 0.73466152
0.0011223546 -0.029181182 0.73466152
0.0011223546 -0.030303568 0.73466152
0.0011223503 -0.031425774 0.73466098
0.0011223503 -0.032548159 0.73466092
0.0011223503 -0.033670485 0.73466098
0.0011223461 -0.034792721 0.73466039
0.0011223461 -0.035915077 0.73466039
0.0011223461 -0.037037402 0.73466039
0.001122342 -0.038159609 0.73465979
0.001122342 -0.039281934 0.73465973
0.001122342 -0.04040429 0.73465979
0.001122342 -0.041526616 0.73465979
0.0011223378 -0.042648822 0.73465919
0.0011240812 -0.043839157 0.7349
0.0011284787 -0.045139104 0.73550749
0.0011330533 -0.046455175 0.7361393
0.0011381441 -0.047802031 0.73684257
0.0011434081 -0.04916653 0.73756969
0.0011491872 -0.050564259 0.73836803
0.0011553392 -0.051990241 0.73921782
0.0011618977 -0.053447276 0.74012375
0.0011660341 -0.05480361 0.74069518
0.001166853 -0.056008965 0.74080831
0.0011677145 -0.057217985 0.74092722
0.0011662948 -0.058314681 0.74073112
0.0011661485 -0.059473544 0.74071085
0.0023660585 0.060334474 0.74304271
0.0023430923 0.058577329 0.74145651
0.0023065833 0.056511313 0.73893499
0.0022714809 0.054515541 0.73651052
0.0022503058 0.052882165 0.73504806
0.0022462776 0.051664412 0.73476988
0.0022461333 0.050538003 0.73475993
0.0022461249 0.049414754 0.73475933
0.0022461249 0.048291743 0.73475927
0.0022461165 0.047168434 0.73475873
0.0022461165 0.046045423 0.73475873
0.0022461079 0.044922173 0.73475814
0.0022461079 0.043799073 0.73475814
0.0022460995 0.042675912 0.73475748
0.0022460995 0.041552842 0.73475754
0.0022460909 0.040429652 0.73475701
0.0022460825 0.039306462 0.73475635
0.0022460825 0.038183421 0.73475641
0.0022460739 0.037060261 0.73475581
0.0022460739 0.03593722 0.73475581
0.0022460655 0.03481403 0.73475522
0.0022460655 0.033690989 0.73475522
0.0022460571 0.032567829 0.73475462
0.0022460571 0.031444818 0.73475462
0.0022460485 0.030321687 0.73475403
0.0022460485 0.029198647 0.73475403
0.0022460399 0.028075546 0.73475349
0.0022460399 0.026952505 0.73475349
0.0022460315 0.025829405 0.73475283
0.0022460232 0.024706244 0.7347523
0.0022460232 0.023583293 0.7347523
0.0022460148 0.022460163 0.7347517
0.0022460148 0.021337152 0.7347517
0.0022460059 0.020214051 0.73475111
0.0022460059 0.01909104 0.73475111
0.0022459975 0.017968029 0.73475051
0.0022459975 0.016845018 0.73475051
0.0022459892 0.015721947 0.73474991
0.0022459892 0.014598936 0.73474991
0.0022459808 0.013475925 0.73474938
0.0022459808 0.012352884 0.73474938
0.0022459724 0.011229903 0.73474872
0.0022459724 0.010106862 0.73474878
0.0022459636 0.0089839101 0.73474813
0.0022459552 0.0078608394 0.73474765
0.0022459552 0.0067379177 0.73474753
0.0022459468 0.0056149065 0.73474699
0.0022459468 0.0044919252 0.73474699
0.0022459384 0.0033689141 0.7347464
0.0022459384 0.0022459924 0.73474646
0.0022459298 0.0011229813 0.7347458
0.0022459298 -0 0.73474586
0.0022459214 -0.0011229515 0.73474526
0.0022459214 -0.0022459328 0.73474526
0.0022459128 -0.0033688545 0.73474467
0.0022459128 -0.004491806 0.73474467
0.0022459044 -0.0056147277 0.73474407
0.0022458958 -0.0067376792 0.73474354
0.0022458958 -0.0078606009 0.73474348
0.0022458874 -0.0089835525 0.73474288
0.0022458874 -0.010106474 0.73474288
0.002245879 -0.011229366 0.73474228
0.002245879 -0.012352318 0.73474228
0.0022458704 -0.013475209 0.73474175
0.0022458704 -0.014598131 0.73474175
0.0022458618 -0.015720993 0.73474115
0.0022458618 -0.016843945 0.73474121
0.0022458534 -0.017966807 0.73474056
0.0022458534 -0.019089729 0.73474056
0.002245845 -0.020212561 0.73474002
0.002245845 -0.021335512 0.73473996
0.0022458367 -0.022458345 0.73473936
0.002245828 -0.023581177 0.73473883
0.002245828 -0.024704099 0.73473877
0.0022458194 -0.025826901 0.73473823
0.0022458194 -0.026949793 0.73473817
0.002245811 -0.028072625 0.73473763
0.002245811 -0.029195547 0.73473763
0.0022458027 -0.03031832 0.73473704
0.0022458027 -0.031441242 0.73473704
0.0022457943 -0.032563984 0.73473644
0.0022457943 -0.033686846 0.73473644
0.0022457857 -0.034809679 0.73473585
0.0022457857 -0.035932571 0.73473585
0.0022457771 -0.037055314 0.73473531
0.0022457687 -0.038178056 0.73473471
0.0022457687 -0.039300919 0.73473471
0.0022457687 -0.04042381 0.73473465
0.0022457687 -0.041546732 0.73473471
0.0022457771 -0.042669713 0.73473531
0.002249344 -0.043862164 0.73498166
0.0022582517 -0.045164973 0.73559684
0.0022674196 -0.046482086 0.73623008
0.0022776825 -0.047831327 0.73693889
0.002288312 -0.049198657 0.73767298
0.0022999654 -0.050599217 0.73847783
0.0023124123 -0.052029282 0.7393375
0.0023256489 -0.053489923 0.74025172
0.0023334224 -0.054835439 0.74078858
0.0023351172 -0.05604279 0.74090564
0.0023367866 -0.057251245 0.74102104
0.0023338799 -0.058346987 0.74082023
0.0023339167 -0.05951485 0.74082273
0.003554404 0.060424894 0.74328744
0.0035209635 0.05868274 0.74174774
0.0034653177 0.056600213 0.73918557
0.0034118076 0.054588914 0.73672175
0.0033781554 0.052924454 0.73517221
0.0033718487 0.051701725 0.73488182
0.00337153 0.050572991 0.73486716
0.00337153 0.049449146 0.73486716
0.0033715172 0.048325092 0.73486662
0.0033715172 0.047201246 0.73486662
0.0033715046 0.046077251 0.73486596
0.0033715046 0.044953406 0.73486596
0.0033714918 0.043829381 0.73486543
0.0033714918 0.042705566 0.73486543
0.0033714918 0.04158172 0.73486543
0.003371479 0.040457755 0.73486483
0.003371479 0.03933391 0.73486483
0.0033714662 0.038209975 0.73486423
0.0033714662 0.037086129 0.73486423
0.0033714536 0.035962194 0.73486364
0.0033714536 0.034838378 0.73486364
0.0033714536 0.033714533 0.73486364
0.0033714408 0.032590598 0.73486304
0.0033714408 0.031466812 0.7348631
0.003371428 0.030342877 0.73486245
0.003371428 0.029219091 0.73486245
0.0033714154 0.028095156 0.73486191
0.0033714154 0.02697134 0.73486191
0.0033714154 0.025847554 0.73486191
0.0033714026 0.024723619 0.73486137
0.0033714026 0.023599833 0.73486125
0.0033713898 0.022475958 0.73486066
0.0033713898 0.021352142 0.73486078
0.003371377 0.020228267 0.73486006
0.0033713898 0.01910457 0.73486072
0.0033713898 0.017980754 0.73486072
0.003371377 0.016856879 0.73486012
0.003371377 0.015733123 0.73486012
0.003371377 0.014609307 0.73486012
0.003371377 0.013485551 0.73486006
0.0033713644 0.012361676 0.73485959
0.0033713644 0.01123789 0.73485959
0.0033713644 0.010114133 0.73485953
0.0033713644 0.0089903176 0.73485953
0.0033713516 0.0078665018 0.73485899
0.0033713516 0.0067427158 0.73485893
0.0033713516 0.0056189299 0.73485899
0.0033713516 0.0044951439 0.73485899
0.0033713391 0.0033713281 0.73485839
0.0033713391 0.0022475719 0.73485839
0.0033713391 0.001123786 0.73485839
0.0033713263 -0 0.7348578
0.0033713263 -0.001123786 0.7348578
0.0033713263 -0.0022475719 0.7348578
0.0033713263 -0.0033713281 0.7348578
0.0033713134 -0.0044950843 0.7348572
0.0033713134 -0.0056188405 0.7348572
0.0033713134 -0.0067426264 0.7348572
0.0033713134 -0.0078663826 0.7348572
0.0033713006 -0.0089901388 0.73485661
0.0033713006 -0.010113895 0.73485661
0.0033713006 -0.011237651 0.73485661
0.0033713006 -0.012361407 0.73485661
0.0033712878 -0.013485104 0.73485601
0.0033712878 -0.01460892 0.73485601
0.0033712878 -0.015732646 0.73485601
0.0033712878 -0.016856432 0.73485601
0.003371275 -0.017980099 0.73485541
0.003371275 -0.019103885 0.73485541
0.003371275 -0.020227641 0.73485547
0.0033712625 -0.021351278 0.73485482
0.0033712625 -0.022475034 0.73485482
0.0033712625 -0.02359882 0.73485482
0.0033712625 -0.024722546 0.73485488
0.0033712499 -0.025846243 0.73485428
0.0033712499 -0.026969939 0.73485422
0.0033712499 -0.028093725 0.73485422
0.0033712499 -0.029217452 0.73485428
0.0033712371 -0.030341119 0.73485374
0.0033712371 -0.031464845 0.73485368
0.0033712371 -0.032588601 0.73485363
0.0033712371 -0.033712357 0.73485368
0.0033712243 -0.034835964 0.73485309
0.0033712243 -0.035959721 0.73485309
0.0033712243 -0.037083477 0.73485309
0.0033712243 -0.038207203 0.73485315
0.0033712115 -0.03933081 0.73485255
0.0033712115 -0.040454537 0.73485255
0.0033712115 -0.041578263 0.73485255
0.0033712625 -0.042702645 0.73485482
0.0033770301 -0.043901384 0.73512042
0.0033904279 -0.045205712 0.73573732
0.0034043349 -0.046525896 0.73637766
0.0034197455 -0.047876418 0.73708725
0.0034357856 -0.049246252 0.73782575
0.0034534603 -0.050650716 0.73863953
0.0034725063 -0.052087605 0.73951656
0.0034926659 -0.053554207 0.74044478
0.0035039412 -0.054895043 0.74096394
0.0035062134 -0.056099355 0.74106854
0.0035087918 -0.057310224 0.74118733
0.0035042989 -0.058404922 0.74098039
0.0035041063 -0.059569776 0.74097157
0.004747414 0.06052953 0.74357098
0.0047060768 0.05882597 0.74214339
0.0046301344 0.056719184 0.73952091
0.0045569884 0.054683894 0.73699492
0.0045096884 0.052988857 0.73536152
0.0045003393 0.051753908 0.7350387
0.0044997605 0.050622314 0.73501867
0.0044997605 0.049497366 0.73501873
0.0044997437 0.048372269 0.73501807
0.0044997437 0.04724735 0.73501807
0.004499726 0.046122193 0.73501748
0.004499726 0.044997275 0.73501748
0.0044997092 0.043872207 0.73501694
0.0044997092 0.042747259 0.73501688
0.0044997092 0.041622311 0.73501694
0.0044996925 0.040497243 0.73501635
0.0044996925 0.039372325 0.73501635
0.0044996752 0.038247257 0.73501575
0.0044996752 0.037122369 0.73501569
0.0044996585 0.035997272 0.73501515
0.0044996585 0.034872383 0.73501515
0.0044996585 0.033747464 0.73501515
0.0044996412 0.032622427 0.73501456
0.0044996412 0.031497508 0.73501456
0.004499624 0.030372471 0.73501396
0.004499624 0.029247582 0.73501402
0.0044996073 0.028122574 0.73501337
0.0044996073 0.026997685 0.73501337
0.0044996073 0.025872797 0.73501337
0.0044995905 0.024747759 0.73501283
0.0044995905 0.023622841 0.73501283
0.0044995728 0.022497892 0.73501217
0.0044995728 0.021372974 0.73501217
0.004499556 0.020248026 0.73501164
0.004499556 0.019123137 0.73501164
0.004499556 0.017998248 0.73501164
0.0044995393 0.0168733 0.73501104
0.0044995393 0.015748382 0.73501098
0.0044995225 0.014623463 0.7350105
0.0044995225 0.013498574 0.73501039
0.0044995393 0.012373745 0.73501098
0.0044995393 0.011248857 0.73501098
0.0044995393 0.010123968 0.73501104
0.0044995393 0.0089991093 0.73501098
0.0044995225 0.007874161 0.7350105
0.0044995225 0.006749332 0.73501045
0.0044995225 0.0056244135 0.73501045
0.0044995225 0.0044995546 0.73501045
0.0044995225 0.003374666 0.73501045
0.0044995225 0.0022497773 0.73501045
0.0044995225 0.0011249185 0.73501045
0.0044995225 -0 0.73501045
0.0044995225 -0.0011248589 0.73501045
0.0044995225 -0.0022497475 0.7350105
0.0044995225 -0.0033746362 0.73501045
0.0044995225 -0.004499495 0.73501045
0.0044995225 -0.0056244135 0.73501045
0.0044995225 -0.0067492425 0.73501045
0.0044995225 -0.0078741312 0.73501045
0.0044995048 -0.0089989901 0.73500991
0.0044995048 -0.010123849 0.73500985
0.0044995048 -0.011248738 0.73500979
0.0044995048 -0.012373656 0.73500991
0.0044995048 -0.013498485 0.73500985
0.0044995048 -0.014623344 0.73500985
0.0044995048 -0.015748262 0.73500985
0.0044995048 -0.016873121 0.73500985
0.0044995048 -0.01799804 0.73500991
0.0044995048 -0.019122839 0.73500985
0.0044995048 -0.020247757 0.73500985
0.0044995048 -0.021372646 0.73500985
0.0044995048 -0.022497505 0.73500985
0.0044995048 -0.023622394 0.73500985
0.0044995048 -0.024747223 0.73500991
0.004499488 -0.025872022 0.73500919
0.004499488 -0.026996911 0.73500931
0.004499488 -0.028121799 0.73500931
0.004499488 -0.029246628 0.73500931
0.004499488 -0.030371547 0.73500931
0.004499488 -0.031496406 0.73500925
0.004499488 -0.032621264 0.73500931
0.004499488 -0.033746153 0.73500925
0.004499488 -0.034870982 0.73500925
0.004499488 -0.035995871 0.73500925
0.004499488 -0.037120789 0.73500925
0.004499488 -0.038245648 0.73500925
0.004499488 -0.039370507 0.73500931
0.004499488 -0.040495366 0.73500931
0.004499488 -0.041620225 0.73500919
0.004499624 -0.042746425 0.73501402
0.0045077573 -0.043950617 0.73529488
0.0045261607 -0.045261592 0.73593038
0.0045449925 -0.046586156 0.73658067
0.0045657856 -0.047940731 0.73729873
0.0045875311 -0.049315929 0.73804963
0.0046111639 -0.050722778 0.73886573
0.0046369745 -0.052165955 0.73975706
0.0046642828 -0.053639263 0.74070019
0.0046779294 -0.054965615 0.74117142
0.0046812799 -0.056175351 0.74128717
0.0046848194 -0.057389021 0.7414093
0.0046785735 -0.05848214 0.74119365
0.0046782233 -0.059647322 0.74118155
0.0059491773 0.060681641 0.74398285
0.0059008743 0.059008777 0.74264836
0.0058032083 0.056871474 0.73995024
0.0057100812 0.054816812 0.73737746
0.0056463787 0.053075999 0.73561752
0.0056328396 0.051822126 0.73524356
0.0056318585 0.050686747 0.73521638
0.0056318371 0.049560189 0.73521578
0.0056318371 0.04843381 0.73521584
0.0056318371 0.047307462 0.73521584
0.0056318371 0.046181053 0.73521578
0.0056318156 0.045054555 0.73521519
0.0056318156 0.043928176 0.73521519
0.0056318156 0.042801797 0.73521525
0.0056318156 0.041675448 0.73521525
0.0056317942 0.04054898 0.73521459
0.0056317942 0.039422601 0.73521465
0.0056317942 0.038296223 0.73521465
0.0056317942 0.037169844 0.73521465
0.0056317728 0.036043346 0.73521405
0.0056317728 0.034917027 0.73521405
0.0056317728 0.033790678 0.73521405
0.0056317728 0.032664299 0.73521405
0.0056317518 0.031537831 0.7352134
0.0056317518 0.030411482 0.73521352
0.0056317518 0.029285133 0.73521352
0.0056317518 0.028158784 0.73521352
0.0056317304 0.027032316 0.73521292
0.0056317304 0.025905997 0.73521292
0.0056317304 0.024779648 0.73521286
0.0056317304 0.023653299 0.73521286
0.005631709 0.02252686 0.73521233
0.005631709 0.021400511 0.73521233
0.005631709 0.020274192 0.73521227
0.005631709 0.019147813 0.73521233
0.0056316876 0.018021405 0.73521173
0.0056316876 0.016895056 0.73521173
0.0056316876 0.015768766 0.73521173
0.0056316876 0.014642417 0.73521173
0.0056316666 0.013516039 0.73521107
0.0056316666 0.01238969 0.73521113
0.0056316666 0.011263341 0.73521113
0.0056316666 0.010137022 0.73521107
0.0056316452 0.0090106428 0.73521048
0.0056316452 0.0078842938 0.73521054
0.0056316452 0.0067580044 0.73521054
0.0056316452 0.0056316257 0.73521054
0.0056316238 0.0045053363 0.73520994
0.0056316238 0.0033789575 0.73520994
0.0056316238 0.0022526681 0.73520994
0.0056316238 0.001126349 0.73520994
0.0056316024 2.9802322e-08 0.73520929
0.0056316024 -0.0011262894 0.73520935
0.0056316024 -0.0022526383 0.73520935
0.0056316024 -0.0033789575 0.73520935
0.0056315814 -0.0045052469 0.73520875
0.0056315814 -0.0056315362 0.73520875
0.0056315814 -0.0067578852 0.73520875
0.0056315814 -0.0078842044 0.73520881
0.00563156 -0.009010464 0.73520815
0.00563156 -0.010136813 0.73520815
0.00563156 -0.011263102 0.73520815
0.00563156 -0.012389421 0.73520815
0.0056315386 -0.013515681 0.73520762
0.0056315386 -0.014642 0.73520756
0.0056315386 -0.01576829 0.7352075
0.0056315386 -0.016894579 0.73520762
0.0056315172 -0.018020838 0.73520696
0.0056315172 -0.019147128 0.73520702
0.0056315172 -0.020273447 0.73520696
0.0056315172 -0.021399796 0.73520702
0.0056314962 -0.022525966 0.73520637
0.0056314962 -0.023652285 0.73520637
0.0056314748 -0.024778485 0.73520583
0.0056314748 -0.025904745 0.73520577
0.0056314748 -0.027031034 0.73520583
0.0056314748 -0.028157353 0.73520583
0.0056314748 -0.029283673 0.73520577
0.0056314748 -0.030409932 0.73520583
0.0056314748 -0.031536251 0.73520583
0.0056314748 -0.032662541 0.73520583
0.0056314529 -0.033788681 0.73520517
0.0056314529 -0.034915 0.73520523
0.0056314529 -0.03604126 0.73520523
0.0056314529 -0.037167579 0.73520523
0.0056314529 -0.038293868 0.73520523
0.0056314529 -0.039420158 0.73520529
0.0056314529 -0.040546447 0.73520523
0.0056314529 -0.041672766 0.73520517
0.0056317304 -0.042801112 0.73521292
0.0056430148 -0.044015497 0.73552459
0.0056662811 -0.045330197 0.73616737
0.005690306 -0.046660513 0.73683113
0.0057167332 -0.048020542 0.73756123
0.0057445602 -0.049403191 0.73833001
0.0057746097 -0.050816536 0.73916012
0.0058074691 -0.052267194 0.74006796
0.0058419211 -0.053745657 0.74101973
0.005857408 -0.055059612 0.74144757
0.0058611943 -0.05626747 0.74155217
0.0058653792 -0.057480663 0.74166781
0.0058571082 -0.058571041 0.74143934
0.0058574309 -0.059745759 0.74144822
0.0071582291 0.060844988 0.74442524
0.0071086385 0.059238672 0.74328357
0.0069872737 0.057062775 0.74048948
0.0068724183 0.054979354 0.73784524
0.0067885434 0.053176939 0.73591435
0.0067696138 0.051900417 0.73547852
0.0067679961 0.050759971 0.73544121
0.0067679961 0.049632013 0.73544121
0.0067679961 0.048503965 0.73544127
0.0067679961 0.047375977 0.73544127
0.0067679961 0.046247989 0.73544127
0.0067679961 0.045120001 0.73544127
0.0067679961 0.043991953 0.73544127
0.0067679961 0.042863995 0.73544127
0.0067679961 0.041735977 0.73544121
0.0067679961 0.040607989 0.73544127
0.0067679961 0.039479971 0.73544127
0.0067679961 0.038352013 0.73544121
0.0067679961 0.037223995 0.73544127
0.0067679705 0.036095858 0.73544067
0.0067679705 0.034967899 0.73544073
0.0067679705 0.033839881 0.73544067
0.0067679705 0.032711923 0.73544067
0.0067679705 0.031583846 0.73544073
0.0067679705 0.030455887 0.73544067
0.0067679961 0.029327989 0.73544133
0.0067679961 0.028200001 0.73544127
0.0067679961 0.027072012 0.73544127
0.0067679961 0.025944024 0.73544121
0.0067679961 0.024815977 0.73544127
0.0067679961 0.023688018 0.73544121
0.0067679961 0.02256 0.73544121
0.0067679961 0.021431983 0.73544121
0.0067679961 0.020304024 0.73544133
0.0067679961 0.019176006 0.73544127
0.0067679961 0.018048018 0.73544133
0.0067679961 0.01692 0.73544127
0.0067679961 0.015792042 0.73544127
0.0067679961 0.014663994 0.73544133
0.0067679961 0.013536006 0.73544127
0.0067679961 0.012408018 0.73544127
0.0067679961 0.01128 0.73544127
0.0067679961 0.010151982 0.73544127
0.0067679961 0.009024024 0.73544127
0.0067679961 0.0078959763 0.73544127
0.0067679961 0.006768018 0.73544127
0.0067679961 0.0056400299 0.73544133
0.0067680217 0.0045119822 0.73544186
0.0067680217 0.0033840239 0.73544186
0.0067680217 0.0022560358 0.73544186
0.0067680217 0.0011279881 0.73544192
0.0067680217 -0 0.73544186
0.0067680217 -0.0011279881 0.73544186
0.0067680217 -0.002256006 0.73544192
0.0067680217 -0.0033840239 0.73544186
0.0067680217 -0.004512012 0.7354418
0.0067680217 -0.0056400299 0.73544186
0.0067680217 -0.006768018 0.73544186
0.0067680217 -0.0078960061 0.7354418
0.0067680217 -0.0090239942 0.7354418
0.0067680217 -0.010152012 0.73544186
0.0067680217 -0.01128003 0.7354418
0.0067680217 -0.012408048 0.73544186
0.0067680217 -0.013536036 0.73544192
0.0067680217 -0.014664024 0.73544186
0.0067680217 -0.015792072 0.73544192
0.0067680217 -0.01692006 0.73544186
0.0067680217 -0.018048048 0.73544186
0.0067680217 -0.019176066 0.73544186
0.0067680217 -0.020304054 0.73544186
0.0067680478 -0.021432132 0.73544252
0.0067680478 -0.02256012 0.73544246
0.0067680478 -0.023688138 0.73544246
0.0067680478 -0.024816126 0.7354424
0.0067680478 -0.025944173 0.73544246
0.0067680478 -0.027072132 0.7354424
0.0067680478 -0.028200209 0.73544246
0.0067680478 -0.029328197 0.7354424
0.0067680478 -0.030456185 0.7354424
0.0067680478 -0.031584233 0.73544246
0.0067680478 -0.032712221 0.7354424
0.0067680478 -0.033840239 0.73544246
0.0067680478 -0.034968227 0.73544252
0.0067680478 -0.036096245 0.73544246
0.0067680478 -0.037224233 0.7354424
0.0067680478 -0.038352251 0.73544246
0.0067680478 -0.039480269 0.7354424
0.0067680478 -0.040608287 0.73544246
0.0067680478 -0.041736305 0.7354424
0.0067689717 -0.042870134 0.73546374
0.0067839236 -0.044095486 0.7358079
0.0068120491 -0.045413643 0.7364555
0.0068414579 -0.046749979 0.73713249
0.0068738214 -0.048116714 0.73787761
0.0069082039 -0.04950881 0.73866916
0.0069450671 -0.05093047 0.73951781
0.0069856327 -0.052392244 0.74045169
0.0070280591 -0.053881794 0.74142849
0.0070432611 -0.055172235 0.74177849
0.0070486586 -0.056389272 0.74190271
0.0070540924 -0.057608396 0.74202776
0.007043011 -0.05869174 0.74177271
0.0070424271 -0.059860617 0.7417593
0.0083819674 0.061068624 0.74503106
0.0083276816 0.059483469 0.74395984
0.0081856037 0.057299227 0.74115616
0.00804599 0.055172533 0.73840111
0.0079383897 0.053300649 0.73627782
0.0079128928 0.051999032 0.7357747
0.0079103969 0.050852597 0.73572546
0.0079103969 0.049722493 0.73572546
0.0079103969 0.048592448 0.7357254
0.0079103969 0.047462404 0.73572552
0.0079103969 0.046332359 0.73572546
0.0079103969 0.045202315 0.7357254
0.0079103969 0.044072241 0.73572546
0.0079103969 0.042942196 0.7357254
0.0079103969 0.041812092 0.7357254
0.0079103969 0.040682048 0.73572546
0.0079103969 0.039552003 0.73572546
0.0079103969 0.038421959 0.73572546
0.0079103969 0.037291855 0.73572546
0.0079103969 0.03616184 0.7357254
0.0079103671 0.035031646 0.73572487
0.0079103671 0.033901572 0.73572487
0.0079103671 0.032771558 0.73572487
0.0079103671 0.031641513 0.73572487
0.0079103671 0.030511409 0.73572487
0.0079103671 0.029381394 0.73572487
0.0079103671 0.02825135 0.73572481
0.0079103671 0.027121276 0.73572481
0.0079103671 0.025991231 0.73572487
0.0079103671 0.024861157 0.73572487
0.0079103671 0.023731112 0.73572487
0.0079103671 0.022601038 0.73572487
0.0079103671 0.021471024 0.73572481
0.0079103671 0.020341009 0.73572487
0.0079103373 0.019210845 0.73572427
0.0079103373 0.018080801 0.73572427
0.0079103373 0.016950727 0.73572427
