# .PCD v0.7 - Point Cloud Data file format
VERSION 0.7
FIELDS x y z
SIZE 4 4 4
TYPE F F F
COUNT 1 1 1
WIDTH 1325
HEIGHT 1
VIEWPOINT 0 0 0 1 0 0 0
POINTS 1325
DATA ascii
-0.010222444 0.049976438 0.73652256
-0.010222444 0.048840582 0.7365225
-0.010222405 0.047704607 0.7365219
-0.010222405 0.046568751 0.73652196
-0.010222405 0.045432955 0.73652196
-0.010222405 0.044297129 0.7365219
-0.010222405 0.043161273 0.73652196
-0.010222366 0.042025298 0.73652136
-0.010222366 0.040889472 0.73652136
-0.010222366 0.039753675 0.73652136
-0.010222366 0.038617849 0.73652136
-0.010222327 0.037481844 0.73652077
-0.010222327 0.036346078 0.73652077
-0.010222327 0.035210252 0.73652077
-0.010222327 0.034074485 0.73652077
-0.010222289 0.03293854 0.73652011
-0.010222289 0.031802714 0.73652011
-0.010222289 0.030666888 0.73652011
-0.010222289 0.029531062 0.73652017
-0.01022225 0.028395176 0.73651952
-0.01022225 0.02725932 0.73651952
-0.01022225 0.026123554 0.73651958
-0.01022225 0.024987727 0.73651958
-0.01022225 0.023851931 0.73651958
-0.010222211 0.022716045 0.73651892
-0.010222211 0.021580249 0.73651892
-0.010222211 0.020444453 0.73651892
-0.010222211 0.019308627 0.73651898
-0.010222171 0.018172771 0.73651832
-0.010222171 0.017036974 0.73651832
-0.010222171 0.015901178 0.73651838
-0.010222171 0.014765382 0.73651838
-0.010222131 0.013629526 0.73651779
-0.010222131 0.01249373 0.73651779
-0.010222131 0.011357963 0.73651773
-0.010222131 0.010222137 0.73651773
-0.010222093 0.0090863407 0.73651713
-0.010222093 0.0079505146 0.73651713
-0.010222093 0.006814748 0.73651719
-0.010222093 0.0056789517 0.73651719
-0.010222093 0.0045431852 0.73651713
-0.010222093 0.0034073591 0.73651713
-0.010222093 0.0022715926 0.73651713
-0.010222093 0.0011357963 0.73651713
-0.010222093 2.9802322e-08 0.73651719
-0.010222093 -0.0011357963 0.73651719
-0.010222093 -0.0022715926 0.73651713
-0.010222093 -0.0034073591 0.73651713
-0.010222093 -0.0045431554 0.73651713
-0.010222093 -0.0056789219 0.73651719
-0.010222093 -0.006814748 0.73651719
-0.010222093 -0.0079504848 0.73651719
-0.010222093 -0.0090862811 0.73651713
-0.010222093 -0.010222077 0.73651713
-0.010222093 -0.011357874 0.73651713
-0.010222093 -0.01249364 0.73651719
-0.010222093 -0.013629436 0.73651719
-0.010222093 -0.014765263 0.73651713
-0.010222093 -0.015901029 0.73651713
-0.010222093 -0.017036825 0.73651713
-0.010222093 -0.018172592 0.73651713
-0.010222093 -0.019308418 0.73651719
-0.010222093 -0.020444155 0.73651719
-0.010222093 -0.021579981 0.73651713
-0.010222093 -0.022715747 0.73651713
-0.010222093 -0.023851544 0.73651719
-0.010222093 -0.02498731 0.73651719
-0.010222093 -0.026123106 0.73651719
-0.010222093 -0.027258933 0.73651713
-0.010222093 -0.028394699 0.73651713
-0.010222093 -0.029530495 0.73651713
-0.010222093 -0.030666262 0.73651719
-0.010222093 -0.031802088 0.73651719
-0.010222093 -0.032937825 0.73651719
-0.010222093 -0.034073621 0.73651713
-0.010222093 -0.035209388 0.73651713
-0.010222093 -0.036345214 0.73651719
-0.010222093 -0.03748098 0.73651719
-0.010222093 -0.038616776 0.73651719
-0.010222093 -0.039752543 0.73651713
-0.010222093 -0.040888369 0.73651713
-0.010222093 -0.042024165 0.73651713
-0.010225882 -0.043175936 0.73657531
-0.010258253 -0.044452459 0.73707211
-0.010302834 -0.045790374 0.73775637
-0.010350564 -0.047152579 0.73848897
-0.010401164 -0.048538774 0.73926556
-0.010456794 -0.049960226 0.74011934
-0.010516119 -0.051412076 0.74102986
-0.010582478 -0.052912354 0.74204838
-0.010639518 -0.054379731 0.74292386
-0.01065184 -0.055626273 0.74311292
-0.010659476 -0.056850523 0.7432301
-0.010648068 -0.057972819 0.74305511
-0.010648364 -0.05915758 0.74305958
-0.0096131042 0.061283529 0.74561316
-0.0095541943 0.059713721 0.744596
-0.0094040809 0.057600021 0.7420041
-0.0092437183 0.055462301 0.73923516
-0.0091083935 0.053511828 0.73689854
-0.0090721687 0.052164972 0.73627299
-0.009067432 0.05100432 0.73619133
-0.009067432 0.049870908 0.73619127
-0.009067432 0.048737466 0.73619127
-0.009067432 0.047604054 0.73619121
-0.009067432 0.046470612 0.73619121
-0.0090673976 0.045336992 0.73619068
-0.0090673976 0.044203579 0.73619068
-0.0090673976 0.043070138 0.73619068
-0.0090673976 0.041936725 0.73619068
-0.0090673976 0.040803313 0.73619068
-0.0090673976 0.039669901 0.73619068
-0.0090673631 0.03853631 0.73619008
-0.0090673631 0.037402898 0.73619008
-0.0090673631 0.036269456 0.73619008
-0.0090673631 0.035136014 0.73619008
-0.0090673631 0.034002632 0.73619008
-0.0090673631 0.03286922 0.73619008
-0.0090673277 0.031735659 0.73618948
-0.0090673277 0.030602247 0.73618954
-0.0090673277 0.029468834 0.73618954
-0.0090673277 0.028335392 0.73618948
-0.0090673277 0.02720201 0.73618948
-0.0090672933 0.026068479 0.73618889
-0.0090672933 0.024935097 0.73618889
-0.0090672933 0.023801684 0.73618889
-0.0090672933 0.022668242 0.73618883
-0.0090672933 0.02153486 0.73618883
-0.0090672933 0.020401418 0.73618889
-0.0090672597 0.019267917 0.73618829
-0.0090672597 0.018134534 0.73618829
-0.0090672597 0.017001122 0.73618829
-0.0090672597 0.01586771 0.73618829
-0.0090672597 0.014734328 0.73618823
-0.0090672253 0.013600826 0.7361877
-0.0090672253 0.012467474 0.73618764
-0.0090672253 0.011334032 0.7361877
-0.0090672253 0.010200679 0.73618764
-0.0090672597 0.0090672672 0.73618829
-0.0090672597 0.0079338551 0.73618829
-0.0090672597 0.0068004727 0.73618829
-0.0090672597 0.0056670606 0.73618829
-0.0090672597 0.0045336485 0.73618829
-0.0090672597 0.0034002662 0.73618829
-0.0090672597 0.0022668242 0.73618829
-0.0090672597 0.0011334419 0.73618829
-0.0090672597 -0 0.73618829
-0.0090672597 -0.0011333525 0.73618829
-0.0090672597 -0.0022668242 0.73618835
-0.0090672597 -0.0034001768 0.73618829
-0.0090672597 -0.0045336485 0.73618829
-0.0090672597 -0.0056670308 0.73618829
-0.0090672597 -0.0068004429 0.73618829
-0.0090672597 -0.0079338253 0.73618829
-0.0090672597 -0.0090672672 0.73618829
-0.0090672597 -0.010200649 0.73618823
-0.0090672597 -0.011334091 0.73618829
-0.0090672597 -0.012467444 0.73618823
-0.0090672597 -0.013600916 0.73618829
-0.0090672597 -0.014734268 0.73618823
-0.0090672597 -0.01586771 0.73618829
-0.0090672597 -0.017001122 0.73618829
-0.0090672253 -0.018134415 0.73618764
-0.0090672253 -0.019267827 0.73618764
-0.0090672253 -0.020401239 0.73618764
-0.0090672253 -0.021534622 0.73618764
-0.0090672253 -0.022668034 0.7361877
-0.0090672253 -0.023801416 0.7361877
-0.0090672253 -0.024934858 0.7361877
-0.0090672253 -0.02606824 0.7361877
-0.0090672253 -0.027201682 0.7361877
-0.0090672253 -0.028335065 0.7361877
-0.0090672253 -0.029468477 0.7361877
-0.0090672253 -0.030601859 0.7361877
-0.0090672253 -0.031735241 0.7361877
-0.0090672253 -0.032868683 0.7361877
-0.0090672253 -0.034002066 0.7361877
-0.0090672253 -0.035135508 0.7361877
-0.0090672253 -0.03626886 0.7361877
-0.0090672253 -0.037402302 0.7361877
-0.0090672253 -0.038535684 0.7361877
-0.0090672253 -0.039669067 0.7361877
-0.0090672253 -0.040802509 0.7361877
-0.0090672253 -0.041935891 0.7361877
-0.0090698171 -0.043081611 0.73623246
-0.0090957535 -0.044341743 0.73668027
-0.009134342 -0.045671642 0.73734653
-0.009175309 -0.047023445 0.73805398
-0.0092190402 -0.048399955 0.73880899
-0.0092669055 -0.049809605 0.73963553
-0.0093177874 -0.051247805 0.74051404
-0.0093748812 -0.05273369 0.7414999
-0.0094281174 -0.054211646 0.74241906
-0.0094415499 -0.055469066 0.74265099
-0.009448899 -0.056693345 0.74277788
-0.0094517898 -0.057892174 0.74282783
-0.0094397506 -0.058998436 0.74261999
-0.009450024 -0.060243875 0.74279737
-0.0083824396 0.061072081 0.74504042
-0.0083286474 0.059490383 0.74397892
-0.00819398 0.057357907 0.74132144
-0.0080586663 0.055259466 0.73865128
-0.00795082 0.053384125 0.73652309
-0.0079225292 0.052062362 0.73596483
-0.0079195751 0.050911576 0.7359066
-0.0079195751 0.04978019 0.7359066
-0.0079195751 0.048648834 0.73590654
-0.0079195751 0.047517478 0.7359066
-0.0079195453 0.046385944 0.735906
-0.0079195453 0.045254558 0.73590595
-0.0079195453 0.044123173 0.735906
-0.0079195453 0.042991847 0.735906
-0.0079195453 0.041860431 0.735906
-0.0079195453 0.040729105 0.735906
-0.0079195453 0.03959775 0.73590595
-0.0079195453 0.038466364 0.735906
-0.0079195453 0.037335038 0.73590595
-0.0079195453 0.036203653 0.735906
-0.0079195453 0.035072297 0.73590589
-0.0079195453 0.033940971 0.73590595
-0.0079195155 0.032809436 0.73590541
-0.0079195155 0.031678051 0.73590535
-0.0079195155 0.030546695 0.73590541
-0.0079195155 0.029415369 0.73590541
-0.0079195155 0.028283983 0.73590541
-0.0079195155 0.027152628 0.73590541
-0.0079195155 0.026021272 0.73590541
-0.0079195155 0.024889916 0.73590541
-0.0079195155 0.02375856 0.73590535
-0.0079195155 0.022627205 0.73590535
-0.0079195155 0.021495849 0.73590535
-0.0079195155 0.020364523 0.73590541
-0.0079194847 0.019233048 0.73590475
-0.0079194847 0.018101722 0.73590475
-0.0079194847 0.016970336 0.73590481
-0.0079194847 0.015838981 0.73590481
-0.0079194847 0.014707625 0.73590475
-0.0079194847 0.013576269 0.73590481
-0.0079194847 0.012444913 0.73590481
-0.0079194847 0.011313587 0.73590481
-0.0079194847 0.010182202 0.73590481
-0.0079194847 0.0090508759 0.73590481
-0.0079194847 0.0079194903 0.73590475
-0.0079194847 0.0067881644 0.73590475
-0.0079194549 0.005656749 0.73590422
-0.0079194549 0.0045253932 0.73590422
-0.0079194549 0.0033940673 0.73590416
-0.0079194549 0.0022627115 0.73590422
-0.0079194549 0.0011313856 0.73590422
-0.0079194549 2.9802322e-08 0.73590422
-0.0079194549 -0.0011313558 0.73590422
-0.0079194549 -0.0022626817 0.73590422
-0.0079194549 -0.0033940673 0.73590422
-0.0079194549 -0.0045253634 0.73590416
-0.0079194549 -0.005656749 0.73590422
-0.0079194549 -0.006788075 0.73590416
-0.0079194549 -0.0079194307 0.73590422
-0.0079194251 -0.0090507269 0.73590362
-0.0079194251 -0.010182112 0.73590362
-0.0079194251 -0.011313438 0.73590362
-0.0079194251 -0.012444824 0.73590362
-0.0079194251 -0.01357612 0.73590362
-0.0079194251 -0.014707476 0.73590356
-0.0079194251 -0.015838832 0.73590362
-0.0079194251 -0.016970187 0.73590362
-0.0079194251 -0.018101513 0.73590362
-0.0079194251 -0.019232869 0.73590356
-0.0079194251 -0.020364195 0.73590362
-0.0079194251 -0.021495581 0.73590356
-0.0079194251 -0.022626907 0.73590362
-0.0079194251 -0.023758262 0.73590362
-0.0079194251 -0.024889618 0.73590362
-0.0079194251 -0.026020944 0.73590362
-0.0079194251 -0.0271523 0.73590362
-0.0079194251 -0.028283656 0.73590356
-0.0079193944 -0.029414862 0.73590297
-0.0079193944 -0.030546218 0.73590297
-0.0079193944 -0.031677544 0.73590302
-0.0079193944 -0.03280893 0.73590302
-0.0079193944 -0.033940256 0.73590302
-0.0079193944 -0.035071582 0.73590302
-0.0079193944 -0.036202908 0.73590297
-0.0079193944 -0.037334263 0.73590302
-0.0079193944 -0.038465619 0.73590302
-0.0079193944 -0.039596975 0.73590302
-0.0079193944 -0.040728271 0.73590297
-0.0079193944 -0.041859627 0.73590302
-0.007921082 -0.043000132 0.73593628
-0.0079416605 -0.044246346 0.73634231
-0.0079746377 -0.04556933 0.73699313
-0.0080094002 -0.046912193 0.73767912
-0.0080470163 -0.048282087 0.73842138
-0.0080880336 -0.049683601 0.73923081
-0.00813141 -0.051111698 0.74008679
-0.0081796208 -0.052583277 0.74103808
-0.0082260994 -0.05405724 0.74195528
-0.008240981 -0.055332273 0.74224889
-0.0082466295 -0.056548297 0.74236035
-0.0082527753 -0.057769388 0.74248171
-0.0082391882 -0.058851302 0.74221355
-0.008242025 -0.060049027 0.74226958
-0.0071631433 0.060886741 0.74453837
-0.0071159811 0.059299886 0.74345261
-0.0069993609 0.05716148 0.74076772
-0.0068865018 0.055092037 0.73816949
-0.0068009887 0.053274423 0.73620081
-0.0067796963 0.051977664 0.73571062
-0.0067776879 0.050832659 0.73566437
-0.0067776879 0.049703062 0.73566437
-0.0067776879 0.048573434 0.73566437
-0.0067776879 0.047443837 0.73566437
-0.0067776879 0.04631421 0.73566437
-0.0067776619 0.045184433 0.73566377
-0.0067776619 0.044054806 0.73566377
-0.0067776619 0.042925239 0.73566377
-0.0067776619 0.041795611 0.73566377
-0.0067776619 0.040665984 0.73566377
-0.0067776619 0.039536357 0.73566383
-0.0067776619 0.03840676 0.73566377
-0.0067776619 0.037277192 0.73566377
-0.0067776619 0.036147535 0.73566377
-0.0067776619 0.035017908 0.73566383
-0.0067776362 0.033888191 0.73566324
-0.0067776362 0.032758594 0.73566318
-0.0067776362 0.031628996 0.73566324
-0.0067776362 0.030499399 0.73566318
-0.0067776362 0.029369771 0.73566324
-0.0067776362 0.028240174 0.73566318
-0.0067776362 0.027110577 0.73566318
-0.0067776362 0.025980979 0.73566324
-0.0067776362 0.024851352 0.73566318
-0.0067776362 0.023721725 0.73566324
-0.0067776106 0.022592038 0.73566264
-0.0067776106 0.02146244 0.73566258
-0.0067776106 0.020332813 0.73566264
-0.0067776106 0.019203275 0.73566264
-0.0067776106 0.018073648 0.73566258
-0.0067776106 0.016944051 0.73566264
-0.0067776106 0.015814453 0.73566258
-0.0067776106 0.014684826 0.73566264
-0.0067776106 0.013555259 0.73566264
-0.0067776106 0.012425631 0.73566258
-0.006777585 0.011295974 0.73566204
-0.006777585 0.010166377 0.73566198
-0.006777585 0.0090368092 0.73566204
-0.006777585 0.0079072118 0.73566204
-0.006777585 0.0067776144 0.73566198
-0.006777585 0.0056479871 0.73566204
-0.006777585 0.0045184195 0.73566204
-0.006777585 0.0033888221 0.73566198
-0.006777585 0.0022592247 0.73566198
-0.006777585 0.0011295974 0.73566198
-0.0067775594 2.9802322e-08 0.73566139
-0.0067775594 -0.0011295974 0.73566145
-0.0067775594 -0.002259165 0.73566145
-0.0067775594 -0.0033887625 0.73566139
-0.0067775594 -0.0045183599 0.73566145
-0.0067775594 -0.0056479573 0.73566145
-0.0067775594 -0.0067775249 0.73566139
-0.0067775594 -0.0079071522 0.73566145
-0.0067775594 -0.0090367198 0.73566145
-0.0067775594 -0.010166317 0.73566139
-0.0067775333 -0.011295885 0.73566079
-0.0067775333 -0.012425482 0.73566079
-0.0067775333 -0.01355505 0.73566085
-0.0067775333 -0.014684618 0.73566085
-0.0067775333 -0.015814245 0.73566079
-0.0067775333 -0.016943872 0.73566085
-0.0067775333 -0.01807338 0.73566085
-0.0067775333 -0.019203007 0.73566079
-0.0067775333 -0.020332605 0.73566085
-0.0067775333 -0.021462142 0.73566085
-0.0067775333 -0.02259174 0.73566085
-0.0067775594 -0.023721427 0.73566139
-0.0067775594 -0.024851024 0.73566139
-0.0067775594 -0.025980651 0.73566139
-0.0067775594 -0.027110249 0.73566139
-0.0067775594 -0.028239816 0.73566139
-0.0067775594 -0.029369414 0.73566145
-0.0067775594 -0.030499011 0.73566139
-0.0067775594 -0.031628609 0.73566139
-0.0067775594 -0.032758176 0.73566145
-0.0067775594 -0.033887774 0.73566139
-0.0067775594 -0.035017371 0.73566139
-0.0067775594 -0.036146939 0.73566145
-0.0067775594 -0.037276536 0.73566139
-0.0067775594 -0.038406163 0.73566139
-0.0067775594 -0.039535761 0.73566139
-0.0067775594 -0.040665329 0.73566139
-0.0067775594 -0.041794926 0.73566139
-0.0067782798 -0.042929083 0.73567808
-0.0067947218 -0.044165641 0.73605657
-0.006822519 -0.04548344 0.73669648
-0.0068517555 -0.046820313 0.73736954
-0.0068836859 -0.048185766 0.7381047
-0.0069178455 -0.049577892 0.73889112
-0.006954188 -0.050997376 0.73972774
-0.0069942577 -0.052456915 0.74065024
-0.0070353742 -0.053937823 0.74159688
-0.0070491596 -0.055218428 0.74191427
-0.0070544272 -0.056435376 0.74203551
-0.0070597022 -0.057654232 0.74215698
-0.0070487419 -0.058739513 0.74190462
-0.0070485473 -0.059912622 0.74190009
-0.0059560398 0.060751647 0.74417239
-0.0059119952 0.05911997 0.74295568
-0.0058166925 0.057003587 0.74032271
-0.005724634 0.054956496 0.73777956
-0.0056584757 0.053189695 0.73595178
-0.005642287 0.051909029 0.73550451
-0.0056408099 0.050767303 0.73546374
-0.0056408099 0.049639136 0.73546374
-0.0056408099 0.048510939 0.73546374
-0.0056407885 0.047382653 0.73546314
-0.0056407885 0.046254486 0.73546314
-0.0056407885 0.045126319 0.73546314
-0.0056407885 0.043998152 0.73546314
-0.0056407885 0.042870045 0.73546314
-0.0056407885 0.041741848 0.73546314
-0.0056407885 0.040613681 0.73546314
-0.0056407885 0.039485544 0.73546314
-0.0056407885 0.038357377 0.73546314
-0.0056407885 0.03722921 0.73546314
-0.0056407885 0.036101073 0.73546308
-0.0056407885 0.034972906 0.73546314
-0.0056407885 0.033844709 0.73546314
-0.0056407885 0.032716602 0.73546314
-0.0056407885 0.031588435 0.73546314
-0.0056407885 0.030460268 0.73546314
-0.0056407885 0.029332131 0.73546314
-0.0056407885 0.028203964 0.73546314
-0.005640767 0.027075708 0.73546255
-0.005640767 0.025947541 0.73546255
-0.005640767 0.024819374 0.73546255
-0.005640767 0.023691237 0.73546249
-0.005640767 0.02256307 0.73546255
-0.005640767 0.021434933 0.73546255
-0.005640767 0.020306796 0.73546255
-0.005640767 0.019178629 0.73546255
-0.005640767 0.018050462 0.73546255
-0.005640767 0.016922295 0.73546249
-0.005640767 0.015794158 0.73546255
-0.005640767 0.014665991 0.73546255
-0.005640767 0.013537854 0.73546255
-0.005640767 0.012409687 0.73546255
-0.005640767 0.01128155 0.73546255
-0.005640767 0.010153383 0.73546255
-0.005640767 0.0090252459 0.73546255
-0.005640767 0.0078971088 0.73546255
-0.0056407456 0.0067689121 0.73546195
-0.0056407456 0.005640775 0.73546195
-0.0056407456 0.0045126081 0.73546195
-0.0056407456 0.0033844411 0.73546195
-0.0056407456 0.0022563338 0.73546195
-0.0056407456 0.0011281669 0.73546195
-0.0056407456 2.9802322e-08 0.73546195
-0.0056407456 -0.0011281073 0.73546195
-0.0056407456 -0.002256304 0.73546195
-0.0056407456 -0.0033844709 0.73546195
-0.0056407456 -0.0045126081 0.73546189
-0.0056407456 -0.0056407452 0.73546195
-0.0056407456 -0.0067688823 0.73546189
-0.0056407456 -0.0078970194 0.73546195
-0.0056407456 -0.0090251863 0.73546195
-0.0056407456 -0.010153323 0.73546195
-0.0056407456 -0.01128149 0.73546195
-0.0056407456 -0.012409598 0.73546195
-0.0056407242 -0.013537735 0.73546135
-0.0056407242 -0.014665872 0.73546141
-0.0056407242 -0.015794009 0.73546135
-0.0056407242 -0.016922146 0.73546135
-0.0056407242 -0.018050283 0.73546129
-0.0056407242 -0.01917845 0.73546135
-0.0056407242 -0.020306587 0.73546135
-0.0056407242 -0.021434724 0.73546135
-0.0056407242 -0.022562921 0.73546135
-0.0056407242 -0.023691058 0.73546141
-0.0056407242 -0.024819165 0.73546135
-0.0056407242 -0.025947303 0.73546135
-0.0056407242 -0.027075469 0.73546135
-0.0056407242 -0.028203636 0.73546135
-0.0056407242 -0.029331744 0.73546135
-0.0056407242 -0.030459911 0.73546135
-0.0056407242 -0.031588018 0.73546135
-0.0056407242 -0.032716155 0.73546135
-0.0056407028 -0.033844203 0.73546076
-0.0056407028 -0.03497237 0.73546076
-0.0056407242 -0.036100656 0.73546141
-0.0056407456 -0.037228912 0.73546195
-0.0056407456 -0.038357019 0.73546195
-0.0056407456 -0.039485186 0.73546195
-0.0056407456 -0.040613353 0.73546195
-0.0056407456 -0.04174149 0.73546195
-0.0056415591 -0.042875826 0.73548436
-0.0056537855 -0.04409948 0.7358222
-0.0056768809 -0.045415044 0.73646027
-0.0057008215 -0.046746701 0.73712164
-0.0057269931 -0.04810673 0.73784471
-0.0057547642 -0.049490958 0.73861194
-0.0057845162 -0.050903708 0.73943383
-0.005817011 -0.052353054 0.74033153
-0.0058507244 -0.05382663 0.74126291
-0.0058644079 -0.055125445 0.74164099
-0.0058682724 -0.05633539 0.74174774
-0.0058726296 -0.057551771 0.74186814
-0.0058639445 -0.058639407 0.74162817
-0.005864338 -0.059816241 0.74163902
-0.0047555938 0.060633838 0.74385339
-0.0047182092 0.058977634 0.74256241
-0.0046434184 0.056881875 0.73997962
-0.0045709261 0.054851145 0.73747629
-0.0045202444 0.053112894 0.73572606
-0.0045088851 0.051852196 0.73533374
-0.0045080138 0.050715178 0.7353037
-0.0045080138 0.049588174 0.73530364
-0.0045080138 0.048461169 0.73530364
-0.0045080138 0.047334164 0.73530364
-0.0045080138 0.04620716 0.7353037
-0.0045080306 0.045080334 0.7353043
-0.0045080306 0.0439533 0.7353043
-0.0045080306 0.042826325 0.73530424
-0.0045080306 0.04169932 0.7353043
-0.0045080306 0.040572286 0.7353043
-0.0045080306 0.039445281 0.73530424
-0.0045080306 0.038318247 0.7353043
-0.0045080306 0.037191272 0.73530424
-0.0045080306 0.036064237 0.7353043
-0.0045080306 0.034937292 0.73530424
-0.0045080306 0.033810228 0.73530424
-0.0045080306 0.032683253 0.73530424
-0.0045080306 0.031556219 0.7353043
-0.0045080306 0.030429244 0.73530424
-0.0045080306 0.02930221 0.7353043
-0.0045080306 0.028175175 0.7353043
-0.0045080306 0.02704823 0.7353043
-0.0045080306 0.025921166 0.7353043
-0.0045080306 0.024794191 0.73530424
-0.0045080306 0.023667186 0.7353043
-0.0045080478 0.022540241 0.73530483
-0.0045080478 0.021413237 0.73530483
-0.0045080478 0.020286232 0.73530483
-0.0045080478 0.019159228 0.73530483
-0.0045080478 0.018032223 0.73530489
-0.0045080478 0.016905189 0.73530483
-0.0045080478 0.015778154 0.73530483
-0.0045080478 0.01465115 0.73530483
-0.0045080478 0.013524175 0.73530489
-0.0045080478 0.01239717 0.73530489
-0.0045080478 0.011270136 0.73530489
-0.0045080478 0.010143161 0.73530483
-0.0045080478 0.0090160966 0.73530489
-0.0045080478 0.007889092 0.73530489
-0.0045080478 0.0067621171 0.73530483
-0.0045080478 0.0056350827 0.73530489
-0.0045080478 0.0045080185 0.73530489
-0.0045080478 0.0033810735 0.73530489
-0.0045080478 0.0022540689 0.73530483
-0.0045080478 0.0011270344 0.73530483
-0.0045080478 2.9802322e-08 0.73530489
-0.0045080646 -0.0011270046 0.73530549
-0.0045080646 -0.002254039 0.73530549
-0.0045080646 -0.0033810139 0.73530549
-0.0045080646 -0.0045080483 0.73530543
-0.0045080646 -0.0056350529 0.73530543
-0.0045080646 -0.0067620873 0.73530549
-0.0045080646 -0.007889092 0.73530543
-0.0045080646 -0.0090160966 0.73530543
-0.0045080646 -0.010143161 0.73530549
-0.0045080646 -0.011270136 0.73530543
-0.0045080646 -0.01239714 0.73530549
-0.0045080646 -0.013524175 0.73530549
-0.0045080646 -0.014651179 0.73530543
-0.0045080646 -0.015778184 0.73530549
-0.0045080646 -0.016905248 0.73530549
-0.0045080646 -0.018032253 0.73530543
-0.0045080646 -0.019159257 0.73530549
-0.0045080646 -0.020286262 0.73530543
-0.0045080646 -0.021413267 0.73530549
-0.0045080646 -0.022540331 0.73530549
-0.0045080646 -0.023667306 0.73530543
-0.0045080818 -0.02479443 0.73530602
-0.0045080818 -0.025921464 0.73530608
-0.0045080818 -0.027048469 0.73530602
-0.0045080818 -0.028175473 0.73530602
-0.0045080818 -0.029302537 0.73530602
-0.0045080818 -0.030429512 0.73530602
-0.0045080818 -0.031556547 0.73530602
-0.0045080818 -0.032683581 0.73530602
-0.0045080818 -0.033810586 0.73530602
-0.0045080818 -0.03493762 0.73530602
-0.0045080818 -0.036064655 0.73530602
-0.0045080818 -0.037191659 0.73530602
-0.0045080818 -0.038318664 0.73530602
-0.0045080818 -0.039445728 0.73530602
-0.0045080818 -0.040572703 0.73530602
-0.0045080991 -0.041699886 0.73530662
-0.0045083724 -0.042829484 0.73531604
-0.0045176349 -0.044046938 0.73563594
-0.0045359978 -0.045359969 0.73627007
-0.0045548943 -0.046687633 0.73692262
-0.0045755678 -0.04804343 0.73763657
-0.0045973533 -0.049421519 0.73838884
-0.0046208543 -0.050829381 0.73920041
-0.0046463744 -0.052271694 0.74008179
-0.0046730228 -0.053739756 0.74100202
-0.0046852436 -0.055051595 0.74142396
-0.0046884753 -0.056261688 0.74153554
-0.0046919514 -0.057476401 0.74165565
-0.0046857791 -0.058572203 0.74144244
-0.0046851328 -0.059735417 0.74142015
-0.0035620956 0.060555667 0.74364161
-0.0035323666 0.058872759 0.74227273
-0.003476972 0.05679059 0.73972219
-0.0034233539 0.054773659 0.73725337
-0.0033873899 0.053069115 0.73559743
-0.0033791151 0.051813126 0.73521638
-0.0033783985 0.050676018 0.73518342
-0.0033783985 0.049549848 0.73518342
-0.0033783985 0.048423737 0.73518342
-0.0033783985 0.047297567 0.73518348
-0.0033783985 0.046171486 0.73518336
-0.0033783985 0.045045346 0.73518342
-0.0033783985 0.043919206 0.73518336
-0.0033783985 0.042793065 0.73518342
-0.0033783985 0.041666925 0.73518348
-0.0033783985 0.040540785 0.73518342
-0.0033784113 0.039414823 0.73518407
-0.0033784113 0.038288653 0.73518407
-0.0033784241 0.037162662 0.73518461
-0.0033784241 0.036036581 0.73518455
-0.0033784241 0.034910411 0.73518461
-0.0033784241 0.03378424 0.73518455
-0.0033784241 0.03265813 0.73518461
-0.0033784241 0.03153196 0.73518455
-0.0033784369 0.030405968 0.73518521
-0.0033784369 0.029279798 0.73518515
-0.0033784369 0.028153658 0.73518521
-0.0033784369 0.027027518 0.73518515
-0.0033784369 0.025901377 0.73518521
-0.0033784369 0.024775237 0.73518515
-0.0033784497 0.023649156 0.7351858
-0.0033784497 0.022522986 0.7351858
-0.0033784497 0.021396875 0.73518586
-0.0033784497 0.020270705 0.7351858
-0.0033784497 0.019144535 0.73518586
-0.0033784497 0.018018454 0.73518574
-0.0033784625 0.016892374 0.7351864
-0.0033784625 0.015766174 0.73518634
-0.0033784625 0.014640003 0.73518646
-0.0033784625 0.013513893 0.73518634
-0.0033784625 0.012387693 0.73518646
-0.0033784625 0.011261582 0.73518634
-0.0033784625 0.010135412 0.73518646
-0.0033784753 0.0090093017 0.73518699
-0.0033784753 0.0078831315 0.73518693
-0.0033784753 0.0067569911 0.73518699
-0.0033784753 0.0056307912 0.73518693
-0.0033784753 0.004504621 0.73518693
-0.0033784753 0.0033784807 0.73518693
-0.0033784879 0.0022523105 0.73518759
-0.0033784879 0.0011262 0.73518753
-0.0033784879 -0 0.73518759
-0.0033784879 -0.0011261404 0.73518753
-0.0033784879 -0.0022523105 0.73518759
-0.0033784879 -0.0033784509 0.73518753
-0.0033785007 -0.0045046508 0.73518813
-0.0033785007 -0.005630821 0.73518813
-0.0033785007 -0.0067569911 0.73518813
-0.0033785007 -0.0078831613 0.73518813
-0.0033785007 -0.0090093315 0.73518813
-0.0033785007 -0.010135472 0.73518813
-0.0033785135 -0.011261702 0.73518872
-0.0033785135 -0.012387842 0.73518872
-0.0033785135 -0.013514042 0.73518872
-0.0033785135 -0.014640212 0.73518878
-0.0033785135 -0.015766382 0.73518872
-0.0033785135 -0.016892552 0.73518878
-0.0033785263 -0.018018782 0.73518932
-0.0033785263 -0.019144982 0.73518932
-0.0033785263 -0.020271093 0.73518932
-0.0033785263 -0.021397352 0.73518932
-0.0033785263 -0.022523493 0.73518932
-0.0033785263 -0.023649663 0.73518932
-0.0033785393 -0.024775922 0.73518986
-0.0033785393 -0.025902122 0.73518991
-0.0033785393 -0.027028292 0.73518991
-0.0033785393 -0.028154463 0.73518991
-0.0033785393 -0.029280633 0.73518991
-0.0033785393 -0.030406862 0.73518991
-0.0033785522 -0.031533152 0.73519051
-0.0033785522 -0.032659322 0.73519051
-0.0033785522 -0.033785492 0.73519051
-0.0033785522 -0.034911692 0.73519051
-0.0033785522 -0.036037892 0.73519051
-0.0033785522 -0.037164062 0.73519051
-0.0033785522 -0.038290232 0.73519051
-0.003378565 -0.039416552 0.73519111
-0.003378565 -0.040542752 0.73519111
-0.003378565 -0.041668981 0.73519105
-0.0033788206 -0.0427984 0.73520291
-0.0033853077 -0.044009 0.73550159
-0.003398888 -0.045318484 0.73612684
-0.0034128386 -0.046642095 0.73676926
-0.0034281947 -0.047994703 0.73747629
-0.0034443408 -0.049368888 0.73821974
-0.0034618217 -0.050773352 0.73902452
-0.0034808244 -0.052212328 0.73989958
-0.003500683 -0.053677112 0.74081391
-0.0035103243 -0.05499506 0.74125791
-0.0035128118 -0.056204945 0.74137241
-0.0035153311 -0.057417065 0.74148834
-0.0035109597 -0.058515966 0.74128711
-0.0035108351 -0.059684187 0.74128139
-0.0023724381 0.060497195 0.74348336
-0.0023520987 0.058802485 0.74207854
-0.002315545 0.056730866 0.73955393
-0.0022801363 0.054723322 0.73710835
-0.0022563923 0.053025275 0.73546845
-0.0022514642 0.051783681 0.73512805
-0.0022511235 0.050650299 0.73510456
-0.0022511235 0.049524724 0.73510456
-0.0022511235 0.04839915 0.73510456
-0.0022511235 0.047273606 0.7351045
-0.0022511235 0.046148032 0.73510456
-0.0022511235 0.045022488 0.73510456
-0.0022511235 0.043896914 0.73510456
-0.0022511235 0.042771399 0.73510456
-0.0022511235 0.041645825 0.73510456
-0.0022511235 0.040520251 0.7351045
-0.0022511235 0.039394677 0.7351045
-0.0022511235 0.038269103 0.73510456
-0.0022511235 0.037143558 0.73510456
-0.0022511235 0.036018014 0.7351045
-0.0022511235 0.03489244 0.73510456
-0.0022511319 0.033767015 0.73510516
-0.0022511319 0.032641441 0.73510516
-0.0022511403 0.031516016 0.73510569
-0.0022511403 0.030390412 0.73510575
-0.0022511403 0.029264867 0.73510575
-0.0022511403 0.028139293 0.73510575
-0.0022511489 0.027013838 0.73510629
-0.0022511489 0.025888234 0.73510635
-0.0022511489 0.02476266 0.73510635
-0.0022511489 0.023637086 0.73510629
-0.0022511575 0.022511601 0.73510695
-0.0022511575 0.021386027 0.73510689
-0.0022511575 0.020260453 0.73510689
-0.0022511575 0.019134849 0.73510689
-0.0022511662 0.018009365 0.73510748
-0.0022511662 0.016883761 0.73510742
-0.0022511662 0.015758187 0.73510748
-0.0022511662 0.014632612 0.73510748
-0.0022511662 0.013507009 0.73510748
-0.0022511745 0.012381494 0.73510808
-0.0022511745 0.01125589 0.73510808
-0.0022511745 0.010130316 0.73510808
-0.0022511745 0.0090047121 0.73510808
-0.0022511829 0.0078791678 0.73510861
-0.0022511829 0.0067535937 0.73510861
-0.0022511829 0.0056279898 0.73510867
-0.0022511829 0.0045023859 0.73510861
-0.0022511918 0.0033767819 0.73510927
-0.0022511918 0.002251178 0.73510927
-0.0022511918 0.0011256337 0.73510921
-0.0022511918 2.9802322e-08 0.73510927
-0.0022512001 -0.0011255741 0.73510981
-0.0022512001 -0.0022512078 0.73510987
-0.0022512001 -0.0033768117 0.73510981
-0.0022512001 -0.0045023859 0.73510981
-0.0022512085 -0.0056280196 0.7351104
-0.0022512085 -0.0067536235 0.73511046
-0.0022512085 -0.0078792274 0.7351104
-0.0022512085 -0.0090048313 0.7351104
-0.0022512085 -0.010130405 0.7351104
-0.0022512171 -0.011256039 0.735111
-0.0022512171 -0.012381703 0.735111
-0.0022512171 -0.013507307 0.73511106
-0.0022512171 -0.01463291 0.735111
-0.0022512258 -0.015758544 0.73511159
-0.0022512258 -0.016884178 0.73511159
-0.0022512258 -0.018009812 0.73511159
-0.0022512258 -0.019135416 0.73511159
-0.0022512341 -0.020261079 0.73511219
-0.0022512341 -0.021386713 0.73511219
-0.0022512341 -0.022512317 0.73511219
-0.0022512341 -0.02363795 0.73511219
-0.0022512428 -0.024763703 0.73511279
-0.0022512428 -0.025889248 0.73511279
-0.0022512428 -0.027014881 0.73511279
-0.0022512428 -0.028140485 0.73511279
-0.0022512511 -0.029266238 0.73511338
-0.0022512511 -0.030391872 0.73511338
-0.0022512511 -0.031517506 0.73511338
-0.0022512511 -0.032643139 0.73511338
-0.0022512511 -0.033768743 0.73511338
-0.0022512597 -0.034894526 0.73511398
-0.0022512597 -0.03602016 0.73511398
-0.0022512597 -0.037145764 0.73511392
-0.0022512597 -0.038271427 0.73511398
-0.0022512684 -0.03939718 0.73511451
-0.0022512684 -0.040522814 0.73511451
-0.0022512684 -0.041648448 0.73511457
-0.002251362 -0.04277584 0.73512101
-0.0022555708 -0.043983638 0.7354117
-0.0022645276 -0.04529053 0.73603034
-0.0022737819 -0.046612531 0.73666948
-0.0022840151 -0.047964275 0.73737621
-0.0022947302 -0.049336672 0.73811632
-0.0023063507 -0.050739676 0.7389189
-0.0023188491 -0.052174091 0.73978209
-0.0023319586 -0.053635031 0.74068749
-0.0023386427 -0.054958105 0.74114913
-0.0023403359 -0.056168079 0.74126613
-0.0023420223 -0.057379544 0.7413826
-0.0023390565 -0.058476418 0.7411778
-0.0023388818 -0.059641451 0.7411657
-0.0011857272 0.060472101 0.74341536
-0.0011753475 0.058767378 0.74198163
-0.0011571643 0.056701034 0.73946989
-0.001139557 0.054698765 0.73703772
-0.0011280379 0.053017795 0.73544657
-0.0011254807 0.051772118 0.73509336
-0.0011253062 0.050638795 0.73506927
-0.0011253062 0.049513519 0.73506922
-0.0011253062 0.048388183 0.73506927
-0.0011253062 0.047262877 0.73506927
-0.0011253062 0.046137542 0.73506927
-0.0011253062 0.045012295 0.73506927
-0.0011253062 0.04388696 0.73506922
-0.0011253062 0.042761654 0.73506922
-0.0011253062 0.041636318 0.73506927
-0.0011253062 0.040511012 0.73506927
-0.0011253062 0.039385736 0.73506927
-0.0011253062 0.0382604 0.73506922
-0.0011253062 0.037135124 0.73506922
-0.0011253062 0.036009818 0.73506927
-0.0011253062 0.034884542 0.73506922
-0.0011253062 0.033759207 0.73506927
-0.0011253062 0.032633901 0.73506922
-0.0011253062 0.031508595 0.73506922
-0.0011253062 0.030383289 0.73506922
-0.0011253062 0.029258013 0.73506927
-0.0011253062 0.028132707 0.73506922
-0.0011253062 0.027007371 0.73506927
-0.0011253062 0.025882035 0.73506922
-0.0011253062 0.02475673 0.73506922
-0.0011253062 0.023631454 0.73506927
-0.0011253062 0.022506148 0.73506922
-0.0011253062 0.021380812 0.73506927
-0.0011253062 0.020255536 0.73506927
-0.0011253062 0.0191302 0.73506927
-0.0011253062 0.018004924 0.73506922
-0.0011253062 0.016879618 0.73506922
-0.0011253104 0.015754402 0.73506981
-0.0011253104 0.014629066 0.73506987
-0.0011253104 0.01350376 0.73506981
-0.0011253104 0.012378424 0.73506987
-0.0011253146 0.011253148 0.73507041
-0.0011253146 0.010127813 0.73507047
-0.0011253146 0.0090025067 0.73507041
-0.0011253146 0.0078772604 0.73507035
-0.0011253146 0.0067519248 0.73507041
-0.0011253146 0.0056265891 0.73507041
-0.001125319 0.0045012832 0.73507106
-0.001125319 0.0033759773 0.73507094
-0.001125319 0.0022506416 0.735071
-0.001125319 0.0011253953 0.735071
-0.001125319 5.9604645e-08 0.735071
-0.0011253232 -0.0011253059 0.7350716
-0.0011253232 -0.0022506118 0.7350716
-0.0011253232 -0.0033759475 0.73507166
-0.0011253232 -0.0045012832 0.7350716
-0.0011253232 -0.0056265891 0.7350716
-0.0011253274 -0.0067519844 0.7350722
-0.0011253274 -0.0078772604 0.7350722
-0.0011253274 -0.0090025961 0.73507214
-0.0011253274 -0.010127932 0.7350722
-0.0011253274 -0.011253238 0.7350722
-0.0011253317 -0.012378603 0.73507279
-0.0011253317 -0.013503969 0.73507273
-0.0011253317 -0.014629275 0.73507273
-0.0011253317 -0.01575464 0.73507279
-0.0011253317 -0.016879976 0.73507273
-0.0011253359 -0.018005341 0.73507333
-0.0011253359 -0.019130677 0.73507333
-0.0011253359 -0.020256013 0.73507333
-0.0011253359 -0.021381348 0.73507333
-0.0011253359 -0.022506684 0.73507339
-0.0011253402 -0.023632139 0.73507392
-0.0011253402 -0.024757475 0.73507398
-0.0011253402 -0.02588281 0.73507392
-0.0011253402 -0.027008146 0.73507392
-0.0011253402 -0.028133482 0.73507398
-0.0011253445 -0.029258966 0.73507458
-0.0011253445 -0.030384302 0.73507452
-0.0011253445 -0.031509608 0.73507452
-0.0011253445 -0.032634944 0.73507452
-0.0011253445 -0.033760309 0.73507452
-0.0011253487 -0.034885764 0.73507512
-0.0011253487 -0.03601113 0.73507512
-0.0011253487 -0.037136465 0.73507512
-0.0011253487 -0.038261831 0.73507512
-0.0011253487 -0.039387196 0.73507512
-0.0011253529 -0.040512711 0.73507571
-0.0011253529 -0.041638047 0.73507571
-0.0011253998 -0.04276517 0.73508215
-0.0011274648 -0.043971092 0.73536742
-0.0011319579 -0.045278281 0.73598802
-0.0011365825 -0.046599865 0.73662686
-0.0011416744 -0.047950327 0.7373302
-0.0011470066 -0.049321264 0.73806679
-0.0011527955 -0.050722986 0.73886645
-0.0011590132 -0.052155584 0.73972529
-0.0011655589 -0.053615689 0.74062943
-0.0011689491 -0.054940581 0.74109775
-0.0011697629 -0.056148618 0.74121022
-0.0011706146 -0.057360083 0.74132776
-0.0011691559 -0.058457762 0.7411263
-0.0011691329 -0.059625745 0.74112314
0 0.060471386 0.74341345
0 0.058767885 0.74198288
0 0.056701273 0.73947054
0 0.054700017 0.73704135
0 0.053013802 0.73543477
0 0.051772326 0.73509395
0 0.050639927 0.73507279
0 0.049514621 0.73507279
0 0.048389286 0.73507273
0 0.04726395 0.73507273
0 0.046138614 0.73507279
0 0.045013249 0.73507279
0 0.043888122 0.73507333
0 0.042762816 0.73507333
0 0.04163745 0.73507333
0 0.040512115 0.73507339
0 0.039386809 0.73507333
0 0.038261443 0.73507333
0 0.037136137 0.73507333
0 0.036010802 0.73507333
0 0.034885436 0.73507339
0 0.033760071 0.73507333
0 0.032634735 0.73507339
0 0.031509399 0.73507333
0 0.030384123 0.73507333
0 0.029258758 0.73507339
0 0.028133422 0.73507333
0 0.027008086 0.73507333
0 0.025882721 0.73507333
0 0.024757415 0.73507333
0 0.023632079 0.73507339
0 0.022506714 0.73507333
0 0.021381378 0.73507339
0 0.020256072 0.73507339
0 0.019130737 0.73507333
0 0.018005401 0.73507339
0 0.016880065 0.73507333
0 0.01575473 0.73507333
0 0.014629364 0.73507333
0 0.013504058 0.73507333
0 0.012378722 0.73507339
0 0.011253387 0.73507333
0 0.010128021 0.73507339
0 0.0090027153 0.73507333
0 0.0078773797 0.73507333
0 0.0067520142 0.73507339
0 0.0056267083 0.73507333
0 0.0045013726 0.73507398
0 0.0033760369 0.73507398
0 0.0022507012 0.73507392
0 0.0011253655 0.73507392
0 5.9604645e-08 0.73507392
0 -0.0011253059 0.73507392
0 -0.0022506714 0.73507392
0 -0.0033760071 0.73507398
0 -0.0045013726 0.73507392
0 -0.0056267083 0.73507398
0 -0.0067520142 0.73507392
0 -0.0078774095 0.73507458
0 -0.0090027452 0.73507452
0 -0.010128111 0.73507458
0 -0.011253446 0.73507452
0 -0.012378752 0.73507452
0 -0.013504118 0.73507452
0 -0.014629453 0.73507452
0 -0.015754819 0.73507452
0 -0.016880155 0.73507452
0 -0.01800552 0.73507452
0 -0.019130915 0.73507512
0 -0.020256281 0.73507518
0 -0.021381646 0.73507512
0 -0.022506982 0.73507518
0 -0.023632288 0.73507512
0 -0.024757653 0.73507512
0 -0.025883019 0.73507512
0 -0.027008355 0.73507512
0 -0.02813372 0.73507512
0 -0.029259026 0.73507512
0 -0.030384421 0.73507512
0 -0.031509846 0.73507571
0 -0.032635212 0.73507571
0 -0.033760577 0.73507571
0 -0.034885943 0.73507571
0 -0.036011308 0.73507571
0 -0.037136644 0.73507571
0 -0.03826198 0.73507571
0 -0.039387345 0.73507571
0 -0.040512711 0.73507571
0 -0.041638047 0.73507571
0 -0.042765498 0.73508334
0 -0.043971092 0.73536742
0 -0.045278281 0.73598802
0 -0.046599686 0.73662627
0 -0.047950119 0.7373296
0 -0.049321473 0.73806739
0 -0.050722778 0.73886573
0 -0.052155793 0.73972589
0 -0.053615928 0.74063015
0 -0.054940999 0.74109906
0 -0.056149483 0.74121273
0 -0.057360351 0.74132854
0 -0.058455944 0.74112123
0 -0.05962503 0.74112129
0.0011862096 0.060496688 0.74348199
0.0011760121 0.058800638 0.74207342
0.001157786 0.056731522 0.73955584
0.0011401423 0.054726869 0.7371186
0.0011283803 0.053033888 0.7354939
0.001125796 0.051786631 0.73513687
0.0011256256 0.050653189 0.73511338
0.0011256256 0.049527556 0.73511338
0.0011256256 0.048401922 0.73511338
0.0011256256 0.047276288 0.73511338
0.0011256256 0.046150684 0.73511338
0.0011256256 0.045025051 0.73511338
0.0011256256 0.043899417 0.73511338
0.0011256256 0.042773783 0.73511338
0.0011256256 0.041648149 0.73511338
0.0011256256 0.040522516 0.73511338
0.0011256256 0.039396912 0.73511338
0.0011256256 0.038271308 0.73511338
0.0011256256 0.037145644 0.73511338
0.0011256256 0.03602007 0.73511332
0.0011256256 0.034894407 0.73511338
0.0011256256 0.033768803 0.73511338
0.0011256256 0.032643199 0.73511338
0.0011256256 0.031517506 0.73511338
0.0011256256 0.030391932 0.73511338
0.0011256256 0.029266268 0.73511338
0.0011256256 0.028140664 0.73511338
0.0011256214 0.027014911 0.73511279
0.0011256214 0.025889277 0.73511279
0.0011256214 0.024763703 0.73511273
0.0011256214 0.02363807 0.73511285
0.0011256214 0.022512466 0.73511279
0.0011256214 0.021386832 0.73511279
0.0011256214 0.020261198 0.73511279
0.0011256214 0.019135594 0.73511279
0.0011256214 0.018009961 0.73511279
0.0011256214 0.016884327 0.73511279
0.0011256214 0.015758693 0.73511279
0.0011256214 0.014633089 0.73511273
0.0011256214 0.013507485 0.73511279
0.0011256214 0.012381822 0.73511279
0.0011256214 0.011256248 0.73511279
0.0011256214 0.010130584 0.73511279
0.0011256214 0.0090049505 0.73511279
0.0011256214 0.0078794062 0.73511279
0.0011256214 0.0067537427 0.73511273
0.0011256214 0.0056281388 0.73511279
0.0011256214 0.0045025051 0.73511279
0.0011256214 0.0033768713 0.73511279
0.0011256214 0.0022512674 0.73511279
0.0011256214 0.0011256337 0.73511279
0.0011256214 2.9802322e-08 0.73511273
0.0011256214 -0.0011256039 0.73511279
0.0011256214 -0.0022512376 0.73511279
0.0011256214 -0.0033768415 0.73511279
0.0011256214 -0.0045024753 0.73511279
0.0011256214 -0.0056280792 0.73511279
0.0011256214 -0.0067537129 0.73511273
0.0011256214 -0.0078793764 0.73511279
0.0011256214 -0.0090049505 0.73511279
0.0011256214 -0.010130554 0.73511279
0.0011256214 -0.011256188 0.73511279
0.0011256256 -0.012381852 0.73511338
0.0011256256 -0.013507515 0.73511332
0.0011256256 -0.014633149 0.73511338
0.0011256256 -0.015758753 0.73511338
0.0011256256 -0.016884357 0.73511338
0.0011256256 -0.018009961 0.73511332
0.0011256256 -0.019135624 0.73511332
0.0011256299 -0.020261317 0.73511392
0.0011256299 -0.021386951 0.73511398
0.0011256299 -0.022512585 0.73511398
0.0011256299 -0.023638219 0.73511398
0.0011256299 -0.024763823 0.73511398
0.0011256299 -0.025889456 0.73511392
0.0011256299 -0.02701506 0.73511398
0.0011256299 -0.028140724 0.73511398
0.0011256299 -0.029266357 0.73511398
0.0011256299 -0.030391991 0.73511398
0.0011256342 -0.031517744 0.73511457
0.0011256342 -0.032643348 0.73511451
0.0011256342 -0.033768982 0.73511457
0.0011256342 -0.034894615 0.73511451
0.0011256342 -0.036020279 0.73511457
0.0011256342 -0.037145913 0.73511457
0.0011256342 -0.038271546 0.73511451
0.0011256342 -0.03939718 0.73511451
0.0011256342 -0.040522814 0.73511451
0.0011256342 -0.041648448 0.73511457
0.001125681 -0.04277584 0.73512101
0.0011277898 -0.043983787 0.73541236
0.0011322638 -0.04529053 0.73603034
0.001136891 -0.046612531 0.73666948
0.0011420031 -0.047964096 0.73737562
0.0011473607 -0.049336523 0.73811567
0.0011531754 -0.050739676 0.7389189
0.0011594425 -0.052174896 0.7397846
0.0011659884 -0.053635448 0.7406888
0.0011693351 -0.054958731 0.74115103
0.0011701817 -0.056168705 0.74126804
0.0011710157 -0.057379752 0.74138319
0.0011695006 -0.058475018 0.74117398
0.0011694317 -0.059640974 0.74116439
0.0023747114 0.06055519 0.74364036
0.0023547059 0.058867663 0.74225861
0.0023179904 0.056790739 0.73972279
0.002282446 0.054778725 0.73726785
0.0022582687 0.053069353 0.73559803
0.0022527773 0.0518139 0.73521876
0.002252402 0.050679058 0.73519289
0.002252402 0.049552858 0.73519289
0.002252402 0.048426658 0.73519289
0.0022523936 0.047300279 0.7351923
0.0022523936 0.046174079 0.7351923
0.0022523936 0.045047849 0.73519224
0.0022523936 0.043921709 0.73519224
0.0022523936 0.042795479 0.73519224
0.0022523936 0.041669309 0.7351923
0.0022523936 0.040543139 0.73519224
0.0022523936 0.039416879 0.7351923
0.0022523936 0.038290709 0.73519224
0.002252385 0.03716433 0.7351917
0.002252385 0.03603816 0.7351917
0.002252385 0.03491199 0.7351917
0.002252385 0.03378579 0.7351917
0.002252385 0.03265962 0.7351917
0.002252385 0.03153339 0.73519164
0.002252385 0.03040719 0.7351917
0.002252385 0.02928102 0.7351917
0.002252385 0.02815485 0.73519164
0.0022523766 0.027028561 0.73519111
0.0022523766 0.025902361 0.73519111
0.0022523766 0.024776161 0.73519111
0.0022523766 0.023649991 0.73519105
0.0022523766 0.022523761 0.73519111
0.0022523766 0.021397591 0.73519111
0.0022523766 0.02027142 0.73519111
0.0022523766 0.019145191 0.73519111
0.0022523766 0.018019021 0.73519111
0.0022523766 0.01689285 0.73519111
0.0022523678 0.015766591 0.73519051
0.0022523678 0.014640391 0.73519051
0.0022523678 0.013514221 0.73519051
0.0022523678 0.012388021 0.73519051
0.0022523678 0.011261851 0.73519051
0.0022523678 0.01013568 0.73519051
0.0022523678 0.0090094507 0.73519057
0.0022523678 0.0078833103 0.73519045
0.0022523678 0.0067571104 0.73519051
0.0022523594 0.0056309104 0.73518991
0.0022523594 0.0045047402 0.73518991
0.0022523594 0.0033785403 0.73518991
0.0022523594 0.0022523701 0.73518991
0.0022523594 0.0011262298 0.73518991
0.0022523594 -0 0.73518991
0.0022523594 -0.0011261702 0.73518986
0.0022523594 -0.0022523403 0.73518997
0.0022523594 -0.0033785105 0.73518991
0.002252351 -0.0045047104 0.73518932
0.002252351 -0.0056308508 0.73518932
0.002252351 -0.006757021 0.73518932
0.002252351 -0.0078831911 0.73518932
0.002252351 -0.0090093911 0.73518932
0.002252351 -0.010135561 0.73518932
0.002252351 -0.011261731 0.73518932
0.002252351 -0.012387902 0.73518932
0.002252351 -0.013514072 0.73518932
0.0022523424 -0.014640212 0.73518878
0.0022523424 -0.015766382 0.73518872
0.0022523424 -0.016892552 0.73518878
0.0022523424 -0.018018723 0.73518872
0.002252351 -0.019144982 0.73518932
0.002252351 -0.020271093 0.73518932
0.002252351 -0.021397352 0.73518932
0.002252351 -0.022523493 0.73518932
0.002252351 -0.023649663 0.73518932
0.002252351 -0.024775833 0.73518938
0.002252351 -0.025902003 0.73518926
0.0022523594 -0.027028292 0.73518991
0.0022523594 -0.028154463 0.73518991
0.0022523594 -0.029280633 0.73518991
0.0022523594 -0.030406862 0.73518991
0.0022523594 -0.031533033 0.73518991
0.0022523594 -0.032659173 0.73518991
0.0022523594 -0.033785343 0.73518986
0.0022523594 -0.034911543 0.73518991
0.0022523678 -0.036037892 0.73519051
0.0022523678 -0.037164062 0.73519051
0.0022523678 -0.038290232 0.73519051
0.0022523678 -0.039416432 0.73519051
0.0022523678 -0.040542603 0.73519051
0.0022523678 -0.041668802 0.73519051
0.0022525471 -0.0427984 0.73520291
0.0022568805 -0.044009149 0.73550218
0.0022659253 -0.045318484 0.73612684
0.0022752171 -0.046641916 0.7367686
0.002285463 -0.047994703 0.73747629
0.0022962273 -0.049368888 0.73821974
0.0023078902 -0.050773561 0.73902524
0.0023205949 -0.052213371 0.73990273
0.002333825 -0.053677976 0.74081647
0.0023402714 -0.054996341 0.74126166
0.0023418562 -0.056204528 0.7413711
0.0023435634 -0.057417274 0.74148899
0.002340382 -0.058509558 0.74126935
0.0023404923 -0.059682548 0.74127692
0.0035666809 0.0606336 0.74385273
0.0035385168 0.058975309 0.74255598
0.0034824687 0.056880295 0.73997527
0.0034285767 0.054857284 0.73749387
0.0033904794 0.053117514 0.73573971
0.0033818304 0.051854789 0.73534143
0.003381164 0.050717503 0.73531079
0.003381164 0.049590409 0.73531079
0.003381164 0.048463374 0.73531073
0.003381164 0.04733631 0.73531079
0.003381164 0.046209276 0.73531073
0.003381164 0.045082211 0.73531073
0.003381164 0.043955147 0.73531073
0.003381151 0.042827934 0.7353102
0.003381151 0.0417009 0.73531014
0.003381151 0.040573835 0.73531014
0.003381151 0.039446771 0.7353102
0.003381151 0.038319737 0.7353102
0.003381151 0.037192643 0.73531014
0.003381151 0.036065638 0.7353102
0.0033811382 0.034938425 0.7353096
0.0033811382 0.03381142 0.7353096
0.0033811382 0.032684356 0.73530954
0.0033811382 0.031557322 0.73530954
0.0033811382 0.030430257 0.7353096
0.0033811382 0.029303223 0.7353096
0.0033811382 0.028176159 0.7353096
0.0033811254 0.027049035 0.735309
0.0033811254 0.025921971 0.735309
0.0033811254 0.024794966 0.735309
0.0033811254 0.023667872 0.735309
0.0033811254 0.022540838 0.735309
0.0033811254 0.021413803 0.735309
0.0033811254 0.020286769 0.735309
0.0033811128 0.019159675 0.73530835
0.0033811128 0.01803264 0.73530841
0.0033811128 0.016905576 0.73530841
0.0033811128 0.015778512 0.73530841
0.0033811128 0.014651507 0.73530841
0.0033811128 0.013524473 0.73530841
0.0033811128 0.012397438 0.73530835
0.0033811128 0.011270404 0.73530841
0.0033811 0.01014331 0.73530781
0.0033811 0.0090162456 0.73530787
0.0033811 0.0078892708 0.73530781
0.0033811 0.0067622066 0.73530781
0.0033811 0.0056352019 0.73530781
0.0033811 0.0045081377 0.73530781
0.0033811 0.0033811033 0.73530781
0.0033810872 0.0022540689 0.73530722
0.0033810872 0.0011270642 0.73530722
0.0033810872 -2.9802322e-08 0.73530728
0.0033810872 -0.0011269748 0.73530722
0.0033810872 -0.0022540689 0.73530722
0.0033810872 -0.0033811033 0.73530728
0.0033810872 -0.0045080781 0.73530722
0.0033810742 -0.0056351125 0.73530668
0.0033810742 -0.0067621171 0.73530662
0.0033810742 -0.0078891516 0.73530662
0.0033810742 -0.0090161562 0.73530662
0.0033810742 -0.010143191 0.73530662
0.0033810742 -0.011270225 0.73530662
0.0033810742 -0.012397259 0.73530668
0.0033810742 -0.013524294 0.73530662
0.0033810614 -0.014651239 0.73530602
0.0033810614 -0.015778273 0.73530602
0.0033810614 -0.016905278 0.73530608
0.0033810614 -0.018032312 0.73530602
0.0033810614 -0.019159347 0.73530602
0.0033810614 -0.020286351 0.73530608
0.0033810614 -0.021413386 0.73530602
0.0033810614 -0.02254039 0.73530608
0.0033810614 -0.023667395 0.73530602
0.0033810614 -0.02479443 0.73530602
0.0033810742 -0.025921524 0.73530662
0.0033810742 -0.027048588 0.73530668
0.0033810742 -0.028175622 0.73530662
0.0033810742 -0.029302597 0.73530662
0.0033810742 -0.030429661 0.73530662
0.0033810742 -0.031556636 0.73530662
0.0033810742 -0.03268373 0.73530662
0.0033810742 -0.033810735 0.73530662
0.0033810742 -0.034937739 0.73530662
0.0033810742 -0.036064804 0.73530668
0.0033810742 -0.037191808 0.73530662
0.0033810742 -0.038318843 0.73530662
0.0033810742 -0.039445847 0.73530668
0.0033810742 -0.040572852 0.73530662
0.0033810742 -0.041699886 0.73530662
0.0033813305 -0.042830169 0.73531842
0.0033882519 -0.044047266 0.73563713
0.0034020115 -0.045360148 0.73627067
0.0034161576 -0.046687484 0.73692203
0.0034316625 -0.048043281 0.73763597
0.0034480148 -0.049421519 0.73838884
0.0034656273 -0.050829202 0.73919982
0.0034848354 -0.052272469 0.74008423
