# .PCD v0.7 - Point Cloud Data file format
VERSION 0.7
FIELDS x y z
SIZE 4 4 4
TYPE F F F
COUNT 1 1 1
WIDTH 1355
HEIGHT 1
VIEWPOINT 0 0 0 1 0 0 0
POINTS 1355
DATA ascii
-0.0026176539 -0.035338312 0.76041949
-0.002675178 -0.037452459 0.7643925
-0.00277469 -0.040232986 0.77126545
-0.0011636344 0.038399965 0.74036366
-0.0011429248 0.036573589 0.73750293
-0.0011293015 0.035008371 0.73562109
-0.0011190773 0.033572316 0.73420882
-0.0011108926 0.032215863 0.7330783
-0.0011041164 0.03091529 0.73214221
-0.0010984762 0.029658854 0.73136312
-0.0010936288 0.028434366 0.73069358
-0.0010895262 0.02723816 0.73012686
-0.0010859773 0.026063442 0.72963667
-0.0010829482 0.024907798 0.72921824
-0.001080395 0.023768693 0.7288655
-0.0010782328 0.02264291 0.72856688
-0.0010764337 0.021528661 0.72831833
-0.0010749551 0.020424187 0.72811407
-0.0010737869 0.019328177 0.72795272
-0.0010729036 0.018239349 0.72783077
-0.0010722886 0.017156631 0.72774577
-0.001071933 0.016079009 0.72769666
-0.0010718093 0.01500532 0.72767961
-0.0010719136 0.01393488 0.72769397
-0.0010722227 0.012866706 0.72773665
-0.0010727411 0.01180014 0.7278083
-0.0010734691 0.010734707 0.72790885
-0.0010744036 0.0096696615 0.72803795
-0.0010755266 0.0086042583 0.72819304
-0.0010768585 0.0075380504 0.72837704
-0.0010783931 0.0064703524 0.72858906
-0.0010801007 0.0054005384 0.72882485
-0.0010820066 0.0043280423 0.72908819
-0.0010841206 0.003252387 0.72938013
-0.0010864297 0.0021728575 0.72969913
-0.0010889198 0.0010889173 0.73004311
-0.0010916218 2.9802322e-08 0.73041624
-0.0010945264 -0.0010944903 0.73081756
-0.0010976451 -0.0021952689 0.73124832
-0.0011009731 -0.003302902 0.73170805
-0.0011045265 -0.0044181049 0.73219889
-0.0011083133 -0.0055415332 0.73272198
-0.0011123469 -0.0066740811 0.73327917
-0.0011166151 -0.0078162849 0.73386872
-0.001121153 -0.0089692175 0.73449552
-0.0011259792 -0.010133773 0.73516214
-0.0011311055 -0.011311024 0.73587024
-0.0011365477 -0.012502015 0.73662204
-0.0011423277 -0.013707936 0.7374205
-0.0011484772 -0.014930189 0.73826993
-0.0011550072 -0.016170084 0.73917192
-0.0011619795 -0.01742968 0.74013501
-0.0011694272 -0.018710822 0.74116379
-0.0011773763 -0.020015389 0.74226183
-0.0011859258 -0.021346629 0.74344277
-0.0011951285 -0.022707433 0.74471402
-0.0012050512 -0.024101019 0.74608463
-0.0012159247 -0.025534391 0.74758661
-0.0012277918 -0.027011395 0.74922585
-0.0012410103 -0.028543174 0.75105178
-0.0012558674 -0.030140817 0.75310403
-0.0012729397 -0.031823456 0.75546229
-0.0012931649 -0.033622295 0.75825608
-0.0013185643 -0.035601199 0.76176453
-0.0013556738 -0.03795886 0.76689059
0 0.039418131 0.73977268
0 0.037554204 0.73682332
0 0.035974383 0.73491651
0 0.034530789 0.73349327
0 0.033169955 0.73235601
0 0.031867594 0.73141921
0 0.030609697 0.73063469
0 0.029384702 0.7299605
0 0.028189421 0.72939217
0 0.027016252 0.72890079
0 0.025861949 0.7284767
0 0.024725139 0.7281211
0 0.023602188 0.72781998
0 0.022491127 0.72756869
0 0.0213902 0.72736168
0 0.020297974 0.72719663
0 0.019213229 0.72707057
0 0.018134832 0.72698122
0 0.01706171 0.72692633
0 0.015992939 0.72690356
0 0.014927745 0.72691411
0 0.013864934 0.72695059
0 0.01280421 0.72701764
0 0.011744767 0.72711247
0 0.010685921 0.72723484
0 0.0096270144 0.72738349
0 0.0085675716 0.7275601
0 0.0075069964 0.72776389
0 0.0064444244 0.72799182
0 0.0053795278 0.72824574
0 0.0043118 0.72852802
0 0.0032406151 0.72883737
0 0.0021651983 0.72917199
0 0.0010852516 0.72953367
0 -0 0.7299242
0 -0.0010910928 0.73034388
0 -0.002188623 0.73079026
0 -0.0032933652 0.7312696
0 -0.0044059157 0.73177898
0 -0.0055269897 0.73231965
0 -0.0066573322 0.73289335
0 -0.0077978671 0.73350531
0 -0.008949399 0.73415411
0 -0.010112971 0.73484254
0 -0.011289597 0.73557436
0 -0.012480378 0.73635077
0 -0.013686746 0.73717666
0 -0.014909863 0.73805392
0 -0.016151398 0.73898751
0 -0.017412931 0.73998094
0 -0.018697143 0.74104571
0 -0.02000618 0.74218714
0 -0.021342665 0.74341214
0 -0.022710592 0.74473721
0 -0.024113655 0.74617171
0 -0.025558829 0.74774748
0 -0.027052253 0.74948251
0 -0.028605551 0.75142598
0 -0.030233502 0.75363755
0 -0.031960785 0.75622118
0 -0.033833504 0.75937843
0 -0.035964936 0.76362532
0.0011551103 0.040428877 0.73918617
0.0011331353 0.038526595 0.73615074
0.0011192036 0.03693375 0.73422629
0.0011087597 0.03548032 0.73278368
0.0011004884 0.034115136 0.73164105
0.0010937053 0.032811135 0.73070413
0.0010879796 0.031551391 0.72991323
0.001083102 0.030326873 0.72923946
0.0010789369 0.029131323 0.7286641
0.0010753787 0.027959883 0.7281726
0.0010722963 0.026807398 0.72774684
0.0010696737 0.025672197 0.72738457
0.0010674737 0.024551928 0.72708064
0.0010656338 0.023443967 0.72682655
0.0010641163 0.022346467 0.72661698
0.0010628955 0.021257937 0.72644824
0.0010619543 0.020177186 0.72631824
0.0010612758 0.019102961 0.72622454
0.001060848 0.018034428 0.72616547
0.0010606514 0.016970456 0.72613829
0.0010606815 0.015910238 0.72614241
0.0010609162 0.014852852 0.72617483
0.0010613592 0.013797671 0.72623605
0.0010620035 0.012744039 0.72632504
0.0010628348 0.011691213 0.72643989
0.001063865 0.010638654 0.72658223
0.0010650918 0.0095858574 0.72675163
0.0010665089 0.0085321069 0.72694743
0.0010680986 0.0074767172 0.72716701
0.0010698815 0.0064193308 0.72741324
0.0010718558 0.005359292 0.72768599
0.0010740273 0.004296124 0.72798592
0.0010763751 0.0032291412 0.72831023
0.0010789408 0.0021578968 0.72866464
0.0010816877 0.0010817051 0.72904408
0.0010846386 2.9802322e-08 0.72945166
0.0010878047 -0.0010877848 0.72988904
0.0010911772 -0.0021823049 0.73035491
0.0010947601 -0.0032842755 0.73084986
0.0010985818 -0.004394263 0.73137772
0.0011026426 -0.0055131912 0.73193866
0.0011069396 -0.0066415966 0.7325322
0.0011115029 -0.0077804923 0.73316258
0.0011163426 -0.0089306831 0.73383111
0.0011214912 -0.010093421 0.73454231
0.0011269521 -0.01126948 0.73529661
0.0011327642 -0.012460411 0.73609942
0.0011389373 -0.013667226 0.73695213
0.0011455001 -0.014891475 0.73785865
0.0011524872 -0.016134799 0.73882389
0.001159949 -0.017399222 0.73985457
0.0011679254 -0.018686771 0.74095631
0.0011765052 -0.020000607 0.74214154
0.0011857272 -0.021343082 0.74341536
0.0011957581 -0.022719413 0.74480098
0.0012066402 -0.024132788 0.74630415
0.0012186553 -0.025591761 0.74796385
0.0012319982 -0.027103961 0.74980688
0.0012470833 -0.028682888 0.75189066
0.0012644751 -0.030347407 0.75429308
0.0012853403 -0.03213349 0.75717521
0.0013120433 -0.034113109 0.76086378
0.00135426 -0.036564976 0.76669526
0.0023021195 0.041438192 0.73862666
0.0022568034 0.039494067 0.73549682
0.002228528 0.03788498 0.73354399
0.0022074706 0.036423266 0.73208952
0.0021908185 0.035053134 0.73093951
0.0021771619 0.033746034 0.72999626
0.0021656125 0.032484204 0.72919858
0.0021558637 0.031260014 0.72852528
0.002147442 0.030064195 0.7279436
0.0021403097 0.028894216 0.72745103
0.0021341199 0.027743548 0.7270236
0.0021288113 0.026610166 0.72665691
0.0021243484 0.025492191 0.72634864
0.0021206294 0.02438724 0.72609174
0.0021175493 0.023293078 0.72587901
0.0021150645 0.022208184 0.72570747
0.0021131332 0.021131366 0.72557408
0.0021117227 0.020061404 0.72547662
0.0021108086 0.018997282 0.7254135
0.0021103367 0.017937869 0.7253809
0.0021103218 0.016882628 0.72537988
0.0021107187 0.015830427 0.72540724
0.0021115204 0.0147807 0.72546262
0.0021127204 0.013732702 0.72554553
0.0021142976 0.012685806 0.72565448
0.0021162611 0.011639446 0.72579014
0.0021186052 0.010593027 0.72595197
0.002121333 0.0095460117 0.72614038
0.0021244015 0.0084975958 0.72635233
0.0021278518 0.0074474812 0.72659063
0.0021316877 0.0063951015 0.72685552
0.0021358901 0.0053397417 0.72714579
0.002140502 0.004281044 0.72746432
0.0021454666 0.0032182038 0.72780722
0.0021508276 0.0021508336 0.72817749
0.002156575 0.0010783076 0.7285744
0.0021627306 -0 0.72899961
0.002169301 -0.0010845959 0.72945333
0.0021762857 -0.0021762848 0.72993577
0.0021837165 -0.0032755435 0.73044896
0.0021916258 -0.0043832064 0.73099518
0.0021999998 -0.0054999888 0.73157358
0.0022088806 -0.0066266358 0.73218697
0.002218313 -0.007764101 0.73283845
0.0022283276 -0.0089132488 0.7335301
0.0022389551 -0.010075301 0.73426414
0.002250229 -0.011251152 0.73504281
0.0022622023 -0.012442082 0.73586971
0.0022749123 -0.013649434 0.73674756
0.0022885057 -0.014875233 0.73768634
0.0023029754 -0.016120821 0.73868573
0.0023184151 -0.017388105 0.73975217
0.002334998 -0.018679976 0.74089748
0.0023528335 -0.019999057 0.74212933
0.0023720409 -0.021348327 0.74345589
0.0023930459 -0.022733897 0.74490666
0.0024159171 -0.024159133 0.74648619
0.002441362 -0.025634289 0.74824357
0.0024698386 -0.027168214 0.7502104
0.0025024354 -0.028778017 0.75246173
0.0025408878 -0.030490637 0.75511754
0.0025883897 -0.032354832 0.75839829
0.0026551161 -0.034516484 0.76300687
0.0034416572 0.04244709 0.73809612
0.0033712371 0.040454835 0.73485374
0.0033281278 0.038828194 0.73286873
0.0032962931 0.037358046 0.73140287
0.003271143 0.035982579 0.73024499
0.0032505018 0.034672022 0.72929454
0.0032330456 0.033408165 0.72849071
0.0032184091 0.032184094 0.72781676
0.0032057001 0.030988455 0.72723168
0.0031949438 0.029819459 0.72673643
0.0031856352 0.028670728 0.72630781
0.0031776363 0.027539551 0.72593945
0.0031708039 0.026423395 0.72562492
0.0031651459 0.025321186 0.72536433
0.0031604704 0.024230272 0.7251491
0.0031566685 0.023148924 0.72497404
0.0031536892 0.022075862 0.72483689
0.0031514945 0.021009982 0.72473586
0.0031500258 0.019950211 0.7246682
0.0031492254 0.018895358 0.72463131
0.0031491031 0.017844915 0.72462571
0.00314957 0.016797751 0.72464716
0.0031506601 0.015753299 0.72469741
0.0031523409 0.014710933 0.72477478
0.00315457 0.013669819 0.72487748
0.0031573721 0.012629509 0.7250064
0.0031607277 0.011589378 0.72516096
0.003164663 0.01054889 0.72534215
0.0031691371 0.0095074177 0.72554815
0.0031741769 0.0084644556 0.72578019
0.0031797541 0.0074194372 0.72603697
0.0031858967 0.0063717961 0.72631979
0.0031926001 0.0053210557 0.72662842
0.0031998365 0.0042664707 0.72696167
0.0032076365 0.0032076538 0.72732085
0.0032160308 0.0021440089 0.72770733
0.0032250166 0.0010749996 0.7281211
0.0032345925 -0 0.728562
0.0032447919 -0.0010815561 0.72903156
0.0032556613 -0.0021704137 0.72953206
0.0032672142 -0.003267169 0.73006397
0.0032794517 -0.0043725967 0.73062748
0.0032924127 -0.0054873526 0.7312243
0.0033061996 -0.0066123605 0.73185909
0.0033208313 -0.007748574 0.7325328
0.0033363416 -0.0088969171 0.73324698
0.0033528039 -0.010058403 0.73400491
0.0033702818 -0.011234254 0.7348097
0.0033888181 -0.012425631 0.73566324
0.0034085358 -0.013634145 0.73657107
0.0034295123 -0.014861196 0.73753691
0.0034520037 -0.016109318 0.73857254
0.0034760644 -0.017380297 0.73968041
0.0035018506 -0.018676519 0.74086773
0.0035297251 -0.020001739 0.7421512
0.0035598644 -0.021359175 0.74353892
0.0035928648 -0.022754788 0.74505842
0.003629138 -0.024194241 0.74672854
0.0036697253 -0.025688082 0.74859732
0.0037156967 -0.027248442 0.75071406
0.0037691302 -0.02889663 0.75317442
0.0038336364 -0.030669093 0.75614458
0.0039186343 -0.032655299 0.76005816
0.00407393 -0.035307378 0.76720864
0.0045736148 0.043449342 0.73756915
0.0044765281 0.041407883 0.73421639
0.0044180895 0.039762825 0.7321983
0.0043753525 0.038284361 0.73072243
0.0043415786 0.036903411 0.7295562
0.0043138694 0.035589427 0.72859925
0.0042905468 0.034324408 0.72779381
0.0042709215 0.033099651 0.72711611
0.0042539537 0.031904638 0.72653019
0.0042394153 0.030735821 0.72602808
0.0042270026 0.029589057 0.72559941
0.0042162603 0.028459787 0.72522855
0.0042071198 0.027346283 0.72491282
0.0041993968 0.02624625 0.72464615
0.0041930173 0.025158137 0.72442585
0.0041878512 0.024080157 0.72424746
0.0041838009 0.02301091 0.72410756
0.0041807569 0.021949023 0.72400248
0.0041786716 0.020893365 0.72393042
0.0041774833 0.019843042 0.72388935
0.004177175 0.018797278 0.7238788
0.0041776593 0.017755091 0.72389549
0.0041789357 0.016715765 0.7239396
0.0041810358 0.015678912 0.72401208
0.0041838009 0.014643282 0.72410762
0.0041874233 0.013609141 0.72423267
0.0041917176 0.01257515 0.72438097
0.0041967896 0.011541188 0.72455609
0.0042025866 0.010506481 0.7247563
0.0042090546 0.0094703734 0.7249797
0.0042162603 0.0084325373 0.72522849
0.0042241956 0.0073923469 0.72550255
0.0042328681 0.0063492954 0.725802
0.0042422274 0.0053027868 0.72612524
0.0042523416 0.0042523742 0.72647452
0.0042632227 0.0031974614 0.72685027
0.0042748814 0.0021374524 0.7272529
0.0042872992 0.0010718405 0.72768176
0.0043005976 -0 0.72814095
0.0043147141 -0.0010786355 0.7286284
0.0043296488 -0.0021648109 0.72914422
0.0043455753 -0.003259182 0.72969419
0.0043624518 -0.0043624341 0.730277
0.0043803463 -0.0054754317 0.73089492
0.0043992833 -0.0065989196 0.73154891
0.004419419 -0.0077340007 0.73224425
0.0044407505 -0.0088815093 0.73298085
0.0044634272 -0.010042727 0.73376399
0.0044874707 -0.011218637 0.73459429
0.0045130244 -0.01241082 0.73547673
0.0045401873 -0.013620555 0.73641479
0.0045691882 -0.014849812 0.73741621
0.0046001794 -0.016100615 0.73848653
0.0046334891 -0.017375559 0.73963678
0.0046692258 -0.018676877 0.74087083
0.0047080326 -0.02000916 0.74221098
0.0047501056 -0.021375448 0.74366391
0.0047964356 -0.022783071 0.74526381
0.0048477636 -0.024238795 0.74703634
0.0049055978 -0.025754362 0.74903351
0.0049721119 -0.027346581 0.75133049
0.0050508776 -0.029042542 0.75405049
0.0051504662 -0.030902743 0.75748956
0.0052985479 -0.033115894 0.7626034
0.0056995321 0.044456363 0.73708606
0.0055741183 0.042363316 0.7336213
0.0055011795 0.04070875 0.73160625
0.0054461146 0.039212018 0.73008502
0.0054025049 0.037817538 0.72888017
0.0053674225 0.036498487 0.727911
0.0053382688 0.035232574 0.72710556
0.0053135278 0.034006596 0.72642207
0.0052923094 0.032812297 0.72583586
0.0052739144 0.03164351 0.72532767
0.0052583423 0.030498385 0.72489744
0.0052448581 0.029371232 0.72452486
0.00523334 0.028260022 0.72420675
0.005223596 0.027162701 0.72393751
0.0052154614 0.0260773 0.72371286
0.0052088303 0.02500239 0.72352964
0.0052036168 0.023936659 0.72338563
0.0051996866 0.022878647 0.72327703
0.0051969062 0.021827042 0.7232002
0.0051952717 0.02078113 0.72315502
0.0051947096 0.019739926 0.72313946
0.005195145 0.018702537 0.72315156
0.005196597 0.017668456 0.72319162
0.0051990137 0.016636848 0.72325838
0.0052023791 0.015607148 0.72335136
0.0052066413 0.014578611 0.72346914
0.0052118236 0.013550758 0.72361231
0.0052178958 0.012522966 0.7237801
0.0052248812 0.011494756 0.72397304
0.0052326955 0.010465413 0.72418892
0.0052413829 0.0094344914 0.72442889
0.005250989 0.0084016025 0.72469431
0.005261505 0.0073661208 0.72498488
0.0052728485 0.0063274205 0.72529823
0.0052851615 0.0052851737 0.72563833
0.0052984194 0.0042387545 0.7260046
0.0053125978 0.0031875968 0.72639632
0.0053278063 0.0021311343 0.72681653
0.0053440048 0.0010688305 0.72726399
0.0053611915 -0 0.72773886
0.0053794612 -0.0010758638 0.72824359
0.005398856 -0.0021595359 0.72877944
0.0054193586 -0.0032515824 0.7293458
0.0054411325 -0.0043528676 0.72994733
0.0054641659 -0.0054641366 0.73058367
0.0054886308 -0.0065863431 0.73125952
0.0055145626 -0.007720381 0.73197591
0.0055420622 -0.0088672936 0.73273569
0.0055712154 -0.010028183 0.73354107
0.0056022382 -0.011204451 0.73439813
0.0056352946 -0.012397617 0.73531133
0.005670473 -0.013609141 0.73628318
0.0057079555 -0.014840662 0.73731875
0.0057481797 -0.016094893 0.73843002
0.0057914327 -0.017374247 0.73962492
0.0058379304 -0.018681377 0.74090952
0.0058886767 -0.020021498 0.74231142
0.0059438976 -0.021398008 0.743837
0.0060050599 -0.022819221 0.74552667
0.0060735401 -0.024294138 0.74741852
0.0061514284 -0.025835991 0.74957037
0.006242563 -0.027467251 0.75208807
0.0063542821 -0.029229671 0.75517446
0.0065061674 -0.031229556 0.75937057
0.0068662302 0.045774907 0.73770285
0.0067158793 0.04365325 0.73424143
0.0066195866 0.04192403 0.73202455
0.006544854 0.040359944 0.73030406
0.0064836177 0.038901716 0.72889429
0.0064328499 0.037524998 0.72772545
0.0063890638 0.036204726 0.72671741
0.006352263 0.034937471 0.72587019
0.0063230689 0.033723027 0.72519809
0.0062988065 0.032543868 0.72463948
0.0062797866 0.031398952 0.72420162
0.0062635629 0.030273914 0.72382814
0.0062496546 0.02916503 0.72350794
0.0062378352 0.028070241 0.72323585
0.0062279943 0.026988029 0.72300929
0.0062198532 0.0259161 0.72282183
0.0062133991 0.024853617 0.72267324
0.0062084706 0.023799151 0.72255981
0.006204973 0.0227516 0.72247922
0.0062028589 0.021710038 0.72243059
0.0062019536 0.020673186 0.72240978
0.0062023844 0.019640893 0.72241974
0.006203894 0.018611699 0.72245443
0.0062065702 0.017585278 0.72251606
0.0062103719 0.016561031 0.72260356
0.0062152171 0.015538067 0.72271508
0.0062211547 0.014516056 0.72285181
0.0062281466 0.013494343 0.72301275
0.0062361783 0.012472361 0.72319764
0.0062452145 0.011449546 0.72340572
0.0062553291 0.010425568 0.72363853
0.0062664663 0.0093997121 0.72389495
0.0062787039 0.0083716214 0.72417676
0.0062920325 0.0073407292 0.72448361
0.0063064648 0.0063064694 0.72481585
0.0063219485 0.0052683353 0.72517228
0.0063385665 0.0042257309 0.72555488
0.0063563138 0.0031781495 0.72596347
0.0063752308 0.0021250844 0.72639894
0.0063952925 0.0010658801 0.72686082
0.006416657 -0 0.72735268
0.0064393263 -0.0010732114 0.72787458
0.0064633274 -0.0021544099 0.72842705
0.0064887339 -0.0032443404 0.72901207
0.0065156976 -0.0043437779 0.72963279
0.006544278 -0.005453527 0.73029077
0.0065745628 -0.0065745711 0.73098797
0.0066066706 -0.0077077746 0.73172724
0.0066407728 -0.0088543594 0.7325123
0.0066768778 -0.010015279 0.73334348
0.0067152726 -0.011192083 0.73422742
0.0067561064 -0.012386173 0.73516756
0.0067998483 -0.013599664 0.73617458
0.0068465238 -0.014834106 0.73724914
0.0068965359 -0.016091883 0.73840052
0.0069505856 -0.017376453 0.73964489
0.0070089283 -0.018690467 0.74098802
0.0070726573 -0.020039201 0.74245518
0.0071425564 -0.021427661 0.74406445
0.0072205639 -0.022865087 0.74586034
0.0073085474 -0.024361819 0.74788594
0.007410469 -0.025936633 0.7502324
0.0075325323 -0.027619243 0.75304252
0.007689808 -0.029477596 0.75666332
0.0079470435 -0.031788141 0.7625854
0.0082112709 0.0480946 0.74166274
0.0079189129 0.045250982 0.73589343
0.0077779619 0.043334365 0.7331121
0.0076756403 0.041667789 0.73109287
0.0075951298 0.040145695 0.72950423
0.0075279237 0.038715035 0.72817802
0.007470787 0.037353963 0.72705048
0.0074210656 0.036045194 0.72606933
0.0073774098 0.034779221 0.72520792
0.0073385825 0.033547819 0.72444165
0.007305285 0.032351971 0.72378463
0.0072785681 0.031193882 0.72325736
0.0072573558 0.030066192 0.72283882
0.007242308 0.028969228 0.72254193
0.0072306618 0.027889729 0.72231197
0.0072210305 0.026820958 0.72212207
0.0072133243 0.025761873 0.72196996
0.0072074058 0.024711132 0.72185314
0.0072031161 0.023667425 0.7217685
0.0072004506 0.022630006 0.72171587
0.0071991556 0.021597475 0.72169036
0.0071993796 0.020569682 0.72169471
0.0072009233 0.019545376 0.72172523
0.0072037643 0.018523991 0.72178125
0.0072078793 0.017504871 0.72186249
0.0072132493 0.016487479 0.72196847
0.0072198533 0.01547116 0.72209877
0.0072276494 0.014455318 0.72225261
0.007236694 0.013439566 0.72243106
0.0072468715 0.012423247 0.72263193
0.0072583174 0.011405945 0.72285783
0.0072709671 0.010387093 0.72310746
0.0072848848 0.0093663037 0.72338206
0.0073000337 0.0083428919 0.72368097
0.0073163765 0.0073163807 0.72400349
0.0073339543 0.0062862933 0.72435033
0.0073527866 0.0052520037 0.72472197
0.0073729423 0.0042131245 0.72511971
0.0073944167 0.0031690598 0.7255435
0.0074172583 0.0021192431 0.72599423
0.0074415184 0.0010630786 0.72647297
0.0074672769 2.9802322e-08 0.72698116
0.0074945353 -0.0010706484 0.72751915
0.0075234077 -0.0021495223 0.72808892
0.0075540654 -0.0032374263 0.72869384
0.007586522 -0.0043351352 0.72933429
0.0076209316 -0.0054435134 0.73001331
0.0076574017 -0.0065634847 0.73073298
0.0076960991 -0.0076960623 0.73149663
0.007737116 -0.0088424087 0.732306
0.0077806655 -0.010003686 0.73316538
0.007826915 -0.011181295 0.73407805
0.007876249 -0.012376964 0.73505157
0.0079289256 -0.013592422 0.73609108
0.0079855286 -0.014830232 0.73720801
0.0080461446 -0.016092271 0.73840415
0.0081118606 -0.017382532 0.73970097
0.0081831254 -0.018704295 0.74110729
0.0082612578 -0.020063043 0.74264908
0.008347651 -0.021465331 0.74435389
0.0084448019 -0.022921592 0.74627095
0.0085560055 -0.024445713 0.74846542
0.0086869998 -0.026060998 0.75105035
0.0088500837 -0.027814537 0.75426853
0.0090821693 -0.029841423 0.75884831
0.0092031006 0.04716593 0.73853374
0.0089704413 0.044852197 0.73451662
0.0088280803 0.043036908 0.73205847
0.008721929 0.041429192 0.73022562
0.0086356616 0.03993997 0.72873604
0.0085641658 0.038538784 0.72750157
0.0085024042 0.037198037 0.72643518
0.0084484806 0.035906047 0.7255041
0.0084008407 0.034653485 0.7246815
0.0083584301 0.033433735 0.72394919
0.0083206622 0.032242566 0.72329712
0.0082866102 0.031074792 0.72270912
0.0082566729 0.029930472 0.72219217
0.0082325032 0.028813779 0.72177494
0.008214823 0.027725041 0.72146958
0.0082034636 0.026661277 0.72127354
0.0081965122 0.025614113 0.72115344
0.0081914039 0.02457425 0.72106522
0.0081880772 0.023540735 0.72100776
0.008186359 0.022512525 0.72097814
0.008186331 0.021489114 0.72097766
0.008187796 0.020469487 0.72100294
0.0081907557 0.019453049 0.72105408
0.0081951572 0.018439114 0.72113001
0.0082009472 0.017427027 0.72122997
0.0082081342 0.016416311 0.72135407
0.0082166381 0.015406221 0.72150099
0.0082265818 0.014396548 0.72167265
0.0082379468 0.013386667 0.72186887
0.0082506314 0.012375981 0.72208798
0.0082647046 0.011364013 0.72233087
0.0082801497 0.010350227 0.7225976
0.0082969265 0.0093340576 0.72288728
0.0083150789 0.0083150864 0.72320074
0.0083345948 0.0072928071 0.72353768
0.0083555533 0.0062666833 0.72389954
0.0083779432 0.0052362382 0.72428608
0.0084018195 0.0042009056 0.72469842
0.0084273238 0.0031602383 0.72513878
0.0084543349 0.0021135807 0.72560519
0.0084830327 0.0010603964 0.72610068
0.0085134786 2.9802322e-08 0.72662634
0.008545679 -0.0010681748 0.72718239
0.0085797934 -0.0021449625 0.7277714
0.0086158346 -0.0032309294 0.72839367
0.0086540999 -0.004327029 0.72905439
0.008694645 -0.0054340959 0.72975451
0.0087375287 -0.0065531433 0.73049498
0.0087831384 -0.0076852143 0.73128247
0.0088315541 -0.0088315606 0.73211843
0.0088830264 -0.0099934042 0.73300725
0.0089377202 -0.011172116 0.73395157
0.0089960163 -0.012369514 0.73495817
0.0090584559 -0.013587683 0.7360363
0.0091256173 -0.014829129 0.73719591
0.0091977632 -0.016096056 0.73844165
0.0092761917 -0.017392844 0.7397958
0.0093616014 -0.01872319 0.74127054
0.0094558829 -0.020093709 0.74289858
0.0095611438 -0.021512538 0.74471599
0.0096805366 -0.02299124 0.74677753
0.0098192533 -0.024548113 0.74917269
0.009987765 -0.026217878 0.75208229
0.010211053 -0.028080374 0.7559377
0.010650463 -0.030620068 0.76352483
0.010230415 0.0466052 0.73664492
0.010017191 0.044520855 0.73337227
0.0098738139 0.042786568 0.73117173
0.0097622462 0.0412184 0.72945935
0.0096714143 0.039760292 0.72806531
0.0095940046 0.038376033 0.72687721
0.0095270723 0.037049741 0.72584987
0.0094686989 0.035770684 0.72495395
0.0094179567 0.034532547 0.72417521
0.0093728406 0.033325702 0.72348273
0.0093321549 0.032144129 0.72285825
0.009295499 0.030984998 0.72229576
0.0092626242 0.029846251 0.72179115
0.0092329085 0.028724611 0.72133505
0.0092064859 0.027619481 0.7209295
0.0091863265 0.026538283 0.7206201
0.0091725066 0.025479198 0.72040796
0.009165911 0.024442434 0.72030675
0.0091637447 0.023418486 0.72027349
0.0091633685 0.022399366 0.72026777
0.009164717 0.021384358 0.72028846
0.0091676991 0.020372689 0.72033423
0.0091723176 0.019363791 0.7204051
0.0091784196 0.01835686 0.7204988
0.0091861058 0.017351568 0.7206167
0.0091953846 0.016347349 0.72075915
0.0092062959 0.015343875 0.72092658
0.009218663 0.014340162 0.72111642
0.0092324624 0.013335764 0.7213282
0.0092477426 0.012330353 0.72156274
0.00926458 0.011323422 0.72182113
0.0092828944 0.010314345 0.72210222
0.0093026711 0.0093026459 0.72240579
0.0093240598 0.0082880855 0.72273409
0.0093470151 0.0072699487 0.72308636
0.0093716262 0.0062477887 0.72346407
0.0093979174 0.0052210689 0.7238676
0.0094258832 0.0041892827 0.72429687
0.0094555533 0.0031518638 0.72475219
0.0094870571 0.0021082759 0.7252357
0.0095203966 0.0010578632 0.72574741
0.0095557105 2.9802322e-08 0.72628951
0.0095931105 -0.0010658801 0.72686344
0.0096326405 -0.0021405816 0.72747016
0.0096745603 -0.0032248199 0.72811353
0.0097189648 -0.0043195486 0.72879511
0.0097659864 -0.0054255426 0.7295168
0.0098158047 -0.0065438449 0.73028141
0.0098686069 -0.0076755881 0.7310918
0.0099247042 -0.0088219643 0.73195279
0.0099844206 -0.009984374 0.73286927
0.010048141 -0.011164576 0.73384726
0.010116195 -0.012364209 0.73489183
0.01018894 -0.01358524 0.73600829
0.010267502 -0.014830828 0.73721409
0.010352246 -0.016103506 0.73851478
0.010444593 -0.017407626 0.73993206
0.010545827 -0.018748134 0.74148583
0.010658244 -0.020132214 0.74321115
0.010784979 -0.021569937 0.74515635
0.010930497 -0.023075461 0.74738979
0.011104314 -0.024676263 0.75005758
0.011323943 -0.02642253 0.75342846
0.01165856 -0.028498679 0.75856411
0.011738908 0.049303412 0.74178034
0.01126312 0.046178788 0.73520815
0.011057707 0.044230878 0.73237073
0.010910531 0.04255107 0.7303378
0.010795753 0.04102388 0.72875232
0.010699584 0.039588511 0.72742391
0.010618139 0.038225293 0.72629893
0.01054768 0.036916882 0.72532558
0.010485648 0.035651207 0.72446877
0.010430375 0.034420252 0.72370529
0.010381512 0.033220857 0.72303033
0.010338278 0.032048702 0.72243303
0.010299752 0.030899286 0.72190094
0.0102647 0.029767632 0.72141677
0.010233265 0.028653175 0.72098255
0.010205174 0.027553976 0.72059447
0.010179568 0.026466876 0.72024077
0.010156936 0.025392354 0.71992815
0.010140936 0.024338245 0.71970713
0.01013285 0.023305565 0.71959543
0.010131815 0.022290021 0.71958113
0.010134785 0.02128306 0.71962214
0.010139484 0.02027896 0.7196871
0.010145986 0.019277394 0.71977687
0.010154266 0.018277735 0.71989125
0.010164191 0.017279148 0.7200284
0.010175807 0.016281307 0.7201888
0.010189055 0.015283614 0.72037184
0.010203843 0.014285386 0.72057605
0.010220254 0.013286352 0.72080278
0.010238374 0.012286037 0.72105306
0.010258116 0.011283934 0.72132581
0.010279495 0.010279536 0.7216211
0.01030275 0.009272486 0.72194231
0.010327651 0.0082621574 0.72228628
0.010354332 0.0072480738 0.72265482
0.010382781 0.0062296987 0.72304779
0.010413064 0.0052065551 0.7234661
0.010445211 0.004178077 0.72391021
0.010479257 0.0031437874 0.72438043
0.01051542 0.0021030903 0.72487998
0.010553593 0.0010553896 0.72540724
0.010594046 2.9802322e-08 0.72596604
0.0106369 -0.0010637045 0.72655803
0.010682289 -0.0021364391 0.72718501
0.010730275 -0.0032190681 0.72784781
0.010781155 -0.0043124259 0.72855067
0.010835084 -0.0054175556 0.72929561
0.010892189 -0.0065352619 0.73008442
0.010952802 -0.0076669455 0.73092163
0.011017073 -0.0088136196 0.7318095
0.011085613 -0.0099770427 0.7327562
0.011158819 -0.011158794 0.73376739
0.011237286 -0.01236102 0.7348513
0.011321345 -0.013585597 0.73601246
0.011412143 -0.014835775 0.73726666
0.011510687 -0.01611495 0.73862791
0.011618433 -0.017427593 0.74011618
0.011737332 -0.018779725 0.74175858
0.011870571 -0.020179957 0.74359906
0.012022451 -0.02164036 0.74569702
0.012200651 -0.02318123 0.74815857
0.012419276 -0.024838507 0.75117844
0.012719925 -0.026711792 0.7553314
0.012646778 0.048287719 0.7384398
0.012292597 0.045817882 0.73399216
0.012090607 0.043965846 0.73145568
0.011942349 0.042341053 0.72959393
0.011821515 0.040838003 0.72807658
0.011721889 0.039428204 0.72682548
0.01163691 0.038084418 0.72575831
0.011562996 0.036791354 0.72483015
0.011497971 0.03553918 0.72401363
0.01144015 0.034320444 0.72328752
0.011388298 0.033129603 0.7226364
0.011341472 0.031962335 0.7220484
0.011299985 0.030818135 0.7215274
0.011262716 0.02969262 0.72105938
0.011229776 0.028584898 0.72064579
0.011199865 0.027490586 0.72027016
0.011173736 0.026410639 0.71994203
0.011149706 0.025340259 0.71964025
0.011128428 0.02428022 0.71937311
0.011110324 0.023230731 0.71914572
0.011100221 0.022200465 0.71901888
0.011097962 0.021187067 0.7189905
0.011103951 0.020189017 0.71906579
0.011112588 0.019194514 0.71917415
0.011123017 0.018201321 0.71930516
0.011135247 0.017209023 0.7194587
0.011149288 0.016217172 0.71963501
0.011165003 0.015225023 0.71983236
0.011182445 0.014232218 0.72005141
0.011201705 0.0132384 0.72029322
0.011222957 0.012243271 0.72056007
0.011245989 0.011245996 0.72084934
0.011270903 0.010246277 0.7211622
0.011297527 0.0092434287 0.72149658
0.011326119 0.0082372129 0.72185558
0.011356551 0.0072269142 0.72223777
0.011388932 0.0062121451 0.72264439
0.011423412 0.0051924586 0.72307736
0.011459908 0.0041672587 0.72353566
0.011498617 0.003136009 0.72402179
0.011539583 0.0020981133 0.72453618
0.011582974 0.0010530055 0.72508109
0.011628926 -0 0.72565812
0.011677534 -0.0010615587 0.72626853
0.011728949 -0.002132535 0.72691417
0.011783363 -0.0032136142 0.72759742
0.011841113 -0.0043058395 0.72832268
0.011902245 -0.0054101348 0.72909033
0.011967076 -0.0065274835 0.72990447
0.012035981 -0.0076592565 0.73076975
0.01210918 -0.0088066459 0.73168892
0.012187041 -0.0099712312 0.73266673
0.012270465 -0.01115495 0.73371422
0.012360081 -0.012360096 0.73483962
0.012456231 -0.013588607 0.73604703
0.01256054 -0.014844239 0.7373569
0.012674117 -0.016130716 0.73878312
0.012799176 -0.017453402 0.74035358
0.01293818 -0.018819153 0.74209917
0.013095472 -0.0202384 0.74407429
0.013277674 -0.021727055 0.74636227
0.013496182 -0.023311585 0.74910617
0.013780325 -0.02505511 0.75267434
0.014258667 -0.027221084 0.75868118
0.013640032 0.047740102 0.7366389
0.013324091 0.045524001 0.73300207
0.013122919 0.043743104 0.73068631
0.012969121 0.042149633 0.72891599
0.012846711 0.040681273 0.72750688
0.012742358 0.039288968 0.72630566
0.012652279 0.037956864 0.72526878
0.012573734 0.036673397 0.72436464
0.012504521 0.035429507 0.72356796
0.012444044 0.034221143 0.72287178
0.012390428 0.033041149 0.72225457
0.01234205 0.031883657 0.72169769
0.012298115 0.030745327 0.72119194
0.012258617 0.029624999 0.72073734
0.012223516 0.028521568 0.72033322
0.012191571 0.027431041 0.71996558
0.012163689 0.026354671 0.71964461
0.01213969 0.025291026 0.71936834
0.01211772 0.024235427 0.71911544
0.012098535 0.023188889 0.7188946
0.012081579 0.022149593 0.7186994
0.012069239 0.021121174 0.71855736
0.012066057 0.020110101 0.7185207
0.012072016 0.019114047 0.71858937
0.01208477 0.018127203 0.71873611
0.012099479 0.017140985 0.71890545
0.012115993 0.016154677 0.71909553
0.012134572 0.01516825 0.71930945
0.012155196 0.014181077 0.71954685
0.012177676 0.013192534 0.7198056
0.012202118 0.012202144 0.72008693
0.012228416 0.011209399 0.7203896
0.012256765 0.010213971 0.720716
0.012287022 0.0092152655 0.72106427
0.012319341 0.008212924 0.72143638
0.012353756 0.0072063804 0.72183239
0.012390471 0.0061952472 0.72225511
0.012429396 0.0051789284 0.72270316
0.012470701 0.0041569173 0.72317863
0.012514387 0.003128618 0.72368151
0.012560546 0.0020934641 0.72421283
0.012609408 0.0010508001 0.72477525
0.012661032 2.9802322e-08 0.72536951
0.012715708 -0.0010596514 0.72599894
0.012773508 -0.0021288693 0.72666419
0.012834745 -0.003208667 0.72736907
0.012899554 -0.0042998493 0.7281152
0.012968179 -0.0054033697 0.72890508
0.013041014 -0.0065204799 0.72974354
0.013118674 -0.0076525509 0.73063749
0.013201317 -0.008800894 0.73158878
0.01328946 -0.0099670589 0.73260337
0.013383604 -0.011152953 0.73368704
0.013485203 -0.012361407 0.73485661
0.013594672 -0.013594657 0.73611671
0.013713675 -0.014856488 0.7374866
0.013843955 -0.016151249 0.73898625
0.01398846 -0.017485529 0.74064964
0.014150644 -0.018867493 0.74251652
0.014336358 -0.020309836 0.74465436
0.01455551 -0.021833271 0.747177
0.014829499 -0.023480028 0.75033092
0.015226333 -0.025377244 0.75489891
0.014644718 0.04731372 0.73523641
0.014346216 0.045245767 0.73206466
0.01414591 0.043525904 0.7299363
0.013991459 0.041974396 0.72829515
0.013864069 0.040525734 0.72694159
0.013755892 0.0391514 0.72579217
0.013663523 0.037837476 0.72481072
0.013582353 0.036567867 0.72394824
0.013510398 0.035334915 0.72318357
0.013445978 0.034132093 0.72249913
0.013388519 0.032956362 0.7218886
0.013337666 0.031805217 0.72134829
0.013292863 0.030675828 0.72087222
0.013252038 0.029562235 0.72043836
0.013214895 0.028462857 0.72004372
0.013182497 0.027379066 0.71969944
0.013152629 0.026305288 0.71938211
0.013125971 0.025242269 0.71909881
0.013104525 0.024192959 0.718871
0.013084745 0.023149937 0.71866083
0.013067806 0.022114754 0.71848083
0.013053202 0.021085948 0.71832561
0.013040522 0.020062387 0.71819091
0.013036652 0.019053578 0.71814978
0.013041181 0.018057048 0.71819794
0.013057435 0.017075121 0.71837062
0.013077 0.016094804 0.71857852
0.01309862 0.015113801 0.71880823
0.013122273 0.014131725 0.71905953
0.013147932 0.01314795 0.71933216
0.013175623 0.012162089 0.71962649
0.01320546 0.011173874 0.71994346
0.013237381 0.010182619 0.72028267
0.013271553 0.0091879964 0.72064579
0.013308099 0.0081895888 0.72103405
0.013346966 0.0071868598 0.72144711
0.013388148 0.0061791837 0.72188461
0.013431731 0.005166024 0.72234774
0.013477806 0.0041469932 0.72283733
0.013526564 0.003121525 0.72335541
0.013578155 0.002088964 0.7239036
0.01363264 0.0010486543 0.72448254
0.013690377 -0 0.72509599
0.01375139 -0.0010578036 0.72574431
0.013815963 -0.0021255314 0.72643042
0.013884383 -0.0032040775 0.72715747
0.01395676 -0.0042943656 0.72792649
0.01403351 -0.0053974986 0.72874206
0.014114871 -0.0065145493 0.72960651
0.014201612 -0.0076469779 0.73052812
0.014294235 -0.0087963939 0.73151237
0.01439327 -0.0099645853 0.73256469
0.014499283 -0.011153281 0.73369116
0.014613608 -0.012365341 0.7349059
0.014737667 -0.013603985 0.73622411
0.014872883 -0.014872849 0.73766088
0.015021919 -0.016177446 0.73924446
0.015188398 -0.017525077 0.74101341
0.015377361 -0.018925995 0.74302125
0.015597786 -0.020397097 0.74536335
0.015865533 -0.02196762 0.7482084
0.016224125 -0.023712188 0.75201863
0.017042877 -0.026219785 0.76071835
0.015658775 0.046976328 0.73412687
0.015373216 0.045021564 0.73130935
0.015170501 0.043344319 0.72930926
0.015011119 0.041816711 0.72773665
0.0148791 0.04038617 0.72643411
0.014767642 0.039028794 0.72533441
0.014670391 0.037723899 0.72437477
0.014586666 0.036466688 0.72354877
0.014512536 0.035244763 0.7228173
0.01444627 0.034051955 0.72216356
0.01438667 0.032883823 0.7215755
0.014332687 0.031736672 0.72104287
0.014284743 0.030610174 0.72056979
0.014241988 0.029501289 0.72014797
0.014204381 0.028408736 0.71977693
0.01417001 0.027327865 0.71943784
0.014140366 0.026260674 0.71914524
0.014113236 0.025202215 0.71887755
0.014088832 0.024152339 0.71863681
0.014069218 0.023113728 0.71844327
0.014051839 0.022081465 0.71827185
0.01403791 0.02105692 0.7181344
0.014025474 0.020036429 0.71801168
0.014015747 0.019021392 0.71791571
0.014010559 0.018013567 0.71786451
0.014015464 0.017018765 0.71791291
0.014032138 0.016036749 0.71807742
0.014056772 0.015060812 0.71832055
0.014083637 0.014083654 0.71858549
0.014112567 0.013104528 0.718871
0.014143968 0.012123376 0.71918082
0.014177633 0.011139572 0.71951294
0.014213643 0.010152638 0.7198683
0.014251982 0.0091620088 0.72024655
0.014292737 0.0081672966 0.72064865
0.014335895 0.0071679652 0.72107446
0.01438165 0.0061635971 0.72152597
0.014430048 0.0051535964 0.72200346
0.014481241 0.004137516 0.72250861
0.014535284 0.0031147003 0.72304177
0.014592545 0.0020847023 0.72360677
0.014653043 0.0010466576 0.72420371
0.014717112 2.9802322e-08 0.72483581
0.014784842 -0.0010560155 0.72550404
0.014856589 -0.0021223426 0.72621197
0.014932464 -0.0031997859 0.72696066
0.01501296 -0.0042894185 0.72775483
0.015098324 -0.0053922534 0.7285971
0.01518893 -0.0065095127 0.72949106
0.015285341 -0.0076426268 0.73044229
0.0153885 -0.0087934434 0.73146021
0.015499175 -0.0099637508 0.73255217
0.015617952 -0.011155665 0.73372412
0.015746363 -0.012372106 0.73499107
0.015886169 -0.013616711 0.7363705
0.01603972 -0.014894038 0.73788553
0.016209887 -0.016209841 0.73956448
0.016402036 -0.017573565 0.74146032
0.016623378 -0.018998116 0.74364424
0.016886933 -0.020505518 0.74624461
0.017223002 -0.022143841 0.74956053
0.017745053 -0.024082571 0.75471139
0.017205697 0.049323052 0.73807228
0.016675536 0.046691507 0.73319012
0.016394425 0.044811428 0.73060143
0.016189808 0.043172866 0.72871715
0.016027061 0.041670382 0.72721839
0.015892144 0.040260106 0.72597599
0.015777089 0.038916826 0.72491646
0.015676683 0.037624031 0.72399181
0.015588758 0.036373794 0.72318214
0.015510598 0.035157382 0.72246242
0.015441874 0.033972144 0.72182947
0.015381125 0.032813072 0.72127008
0.015326326 0.031674415 0.72076541
0.015276412 0.030552834 0.7203058
0.015231503 0.029447585 0.7198922
0.015191821 0.028358072 0.71952683
0.015156208 0.027281165 0.71919882
0.015124964 0.026216596 0.71891105
0.015098601 0.025164366 0.7186684
0.015074213 0.024118751 0.71844375
0.015052951 0.023081213 0.71824801
0.015034788 0.022051007 0.71808076
0.015020208 0.02102831 0.71794641
0.015009394 0.020012558 0.71784681
0.014999906 0.018999875 0.71775943
0.01499305 0.017991692 0.71769637
0.014988264 0.016986728 0.71765232
0.014993907 0.015993506 0.71770424
0.015010505 0.015010536 0.71785712
0.015039857 0.014037222 0.71812737
0.015072685 0.013063014 0.71842968
0.015107855 0.012086302 0.71875352
0.015145401 0.01110664 0.71909934
0.015185358 0.010123581 0.71946728
0.015227864 0.0091367662 0.71985865
0.015272961 0.0081455708 0.72027397
0.015320745 0.0071496665 0.72071403
0.015371266 0.0061485171 0.72117925
0.015424788 0.0051415861 0.72167218
0.015481477 0.0041283965 0.72219425
0.015541346 0.0031082928 0.72274548
0.015604516 0.0020806193 0.72332722
0.015671395 0.0010448098 0.72394311
0.015742071 5.9604645e-08 0.72459388
0.015816806 -0.001054436 0.72528219
0.015895879 -0.002119422 0.72601032
0.015979582 -0.0031959116 0.72678119
0.016068511 -0.0042849183 0.7276001
0.016163003 -0.005387634 0.72847027
0.01626347 -0.0065053701 0.72939551
0.0163706 -0.0076396167 0.73038203
0.016484756 -0.0087918043 0.73143315
0.016608113 -0.0099648535 0.73256922
0.016740741 -0.011160493 0.73379058
0.016884448 -0.012381941 0.73511398
0.017041899 -0.01363349 0.73656392
0.017215922 -0.014920413 0.73816645
0.017410643 -0.016249925 0.7399596
0.017632861 -0.017632812 0.74200594
0.017893348 -0.019086242 0.74440473
0.018214891 -0.020643473 0.74736583
0.018662347 -0.022394806 0.75148636
0.01815119 0.048781335 0.73633224
0.017683718 0.04641977 0.73229641
0.01739959 0.04458645 0.72984344
0.017199531 0.04299885 0.72811621
0.017035674 0.0415245 0.72670162
0.016900023 0.040137589 0.72553051
0.016782185 0.038808852 0.72451317
0.016679766 0.037529498 0.72362894
0.016589688 0.03628996 0.72285134
0.016509451 0.035082608 0.72215861
0.016437534 0.033902407 0.72153771
0.016372943 0.032745898 0.72098011
0.016316017 0.031612307 0.72048867
0.016265875 0.030498505 0.7200557
0.016220242 0.029399216 0.71966177
0.01617866 0.028312653 0.71930277
0.016142653 0.027240783 0.71899188
0.016109644 0.026178211 0.71870697
0.016080953 0.025126517 0.71845919
0.01605789 0.024086833 0.71826011
0.01603662 0.023052663 0.71807647
0.016018752 0.022025824 0.71792221
0.016003506 0.021004617 0.7177906
0.015991189 0.019989014 0.71768433
0.015983455 0.018980384 0.71761745
0.015977068 0.017974228 0.71756232
0.015973797 0.016972154 0.71753412
0.015972402 0.015972465 0.71752203
0.01597739 0.014978826 0.71756518
0.015995543 0.013996124 0.71772182
0.016028032 0.01302278 0.71800232
0.016066998 0.012050271 0.71833873
0.016108446 0.011074573 0.71869659
0.016152628 0.010095388 0.719078
0.016199645 0.0091123581 0.71948397
0.016249543 0.0081247985 0.71991479
0.016302321 0.007132262 0.72037041
0.016358141 0.0061343312 0.72085226
0.016417062 0.0051303506 0.72136098
0.016479263 0.0041198432 0.72189796
0.016544983 0.0031021833 0.7224654
0.016614538 0.0020768344 0.72306585
0.016687956 0.0010430217 0.72369963
0.01676563 2.9802322e-08 0.72437024
0.016847726 -0.0010529757 0.725079
0.016934607 -0.0021167994 0.72582912
0.017026775 -0.0031925142 0.72662479
0.017124325 -0.0042810738 0.72746694
0.017228177 -0.0053837895 0.72836357
0.017339168 -0.0065021515 0.72932178
0.017457619 -0.0076376796 0.73034436
0.017584193 -0.0087920725 0.73143715
0.017720666 -0.0099678636 0.73261535
0.017868593 -0.011167854 0.7338925
0.018029252 -0.012395114 0.7352795
0.018206192 -0.013654619 0.73680705
0.018403636 -0.014952928 0.73851162
0.018626677 -0.016298324 0.74043721
0.018884746 -0.017704427 0.74266517
0.019196732 -0.019196749 0.74535871
0.019603476 -0.020828664 0.74887025
0.020321632 -0.022861838 0.75507033
0.018947953 0.047927201 0.73358834
0.018541576 0.045808613 0.73028636
0.018309245 0.044157594 0.72839856
0.0181395 0.042681217 0.72701931
0.018005196 0.041306049 0.72592807
0.017882979 0.039973736 0.72493494
0.017776025 0.038689017 0.7240659
0.017678129 0.037436068 0.72327048
0.017586933 0.036208391 0.72252947
0.017505698 0.035011411 0.72186941
0.017432183 0.033838928 0.72127205
0.017366255 0.032689452 0.72073638
0.01730657 0.03155905 0.72025138
0.017253239 0.030446887 0.71981806
0.017206442 0.029352188 0.71943778
0.01716508 0.028271914 0.71910167
0.017127167 0.02720201 0.71879363
0.017095026 0.026145339 0.71853244
0.01706554 0.025096387 0.71829289
0.01703891 0.024054945 0.71807647
0.017019408 0.023026317 0.71791804
0.017001381 0.022001803 0.71777153
0.016987272 0.020984262 0.71765685
0.016975064 0.019970715 0.71755773
0.016965553 0.018961519 0.71748042
0.016961113 0.01795885 0.71744436
0.016958553 0.016958565 0.71742356
0.016959121 0.015961558 0.71742815
0.016961398 0.014965951 0.71744668
0.016967773 0.013973445 0.71749848
0.016987383 0.012990385 0.7176578
0.017021643 0.012015253 0.71793622
0.017067613 0.011043787 0.71830976
0.017116554 0.010068566 0.71870744
0.017168228 0.0090890825 0.71912724
0.017222911 0.0081049204 0.71957159
0.017280662 0.0071155727 0.7200408
0.017341714 0.0061205924 0.72053689
0.017406134 0.0051194727 0.7210604
0.017474236 0.004111588 0.72161376
0.017546222 0.0030964017 0.72219872
0.017622182 0.0020731986 0.72281587
0.017702518 0.0010413229 0.72346866
0.017787596 2.9802322e-08 0.72415996
0.01787754 -0.0010516047 0.72489077
0.017972806 -0.002114445 0.72566485
0.018073743 -0.0031894445 0.72648501
0.018180987 -0.0042778552 0.72735637
0.018294867 -0.0053808093 0.7282818
0.018416625 -0.0064999759 0.72927105
0.018547155 -0.0076370239 0.73033166
0.018687073 -0.0087938905 0.73146856
0.018838098 -0.009973079 0.7326957
0.019002507 -0.011177957 0.73403168
0.019182321 -0.012412071 0.73549271
0.019381456 -0.013681024 0.73711073
0.019605199 -0.014992177 0.73892874
0.01986183 -0.016356796 0.741014
0.020166369 -0.017793834 0.74348855
0.020547647 -0.019338936 0.74658656
0.021107128 -0.021107078 0.75113261
0.020207418 0.049395889 0.7347002
0.019627003 0.046886772 0.73024601
0.019357799 0.045168191 0.72818017
0.019170692 0.043666601 0.72674429
0.019021105 0.04226914 0.72559637
0.018901557 0.040953398 0.72467893
0.018803362 0.039696008 0.72392535
0.018720508 0.038481086 0.72328955
0.018644614 0.037289262 0.72270709
0.018571069 0.036110461 0.7221427
0.018497465 0.034939706 0.72157788
0.018423935 0.033777237 0.72101367
0.018357091 0.032634854 0.72050071
0.018297046 0.031511605 0.7200399
0.018242363 0.030403972 0.71962029
0.018193012 0.029311001 0.7192415
0.01814965 0.028232813 0.71890873
0.018111883 0.027167857 0.71861893
0.01807818 0.026112944 0.71836036
0.018049898 0.025069326 0.71814328
0.018024189 0.024032295 0.71794599
0.0180014 0.02300179 0.71777105
0.017984103 0.021980584 0.71763837
0.017969495 0.020964384 0.7175262
0.017959427 0.01995495 0.71744895
0.017950756 0.018948048 0.71738249
0.01794534 0.017945379 0.71734083
0.017943475 0.016946644 0.71732652
0.0179454 0.015951484 0.71734136
0.017949672 0.014958084 0.71737409
0.017956294 0.013966054 0.71742493
0.017965274 0.012974948 0.71749383
0.017986521 0.011991024 0.71765691
0.01802407 0.0110147 0.71794504
0.018076656 0.010042578 0.71834862
0.01813305 0.0090665519 0.71878135
0.018192641 0.0080856383 0.7192387
0.018255675 0.0070994198 0.71972239
0.018322095 0.0061073601 0.72023219
0.018392473 0.0051090121 0.72077215
0.018466709 0.00410375 0.72134185
0.018545335 0.0030909181 0.72194529
0.018628199 0.0020698011 0.72258121
0.018715795 0.0010397732 0.72325337
0.018808382 -0 0.72396392
0.018906564 -0.0010503531 0.72471738
0.019010702 -0.0021122694 0.7255165
0.019121116 -0.0031868219 0.72636378
0.019238487 -0.0042752028 0.72726452
0.0193634 -0.0053786635 0.72822315
0.019496618 -0.0064988732 0.72924548
0.019640181 -0.0076378584 0.73034716
0.01979458 -0.0087975562 0.73153204
0.01996132 -0.0099806488 0.73281157
0.020144226 -0.011191249 0.73421526
0.020345429 -0.012433261 0.73575926
0.020569878 -0.013713241 0.73748171
0.02082523 -0.015040427 0.73944128
0.021123614 -0.016429454 0.74173111
0.021486841 -0.017905712 0.74451852
0.02197695 -0.019535065 0.74827963
0.020579763 0.047658414 0.72924548
0.020310577 0.045966089 0.72728842
0.020201223 0.044655353 0.72649342
0.020030929 0.043224633 0.72525537
0.019903433 0.041901976 0.7243284
0.019793762 0.040629327 0.72353113
0.019702865 0.039405763 0.72287029
0.019625878 0.038218856 0.72231054
0.019560926 0.037062824 0.72183836
0.019505894 0.035931915 0.72143829
0.019455858 0.034815758 0.72107452
0.019403547 0.033700943 0.72069418
0.019343564 0.032578647 0.72025812
0.019284479 0.031464159 0.71982855
0.019229745 0.030362785 0.71943063
0.019180268 0.029275179 0.71907091
0.019135904 0.028200299 0.71874833
0.019096971 0.027137816 0.71846533
0.01906186 0.026084691 0.7182101
0.019032327 0.025042534 0.71799541
0.019008255 0.024010479 0.71782035
0.018986475 0.02298364 0.71766198
0.018967737 0.021962643 0.71752578
0.018952787 0.020947874 0.71741706
0.018942112 0.019939095 0.71733952
0.018936398 0.018936455 0.71729791
0.01893145 0.017935067 0.71726197
0.018930689 0.016937971 0.71725643
0.018931704 0.015942544 0.71726376
0.018938493 0.014951468 0.71731317
0.018946812 0.013960809 0.71737367
0.018958382 0.01297155 0.71745777
0.018971941 0.011982292 0.71755636
0.018994069 0.01099658 0.71771729
0.019036174 0.010019094 0.71802336
0.019094519 0.0090447664 0.71844757
0.019159587 0.0080672204 0.71892059
0.019228371 0.007084161 0.71942067
0.01930088 0.006095022 0.71994781
0.019377328 0.0050992966 0.72050357
0.019458136 0.0040964782 0.72109109
0.019543471 0.0030858219 0.72171146
0.019633584 0.0020667017 0.72236657
0.019728798 0.0010383725 0.72305882
0.019829467 5.9604645e-08 0.72379071
0.019936157 -0.0010492504 0.72456634
0.020049052 -0.0021104217 0.72538716
0.02016928 -0.0031846166 0.72626126
0.020297516 -0.0042731166 0.72719347
0.020434191 -0.005377382 0.72818714
0.020580214 -0.0064989924 0.72924876
0.020737313 -0.007640034 0.73039085
0.020907497 -0.008803159 0.73162818
0.021091832 -0.009990871 0.73296833
0.021295244 -0.011207998 0.73444712
0.021520797 -0.012459397 0.73608685
0.021774901 -0.01375255 0.73793435
0.022067953 -0.015099108 0.7400648
0.022417808 -0.016518354 0.74260831
0.022867339 -0.018053174 0.74587649
0.023585593 -0.019861549 0.75109833
0.021604288 0.048609674 0.72884065
0.021301305 0.04686287 0.72674799
0.021097004 0.045358598 0.72533697
0.020938443 0.043970764 0.72424185
0.020815996 0.042672813 0.72339618
0.020714721 0.04142946 0.72269672
0.02068425 0.040334314 0.7224862
0.020595796 0.039132029 0.72187531
0.020528479 0.037977695 0.72141039
0.020464489 0.036836088 0.72096837
0.020415461 0.035727054 0.72062975
0.020371411 0.034631401 0.72032553
0.020335402 0.033553421 0.7200768
0.020302223 0.032483578 0.71984774
0.020262869 0.031407446 0.71957588
0.020214597 0.030321926 0.71924245
0.020166207 0.029240996 0.71890831
0.020122206 0.028171122 0.71860439
0.020082461 0.027111322 0.71832991
0.020048007 0.026062429 0.71809191
0.020017307 0.025021642 0.71787989
0.019990666 0.023988813 0.71769589
0.019970998 0.022966653 0.71756005
0.019953379 0.021948785 0.71743834
0.019938998 0.020935982 0.71733904
0.019928109 0.019928128 0.71726382
0.019920833 0.018924803 0.71721363
0.019919299 0.017927378 0.71720302
