# .PCD v0.7 - Point Cloud Data file format
VERSION 0.7
FIELDS x y z
SIZE 4 4 4
TYPE F F F
COUNT 1 1 1
WIDTH 1341
HEIGHT 1
VIEWPOINT 0 0 0 1 0 0 0
POINTS 1341
DATA ascii
0.010411765 -0.011568636 0.73942822
0.010448018 -0.012769759 0.73998463
0.010486496 -0.013981938 0.74057519
0.01052737 -0.015206188 0.74120253
0.010571109 -0.016443938 0.74187386
0.010617782 -0.017696261 0.74259025
0.010667291 -0.018964052 0.74335003
0.01071997 -0.020248801 0.74415863
0.010775903 -0.021551788 0.74501705
0.010835757 -0.022875458 0.74593574
0.010899562 -0.024221212 0.74691498
0.010967717 -0.025591314 0.74796098
0.011040736 -0.026988447 0.74908173
0.011119075 -0.028415382 0.75028414
0.011203361 -0.029875606 0.75157773
0.011294698 -0.031374127 0.75297964
0.011393985 -0.03291592 0.75450349
0.011502887 -0.034508646 0.75617486
0.011622616 -0.036159217 0.75801247
0.011757091 -0.037883937 0.7600764
0.01190985 -0.039699435 0.76242095
0.01208772 -0.041635484 0.76515102
0.012303305 -0.043745071 0.7684598
0.012587338 -0.046153545 0.77281916
0.01313358 -0.049615741 0.78120291
0.012427269 0.029825449 0.75128889
0.012127466 0.027893186 0.74714762
0.011958158 0.02630794 0.74480897
0.011835754 0.024855107 0.74311817
0.011740576 0.02348119 0.74180341
0.01166336 0.022160381 0.74073684
0.011598947 0.020878136 0.73984706
0.011544691 0.019626021 0.7390976
0.011499205 0.018398762 0.73846924
0.011460165 0.017190248 0.73793006
0.011427579 0.015998632 0.73747993
0.011400069 0.014820129 0.73709989
0.011377043 0.013652444 0.73678184
0.011358271 0.012494117 0.73652256
0.011343282 0.0113433 0.73631549
0.011331613 0.010198444 0.73615432
0.011323328 0.0090586841 0.73603988
0.011318115 0.0079226792 0.73596781
0.011315401 0.0067892373 0.73593038
0.011315444 0.0056577325 0.73593092
0.011318286 0.0045273304 0.7359702
0.011323501 0.0033970773 0.73604226
0.011330965 0.0022662282 0.73614538
0.011341033 0.0011341274 0.73628443
0.011353458 -0 0.73645604
0.011367867 -0.0011367798 0.73665506
0.011384795 -0.0022769272 0.73688889
0.011404223 -0.0034212172 0.73715729
0.011425603 -0.0045702159 0.73745263
0.011449357 -0.0057246685 0.73778069
0.011475776 -0.0068854392 0.73814559
0.011504276 -0.0080529451 0.73853928
0.011535019 -0.0092279911 0.73896396
0.011568672 -0.010411769 0.73942888
0.011604695 -0.011604697 0.73992646
0.011643131 -0.012807459 0.74045742
0.011684256 -0.014021099 0.74102545
0.011728445 -0.015246987 0.74163592
0.011775441 -0.016485631 0.74228501
0.01182526 -0.017737865 0.74297321
0.011878253 -0.019005179 0.74370515
0.011935122 -0.020289689 0.74449074
0.011995635 -0.02159211 0.74532658
0.012059649 -0.022913337 0.74621087
0.012128009 -0.024256021 0.74715513
0.012200952 -0.02562198 0.74816275
0.012279085 -0.027013987 0.74924201
0.012363053 -0.028435022 0.75040185
0.012453183 -0.029887617 0.75164688
0.012550353 -0.031375885 0.75298905
0.012655835 -0.032905132 0.75444615
0.012770668 -0.034480751 0.75603235
0.012896936 -0.036111444 0.75777662
0.013037777 -0.037809521 0.75972199
0.013195237 -0.03958571 0.76189703
0.01337589 -0.041465253 0.76439255
0.013588513 -0.043483227 0.76732945
0.013854384 -0.045719475 0.77100205
0.014230534 -0.048383802 0.77619791
0.013713661 0.028674006 0.75183725
0.013399881 0.026799798 0.74789691
0.013216523 0.02523157 0.74559438
0.01308306 0.023787379 0.74391848
0.012979194 0.022418648 0.74261415
0.012894425 0.021099985 0.74154961
0.012824113 0.019819111 0.74066669
0.012765015 0.018567324 0.73992461
0.012714906 0.017338514 0.7392953
0.012672449 0.0161286 0.73876214
0.012636861 0.01493448 0.73831522
0.012606814 0.013752908 0.73793793
0.012581843 0.012581825 0.73762447
0.012561648 0.011419684 0.73737079
0.012545511 0.010264516 0.73716819
0.012533014 0.0091149211 0.73701125
0.012524233 0.0079699457 0.73690099
0.012518913 0.0068284869 0.73683417
0.012516423 0.0056892633 0.73680288
0.012516902 0.0045516193 0.7368089
0.012520446 0.0034146905 0.73685336
0.012526919 0.0022776425 0.73693466
0.0125358 0.001139611 0.73704618
0.012547195 -0 0.73718929
0.012561552 -0.0011419356 0.7373696
0.012578361 -0.0022869408 0.7375806
0.012597493 -0.0034356415 0.73782086
0.012619506 -0.004588902 0.73809731
0.012644089 -0.0057472587 0.73840606
0.012671123 -0.0069114864 0.73874557
0.012700788 -0.0080823004 0.73911798
0.012733365 -0.0092606246 0.73952717
0.012768404 -0.010446846 0.73996717
0.01280604 -0.01164183 0.74043971
0.012846977 -0.012846947 0.7409538
0.012890765 -0.014062643 0.74150372
0.012937156 -0.015289396 0.74208629
0.012986923 -0.016528815 0.74271119
0.013040296 -0.017782211 0.74338144
0.013096889 -0.019050002 0.74409211
0.013156777 -0.020333201 0.74484414
0.013220956 -0.021634281 0.74565005
0.013289487 -0.022954553 0.74651062
0.013362335 -0.024295151 0.74742544
0.013440069 -0.02565828 0.74840158
0.013522904 -0.027045786 0.7494418
0.013611523 -0.028460473 0.75055462
0.013706881 -0.029905885 0.75175202
0.01380941 -0.031385005 0.7530396
0.013920411 -0.032902777 0.75443351
0.014041163 -0.034464657 0.75594985
0.014173661 -0.036078393 0.75761366
0.014319395 -0.037751108 0.75944376
0.014481477 -0.039494932 0.76147908
0.01466533 -0.041329533 0.76378781
0.014877012 -0.043278575 0.76644605
0.01513239 -0.045397133 0.76965296
0.015461526 -0.04779014 0.77378607
0.015991498 -0.050882012 0.78044116
0.015014929 0.027527422 0.75246537
0.014684215 0.02569738 0.74865854
0.014487206 0.024145395 0.74639076
0.014343272 0.022710204 0.74473387
0.014230316 0.021345496 0.74343365
0.014138143 0.020029038 0.74237263
0.014061823 0.018749118 0.74149418
0.013997952 0.01749748 0.7407589
0.013943425 0.016267359 0.74013126
0.013897707 0.015055865 0.73960495
0.013858955 0.013858944 0.73915887
0.013826418 0.012674242 0.73878431
0.013799686 0.011499733 0.73847663
0.013778161 0.010333657 0.73822886
0.013761002 0.0091740191 0.73803139
0.013747696 0.0080195069 0.7378782
0.013738487 0.0068692565 0.73777223
0.013733095 0.0057221353 0.73771012
0.013731087 0.0045770407 0.73768705
0.013732302 0.0034331083 0.737701
0.013736478 0.0022894442 0.7377491
0.013744095 0.0011453331 0.73783678
0.01375469 2.9802322e-08 0.73795867
0.01376785 -0.0011473 0.73811018
0.013783909 -0.002297312 0.73829508
0.013803155 -0.0034507811 0.73851657
0.013825132 -0.0046083629 0.73876959
0.013849651 -0.0057706535 0.73905182
0.01387744 -0.0069386661 0.73937166
0.01390816 -0.0081130564 0.73972523
0.013941302 -0.0092941821 0.74010676
0.013977831 -0.010483354 0.74052727
0.014017527 -0.011681288 0.74098426
0.014059773 -0.012888074 0.74147046
0.014105452 -0.014105439 0.74199635
0.014154741 -0.015334278 0.74256372
0.014206919 -0.01657474 0.74316436
0.014262732 -0.017828405 0.74380684
0.014322491 -0.019096613 0.74449468
0.014386116 -0.020380318 0.7452271
0.014453644 -0.021680415 0.7460044
0.014525533 -0.02299875 0.74683189
0.014602142 -0.024336904 0.7477138
0.014684155 -0.025697231 0.74865782
0.014771862 -0.027081728 0.74966741
0.014865388 -0.028491944 0.75074399
0.014965627 -0.029931247 0.75189793
0.015073273 -0.031402618 0.75313705
0.015189393 -0.032910377 0.75447369
0.015315331 -0.034459502 0.75592339
0.015452536 -0.036055923 0.75750273
0.015603128 -0.037707537 0.75923622
0.015769077 -0.039422661 0.76114643
0.015956622 -0.041221291 0.76330531
0.016169025 -0.043117404 0.76575029
0.0164192 -0.045152783 0.76863003
0.016724678 -0.047386557 0.7721464
0.017140122 -0.049991965 0.7769286
0.016326277 0.026373237 0.75310403
0.01598089 0.024585992 0.74943405
0.015770335 0.023048967 0.74719685
0.015616119 0.02162233 0.7455582
0.015494331 0.020261824 0.74426413
0.015395119 0.01894784 0.74320996
0.015312742 0.017668575 0.7423346
0.015243852 0.01641649 0.7416026
0.015185416 0.015185416 0.7409817
0.015135952 0.013971657 0.7404561
0.015094173 0.012772024 0.74001223
0.015059543 0.011584312 0.73964423
0.015031029 0.010406137 0.7393412
0.015008041 0.0092357397 0.73909694
0.014989885 0.0080714822 0.73890406
0.014976008 0.006911993 0.73875666
0.014966442 0.0057563484 0.73865497
0.01496094 0.0046033859 0.73859656
0.014959493 0.0034522116 0.73858112
0.014961636 0.0023018122 0.73860389
0.01496679 0.0011513233 0.73865867
0.014975485 2.9802322e-08 0.73875105
0.014987794 -0.001152873 0.73888189
0.015002973 -0.0023081005 0.73904312
0.015021043 -0.0034663677 0.73923516
0.015042668 -0.0046285093 0.73946494
0.015067525 -0.0057951808 0.73972905
0.015095057 -0.0069669783 0.74002165
0.015126004 -0.0081447661 0.74035037
0.015160465 -0.009329468 0.74071658
0.015197593 -0.010521412 0.7411111
0.015238205 -0.011721671 0.74154258
0.015282597 -0.012931377 0.74201429
0.015329802 -0.01415056 0.74251592
0.015380665 -0.015380681 0.74305642
0.015435502 -0.016622841 0.74363899
0.015493897 -0.017877579 0.74425948
0.015556113 -0.019145966 0.74492055
0.015622303 -0.020429164 0.74562395
0.015693262 -0.021729141 0.74637783
0.015768984 -0.02304697 0.74718249
0.015849533 -0.024383873 0.74803835
0.015934847 -0.025740862 0.74894488
0.016026266 -0.027121365 0.74991626
0.016123915 -0.028526902 0.75095379
0.016228551 -0.029960394 0.75206566
0.016341113 -0.031425178 0.75326169
0.016462043 -0.032924056 0.75454664
0.016592605 -0.034461528 0.75593394
0.016734377 -0.036043257 0.75744033
0.016889138 -0.037675798 0.75908482
0.017059948 -0.039369106 0.76089972
0.017250553 -0.041135937 0.76292503
0.017463828 -0.042987883 0.7651912
0.017710952 -0.044958562 0.76781702
0.018003572 -0.047086239 0.7709263
0.018372659 -0.049464822 0.7748481
0.018916242 -0.052383423 0.78062403
0.017648099 0.025211573 0.75375479
0.01728973 0.02346465 0.75021887
0.017065927 0.02194193 0.74801075
0.01690167 0.020523459 0.7463901
0.016771296 0.019167185 0.74510372
0.016665164 0.017855555 0.74405646
0.016577115 0.016577154 0.74318779
0.016502801 0.015324086 0.74245453
0.01644057 0.014091909 0.74184054
0.016387574 0.012875944 0.74131763
0.016343124 0.011673659 0.74087912
0.016306257 0.010482579 0.74051535
0.016275853 0.0093005002 0.74021536
0.016251395 0.0081256926 0.73997402
0.016232386 0.0069567263 0.73978645
0.016218157 0.0057922304 0.73964614
0.016208624 0.0046310723 0.73955202
0.0162032 0.0034721494 0.7394985
0.016201939 0.0023145676 0.7394861
0.01620503 0.0011574924 0.73951656
0.016211338 -0 0.73957884
0.016221508 -0.0011586845 0.73967922
0.016235359 -0.0023193061 0.73981583
0.016252598 -0.0034826994 0.73998594
0.016272988 -0.0046494007 0.74018711
0.016297193 -0.0058204234 0.74042588
0.016324991 -0.0069963932 0.74070013
0.01635558 -0.0081777573 0.74100196
0.016390089 -0.0093657672 0.74134248
0.016428504 -0.010561198 0.74172151
0.016469836 -0.011764139 0.74212927
0.016514717 -0.012975842 0.74257213
0.016563859 -0.014197588 0.74305701
0.016616611 -0.015429705 0.74357748
0.016672973 -0.016672969 0.74413359
0.016733212 -0.017928451 0.74472797
0.016798293 -0.01919803 0.74537003
0.016867572 -0.020482033 0.74605358
0.016941078 -0.021781355 0.74677885
0.01701919 -0.023097456 0.74754959
0.017103083 -0.024432927 0.74837732
0.017192706 -0.025789022 0.74926162
0.017287793 -0.027166516 0.75019974
0.017389528 -0.028568476 0.7512036
0.017497981 -0.029996514 0.75227362
0.017614277 -0.031454057 0.75342107
0.017739305 -0.032944381 0.75465477
0.017874176 -0.034471601 0.75598538
0.018020311 -0.036040604 0.75742728
0.018179644 -0.037657827 0.75899929
0.018354597 -0.039331257 0.76072556
0.018547395 -0.04106921 0.76262784
0.018762026 -0.042884618 0.76474547
0.019007592 -0.044803619 0.7671684
0.019291172 -0.046849996 0.76996642
0.019635152 -0.049087852 0.77336031
0.020088173 -0.051655263 0.77783012
0.01898472 0.024047345 0.75445509
0.018611582 0.02233386 0.75101894
0.018375155 0.020825207 0.74884164
0.018200327 0.01941368 0.74723172
0.018061349 0.018061399 0.74595189
0.017948423 0.016751885 0.74491191
0.017854746 0.015474141 0.74404931
0.017775562 0.014220446 0.74332011
0.017709231 0.012986839 0.74270922
0.017652817 0.01176855 0.74218976
0.01760586 0.010563552 0.74175733
0.017566686 0.0093689263 0.74139661
0.017534442 0.0081827641 0.74109972
0.017508635 0.0070034564 0.74086201
0.017488798 0.0058296025 0.74067938
0.017474275 0.0046598315 0.74054563
0.0174649 0.003493011 0.74045932
0.017459638 0.0023280084 0.7404108
0.017458957 0.0011639595 0.74040449
0.01746292 2.9802322e-08 0.74044102
0.017470578 -0.0011646748 0.74051154
0.017482013 -0.002330929 0.74061686
0.017497715 -0.0034995079 0.7407614
0.01751723 -0.0046712458 0.74094117
0.017540095 -0.0058466792 0.74115175
0.017566826 -0.007026732 0.7413978
0.017597802 -0.0082122982 0.74168319
0.017632164 -0.009403795 0.74199957
0.017670019 -0.010601997 0.74234807
0.017712323 -0.011808187 0.74273771
0.017758438 -0.01302281 0.74316239
0.017808275 -0.014246583 0.74362129
0.017861824 -0.01548025 0.74411446
0.017920302 -0.01672563 0.74465299
0.017982861 -0.017982811 0.74522913
0.01804922 -0.019252509 0.74584019
0.018120483 -0.020536512 0.74649644
0.018197134 -0.021836549 0.74720234
0.01827848 -0.023152769 0.74795139
0.018364714 -0.024486244 0.74874556
0.018456805 -0.025839508 0.74959362
0.01855561 -0.027214885 0.75050342
0.018661099 -0.028613657 0.75147486
0.018773716 -0.03003791 0.75251198
0.01889402 -0.031490028 0.75361979
0.019023096 -0.032973319 0.75480843
0.01916209 -0.034491777 0.75608844
0.019312073 -0.036049187 0.75746959
0.019474959 -0.037651539 0.75896955
0.01965273 -0.039305449 0.76060665
0.019848073 -0.04101932 0.76240557
0.020064106 -0.042803407 0.764395
0.020309184 -0.044680208 0.76665187
0.020586701 -0.046663195 0.76920748
0.020916337 -0.04880479 0.77224302
0.021322435 -0.051173806 0.77598274
0.021891447 -0.053998888 0.78122264
0.020332834 0.022874445 0.75516701
0.019945888 0.021192521 0.75182641
0.019697446 0.019697487 0.74968147
0.019512236 0.018292755 0.74808258
0.019364698 0.01694414 0.74680877
0.019245181 0.015636742 0.74577695
0.019145986 0.014359504 0.74492055
0.01906177 0.013104975 0.74419355
0.018991549 0.011869758 0.74358726
0.018932007 0.010649264 0.74307323
0.018882349 0.0094412267 0.74264455
0.018841002 0.0082429349 0.74228758
0.018807122 0.0070527196 0.7419951
0.018780177 0.0058687925 0.74176246
0.018759444 0.0046898723 0.74158347
0.018744666 0.0035146773 0.74145585
0.018735366 0.0023419261 0.74137557
0.01873035 0.001170665 0.74133229
0.018730426 2.9802322e-08 0.74133295
0.018735366 -0.001170963 0.74137563
0.018744592 -0.0023430884 0.74145526
0.018757746 -0.0035170615 0.74156874
0.018775137 -0.0046937466 0.74171889
0.018797018 -0.0058740675 0.74190784
0.018822819 -0.007058531 0.74213064
0.018852426 -0.0082479119 0.74238616
0.018886246 -0.0094431341 0.74267817
0.018924553 -0.010645032 0.74300891
0.01896672 -0.011854202 0.74337292
0.019012645 -0.013071179 0.74376941
0.019063529 -0.014297605 0.74420869
0.0191186 -0.015533864 0.7446841
0.019177547 -0.016780347 0.74519312
0.01924129 -0.01803869 0.74574333
0.019310238 -0.019310236 0.74633861
0.019383393 -0.020594835 0.74697018
0.019461401 -0.021894038 0.74764365
0.019545337 -0.023210108 0.74836838
0.01963478 -0.024543434 0.7491405
0.019730033 -0.025895655 0.74996281
0.01983167 -0.027268559 0.75084031
0.01993962 -0.028663188 0.75177222
0.020055344 -0.030082971 0.75277132
0.020179177 -0.031529933 0.75384045
0.020312004 -0.033006996 0.75498724
0.020454764 -0.034517407 0.75621963
0.020608377 -0.036064625 0.75754583
0.020774469 -0.037653714 0.75897974
0.02095525 -0.039291084 0.76054049
0.021152642 -0.04098323 0.7622447
0.021371627 -0.042743236 0.76413524
0.021615893 -0.044582784 0.76624405
0.021889949 -0.04651612 0.76861012
0.022209644 -0.048583597 0.77137005
0.02259114 -0.050830036 0.77466363
0.023076264 -0.05336383 0.77885181
0.02169523 0.021695226 0.75591123
0.021294083 0.020041525 0.75265175
0.021032842 0.018558383 0.75052905
0.020837449 0.017160237 0.74894136
0.02068273 0.015816242 0.74768424
0.020556001 0.014510155 0.74665451
0.020450899 0.013232946 0.7458005
0.020361863 0.011977613 0.74507701
0.020287836 0.010740638 0.7444756
0.020225018 0.0095176995 0.74396515
0.020172887 0.0083065033 0.74354154
0.020129675 0.0071045756 0.74319041
0.020094391 0.0059101284 0.74290371
0.020066317 0.0047215223 0.74267554
0.020044837 0.0035373271 0.74250102
0.02002975 0.0023564398 0.74237841
0.020020548 0.0011776984 0.74230361
0.02001611 -0 0.74226761
0.020016743 -0.0011774302 0.74227279
0.020022769 -0.0023555756 0.74232173
0.020033639 -0.0035353303 0.74241006
0.02004897 -0.0047173798 0.74253464
0.02006839 -0.0059024394 0.74269241
0.020092236 -0.0070913732 0.74288619
0.020121261 -0.0082852244 0.74312204
0.02015423 -0.0094843507 0.7433899
0.020191174 -0.010689408 0.74369013
0.020233193 -0.011901855 0.74403155
0.02027986 -0.013122231 0.74441075
0.020330176 -0.014350682 0.74481952
0.020385589 -0.015588969 0.74526978
0.020446187 -0.016838014 0.74576217
0.020510886 -0.018097788 0.74628794
0.020580351 -0.019369721 0.74685234
0.020655606 -0.020655602 0.74746382
0.020736003 -0.021955788 0.74811709
0.020821745 -0.023271322 0.74881375
0.020912867 -0.024603337 0.74955422
0.021010378 -0.025953978 0.75034654
0.021115148 -0.027325481 0.75119781
0.021226762 -0.028718561 0.75210476
0.02134542 -0.030134708 0.75306886
0.021472339 -0.031576961 0.75410014
0.021607976 -0.033047497 0.75520229
0.021753386 -0.034549505 0.75638378
0.021910159 -0.036087275 0.75765765
0.022079524 -0.037665039 0.7590338
0.022263089 -0.039287776 0.76052541
0.022463698 -0.040963173 0.76215535
0.022684328 -0.042699903 0.76394808
0.022927828 -0.044506937 0.76592672
0.023199586 -0.046399146 0.76813483
0.023512147 -0.048407376 0.77067459
0.023875901 -0.050560713 0.7736302
0.0243205 -0.052932858 0.77724278
0.023069324 0.020506084 0.75666261
0.022656512 0.018880457 0.75349462
0.022382738 0.017408818 0.75139368
0.022176977 0.016016692 0.74981469
0.022014638 0.014676422 0.74856889
0.021880653 0.013371557 0.74754059
0.02176987 0.012094408 0.74669051
0.021676166 0.010838151 0.74597138
0.021598155 0.0095992088 0.74537277
0.021532303 0.0083736777 0.74486738
0.021477876 0.0071592927 0.74444973
0.021432729 0.0059535503 0.74410319
0.021396151 0.0047547221 0.74382252
0.021367114 0.0035611987 0.74359977
0.021344878 0.0023716986 0.74342912
0.021329485 0.0011849999 0.74331093
0.021320563 2.9802322e-08 0.7432425
0.021316914 -0.0011842847 0.74321449
0.021318866 -0.0023687482 0.74322951
0.021325575 -0.0035542548 0.74328095
0.021338072 -0.0047417879 0.74337685
0.021355607 -0.0059320927 0.74351138
0.021377524 -0.0071258247 0.74367964
0.021403851 -0.0083236992 0.7438817
0.021435561 -0.0095268786 0.74412501
0.02147219 -0.010736108 0.7444061
0.021512661 -0.011951447 0.74471664
0.021558577 -0.013174653 0.74506903
0.021609664 -0.014406413 0.74546111
0.021664934 -0.015646875 0.74588525
0.021725075 -0.016897261 0.74634677
0.021791138 -0.01815927 0.74685371
0.021862244 -0.019433111 0.74739939
0.021938132 -0.020719349 0.74798179
0.022019347 -0.022019297 0.74860495
0.022107372 -0.023335546 0.74928045
0.022201166 -0.024667919 0.7500003
0.022300962 -0.026017785 0.7507661
0.022406816 -0.027386099 0.75157845
0.022520782 -0.028776526 0.75245309
0.022642713 -0.030190259 0.7533887
0.022772653 -0.031628668 0.75438589
0.02291174 -0.033094704 0.75545323
0.023060381 -0.034590542 0.75659394
0.023220124 -0.036120147 0.75781977
0.023392316 -0.0376876 0.75914127
0.023578392 -0.039297312 0.76056921
0.023780866 -0.040955931 0.76212299
0.024002008 -0.04267019 0.76381999
0.024245517 -0.044450104 0.76568872
0.024516456 -0.046308845 0.76776791
0.024823179 -0.048267275 0.77012175
0.025173847 -0.050347686 0.77281278
0.025589982 -0.052601606 0.77600628
0.024456877 0.019308031 0.75743264
0.024032382 0.017708093 0.75434649
0.023746761 0.016247809 0.75226998
0.023530886 0.014861643 0.75070053
0.023360547 0.013524532 0.74946213
0.02321953 0.01222083 0.74843699
0.023102855 0.010943472 0.74758875
0.023005128 0.0096863806 0.74687827
0.022922816 0.0084452927 0.74627978
0.022854391 0.0072171986 0.74578238
0.022797408 0.0059993565 0.74536806
0.02275032 0.0047895908 0.74502575
0.022712644 0.0035862327 0.74475181
0.022682831 0.0023877025 0.74453503
0.02266 0.0011926591 0.74436909
0.022644289 2.9802322e-08 0.74425483
0.02263549 -0.0011912882 0.74419087
0.022632953 -0.0023823977 0.74417245
0.022636216 -0.0035741329 0.74419618
0.022644471 -0.0047672391 0.74425614
0.022658363 -0.0059626997 0.74435723
0.022678006 -0.0071614385 0.74450004
0.022702606 -0.0083640814 0.7446788
0.022731559 -0.0095711648 0.74488938
0.022766452 -0.01078409 0.74514294
0.0228067 -0.012003481 0.7454356
0.022851156 -0.013229579 0.74575877
0.022900889 -0.014463723 0.74612045
0.022956712 -0.015707195 0.74652624
0.02301731 -0.016960084 0.74696678
0.023083037 -0.018223405 0.74744463
0.023154069 -0.01949814 0.74796104
0.023231653 -0.020786196 0.74852514
0.023314761 -0.022087634 0.7491293
0.023403019 -0.023403019 0.74977094
0.023498006 -0.024734735 0.75046152
0.023600172 -0.026084393 0.75120431
0.023708997 -0.027452499 0.75199544
0.023824759 -0.028840482 0.75283706
0.023948453 -0.030250669 0.75373638
0.024080312 -0.031684637 0.75469494
0.024221936 -0.033145785 0.75572455
0.024373643 -0.034636229 0.75682753
0.024536099 -0.036158413 0.7580086
0.024711002 -0.037716776 0.75928015
0.024899492 -0.039314985 0.76065052
0.025103474 -0.040958315 0.76213348
0.025325688 -0.042653769 0.763749
0.025568983 -0.044409275 0.76551783
0.025840256 -0.046240449 0.76749003
0.026142238 -0.048156768 0.76968551
0.026483843 -0.050179899 0.77216899
0.026881473 -0.052348107 0.77505982
0.025858914 0.018101245 0.75822574
0.025421692 0.016524076 0.75520605
0.025124669 0.015074819 0.75315464
0.02489917 0.013694555 0.75159717
0.024720866 0.012360454 0.75036567
0.024572881 0.011057824 0.74934357
0.024450451 0.0097802281 0.74849802
0.024348661 0.0085220635 0.74779499
0.024262747 0.0072788298 0.74720156
0.024191301 0.0060478449 0.74670815
0.02413163 0.0048263371 0.74629599
0.024082871 0.0036124587 0.74595928
0.024044029 0.0024044216 0.745691
0.024013644 0.0012007058 0.74548113
0.023990689 2.9802322e-08 0.74532259
0.023975218 -0.0011987388 0.74521577
0.023966426 -0.0023966134 0.74515504
0.023964496 -0.0035946667 0.74514174
0.023969226 -0.0047938228 0.74517435
0.02397918 -0.005994767 0.74524313
0.023994753 -0.0071984231 0.74535072
0.02401665 -0.0084058344 0.74550194
0.024044029 -0.0096175969 0.745691
0.024076145 -0.010834247 0.74591279
0.02411392 -0.012056917 0.74617374
0.024157895 -0.013286829 0.74647743
0.024206955 -0.014524162 0.74681628
0.02426126 -0.015769809 0.74719137
0.024321083 -0.017024726 0.74760449
0.024387496 -0.018290639 0.74806321
0.024459301 -0.01956743 0.74855918
0.024536084 -0.020855635 0.74908942
0.024619667 -0.022157729 0.74966675
0.024710288 -0.023474753 0.75029266
0.024806542 -0.024806499 0.75095737
0.024909286 -0.026154727 0.75166702
0.025019407 -0.027521342 0.75242758
0.025137518 -0.028908134 0.75324333
0.025263613 -0.030316323 0.75411427
0.025398243 -0.031747758 0.75504404
0.025541665 -0.033204198 0.75603461
0.025695369 -0.034688741 0.75709623
0.025859702 -0.036203563 0.75823116
0.026036289 -0.037752599 0.75945079
0.026226632 -0.0393399 0.76076543
0.026432578 -0.040970474 0.76218784
0.026656467 -0.042650312 0.76373422
0.02690145 -0.04438737 0.76542616
0.027170945 -0.04619059 0.76728743
0.027469089 -0.048070878 0.76934665
0.027804231 -0.050047606 0.7716614
0.028188469 -0.05214864 0.77431512
0.027277209 0.016885906 0.75905031
0.026824968 0.015328586 0.75607556
0.026516881 0.01388979 0.75404906
0.026282096 0.012515306 0.75250471
0.026095735 0.011183888 0.75127888
0.025941383 0.0098824501 0.75026351
0.025813894 0.0086046457 0.74942493
0.025707003 0.0073449016 0.74872184
0.025618004 0.0060995221 0.74813646
0.025543192 0.0048653781 0.74764442
0.025481496 0.0036402345 0.74723852
0.025431069 0.0024220049 0.74690682
0.025390953 0.0012091398 0.74664295
0.025360022 -0 0.74643946
0.025336875 -0.0012064874 0.74628723
0.025321772 -0.0024115741 0.74618787
0.025313357 -0.003616184 0.74613255
0.025312228 -0.0048213601 0.74612516
0.025318282 -0.0060281157 0.74616492
0.025330193 -0.007237196 0.74624324
0.025347875 -0.0084492862 0.74635965
0.025371768 -0.0096654296 0.74651676
0.025402004 -0.01088655 0.74671561
0.025437698 -0.012113154 0.74695045
0.025479104 -0.013346195 0.74722278
0.025526175 -0.014586329 0.74753243
0.025580021 -0.015835196 0.7478866
0.025639566 -0.017093033 0.74827826
0.025704145 -0.018360078 0.748703
0.025775649 -0.019638568 0.7491734
0.025853755 -0.020929217 0.74968714
0.025937505 -0.022232145 0.75023806
0.026027331 -0.023548514 0.75082886
0.026124991 -0.024880916 0.75147128
0.026229667 -0.02622962 0.75215977
0.026341401 -0.027595729 0.75289476
0.026460372 -0.028980404 0.75367737
0.026587211 -0.030385345 0.75451159
0.026723843 -0.031814098 0.75541037
0.026870094 -0.033267707 0.75637233
0.027026022 -0.03474775 0.75739801
0.027193001 -0.036257356 0.7584964
0.027371651 -0.037798911 0.75967157
0.027564095 -0.039377213 0.76093733
0.027771484 -0.040995985 0.76230156
0.027996192 -0.042660862 0.76377958
0.028240902 -0.044378519 0.7653892
0.028508786 -0.046157062 0.7671513
0.028803701 -0.048006147 0.76909119
0.029134382 -0.049944609 0.77126634
0.029524297 -0.05201897 0.77383107
0.02983271 0.017628402 0.76694012
0.028708657 0.015659302 0.75988239
0.028242212 0.014121145 0.75695372
0.027923997 0.01269275 0.75495571
0.027680399 0.011323839 0.75342619
0.027485391 0.0099946856 0.75220186
0.02732469 0.0086942613 0.75119281
0.027192386 0.0074160993 0.7503621
0.027081521 0.0061548948 0.74966609
0.026988467 0.004907012 0.74908173
0.026911097 0.003669709 0.74859595
0.026847269 0.0024406612 0.74819523
0.026794933 0.0012179613 0.74786663
0.026753517 -0 0.74760652
0.026721831 -0.0012146235 0.74740756
0.026698822 -0.0024271607 0.74726319
0.02668434 -0.0036387742 0.74717224
0.026676398 -0.0048502386 0.74712229
0.026676182 -0.006062746 0.74712104
0.026683688 -0.0072773695 0.74716812
0.026697733 -0.0084947348 0.74725634
0.026717903 -0.0097155869 0.74738294
0.026744004 -0.010940701 0.74754679
0.026776839 -0.012171268 0.74775296
0.026816458 -0.013408214 0.74800175
0.02686182 -0.014651895 0.74828655
0.026912756 -0.015902966 0.74860632
0.026970889 -0.017163277 0.7489714
0.027035752 -0.018433481 0.74937868
0.027105868 -0.019713342 0.74981886
0.027182672 -0.021004766 0.75030112
0.027267182 -0.022309482 0.75083178
0.027358053 -0.023627371 0.75140226
0.027455635 -0.024959624 0.75201499
0.027559951 -0.026307225 0.75266999
0.027672904 -0.027672917 0.75337923
0.027794106 -0.029057443 0.75414014
0.027922925 -0.030461371 0.75494897
0.028060164 -0.031886518 0.75581068
0.028207147 -0.033335716 0.75673354
0.02836428 -0.034810692 0.75772011
0.028533377 -0.036315203 0.75878191
0.028714454 -0.037850857 0.75991881
0.028908312 -0.039420396 0.76113594
0.029117242 -0.041028827 0.76244783
0.029342892 -0.042680562 0.7638647
0.029587314 -0.044380963 0.76539934
0.029854218 -0.046138316 0.76707512
0.030147081 -0.047961235 0.76891392
0.030474111 -0.049866736 0.77096725
0.031175951 0.01626575 0.76686323
0.030153316 0.014421195 0.76072156
0.029676339 0.012902796 0.75785691
0.029345822 0.011483163 0.75587195
0.029093686 0.010119557 0.75435764
0.028889952 0.008792609 0.75313407
0.028723627 0.0074931085 0.75213522
0.028586181 0.0062144101 0.75130969
0.028471475 0.0049515665 0.75062078
0.028374864 0.0037010908 0.75004053
0.028294815 0.0024604499 0.74955976
0.028228607 0.001227349 0.7491622
0.028174656 -0 0.74883813
0.028132012 -0.0012231171 0.74858207
0.028099539 -0.002443403 0.74838698
0.028076816 -0.003662169 0.74825054
0.028062878 -0.0048804879 0.74816686
0.028056202 -0.0060991049 0.74812675
0.028057007 -0.007319212 0.74813163
0.028065527 -0.0085416436 0.74818277
0.02808189 -0.009767592 0.748281
0.028104851 -0.010997564 0.74841899
0.028133981 -0.012232125 0.74859387
0.028169435 -0.013472348 0.74880683
0.028212655 -0.014719635 0.74906635
0.028262431 -0.015974432 0.74936533
0.028317656 -0.017236799 0.74969697
0.028380046 -0.018508732 0.75007164
0.028450398 -0.019791543 0.75049424
0.028526692 -0.021084934 0.75095242
0.028609615 -0.022390127 0.75145042
0.028699765 -0.023708463 0.75199187
0.028798243 -0.025041908 0.75258327
0.028903868 -0.026390463 0.75321764
0.029016551 -0.027754933 0.75389433
0.029137434 -0.029137433 0.75462043
0.029267719 -0.030540228 0.75540292
0.029407009 -0.031964123 0.75623941
0.029555677 -0.033410788 0.75713229
0.029714627 -0.034882367 0.75808686
0.029884174 -0.036380738 0.75910515
0.03006597 -0.03790924 0.76019692
0.030260833 -0.039470643 0.76136726
0.030470449 -0.041068852 0.76262617
0.030696759 -0.042708516 0.7639854
0.030941565 -0.044394374 0.7654556
0.031208521 -0.046134323 0.76705891
0.031501003 -0.04793632 0.76881546
0.031823132 -0.049810082 0.77075005
0.032590244 0.014937222 0.76720178
0.031611063 0.013171285 0.7615661
0.031125421 0.01167205 0.75877094
0.030783376 0.010261148 0.75680226
0.030522337 0.0089024007 0.75529993
0.030310927 0.0075777471 0.75408304
0.030139165 0.0062790215 0.75309449
0.029996036 0.0049993396 0.75227076
0.029877003 0.003734678 0.75158566
0.029777166 0.0024814308 0.75101101
0.029694412 0.001237303 0.75053471
0.029626375 -0 0.75014317
0.02957114 -0.0012321174 0.74982524
0.02952759 -0.0024605989 0.74957454
0.029494401 -0.0036867857 0.74938357
0.029471505 -0.0049118698 0.74925172
0.029458126 -0.006137073 0.74917471
0.029452655 -0.0073631406 0.7491433
0.029455207 -0.0085910559 0.74915791
0.029465057 -0.0098216534 0.74921465
0.029483071 -0.011056125 0.7493183
0.029509034 -0.012295395 0.74946773
0.029541399 -0.013539791 0.74965405
0.029579964 -0.014789969 0.74987602
0.029626744 -0.016047806 0.75014526
0.029680952 -0.017313898 0.75045723
0.029741306 -0.018588275 0.7508046
0.029808503 -0.019872338 0.75119138
0.029883759 -0.021167636 0.75162452
0.029966693 -0.022474974 0.75210178
0.03005654 -0.02379474 0.75261903
0.03015317 -0.025127649 0.75317514
0.030258372 -0.026476026 0.7537806
0.030372582 -0.027841538 0.75443798
0.030494299 -0.02922371 0.75513852
0.030624615 -0.030624628 0.75588858
0.030763742 -0.032045543 0.75668925
0.030913102 -0.033489168 0.75754893
0.031073792 -0.034958005 0.75847381
0.031245325 -0.036452889 0.75946105
0.031428583 -0.037976205 0.76051581
0.031625073 -0.039531291 0.76164675
0.03183553 -0.041120857 0.76285797
0.032062482 -0.042749941 0.76416427
0.032307457 -0.044422716 0.76557422
0.032573439 -0.046145707 0.76710504
0.032863345 -0.047925681 0.76877362
0.033186674 -0.049780011 0.77063453
0.034039408 0.013615787 0.76770592
0.033087187 0.011911392 0.76244462
0.032590583 0.010428995 0.75970072
0.032237869 0.0090266168 0.75775182
0.03196634 0.0076719522 0.75625157
0.031748075 0.006349653 0.75504559
0.031570531 0.0050513148 0.75406462
0.03142203 0.0037706494 0.75324404
0.031298619 0.0025039017 0.75256217
0.031195529 0.001247853 0.75199258
0.031110289 2.9802322e-08 0.75152165
0.031040413 -0.0012415648 0.75113553
0.030984014 -0.0024787188 0.75082392
0.030939788 -0.0037127733 0.75057954
0.030905833 -0.0049448907 0.75039196
0.030883111 -0.0061766207 0.75026637
0.030870162 -0.0074088275 0.75019485
0.03086606 -0.0086424351 0.75017214
0.030870417 -0.0098784864 0.75019622
0.030882213 -0.011117578 0.75026143
0.030902237 -0.012360901 0.75037205
0.030930907 -0.013609588 0.75053048
0.03096672 -0.014864028 0.75072837
0.031009343 -0.016124845 0.75096381
0.031059215 -0.017393142 0.75123942
0.031117842 -0.018670708 0.75156337
0.031183751 -0.019957602 0.7519275
0.031256642 -0.02125451 0.75233024
0.03133674 -0.022562444 0.75277281
0.031426013 -0.02388373 0.75326604
0.031523284 -0.025218606 0.75380349
0.031627607 -0.026567191 0.75437999
0.031739946 -0.027931124 0.75500059
0.031861953 -0.029312968 0.75567478
0.031993438 -0.030713677 0.7564013
0.032133926 -0.032133907 0.75717753
0.032283641 -0.033574969 0.75800478
0.032443535 -0.035038978 0.75888819
0.032615174 -0.036528975 0.75983655
0.03279978 -0.038047731 0.76085657
0.032997463 -0.039596945 0.76194882
0.03320941 -0.041179657 0.76311982
0.03343657 -0.042798758 0.76437497
0.033681806 -0.044459969 0.76573008
0.033946779 -0.046167612 0.76719409
0.034234542 -0.047928363 0.76878405
0.035518229 0.012294769 0.76832879
0.034579795 0.010639966 0.7633431
0.034071337 0.0091730654 0.76064169
0.033708036 0.0077787936 0.75871164
0.033426505 0.0064281821 0.75721586
0.033201598 0.0051079392 0.75602102
0.033017859 0.0038097799 0.75504482
0.032863915 0.0025280118 0.75422692
0.032736465 0.0012591481 0.75354981
0.032630093 2.9802322e-08 0.75298464
0.032542616 -0.0012516379 0.75251997
0.032471005 -0.0024977326 0.75213945
0.032413565 -0.0037400126 0.75183433
0.032368787 -0.0049798191 0.75159645
0.03233508 -0.0062182844 0.7514174
0.03231198 -0.0074566007 0.75129461
0.032299154 -0.0086959004 0.75122648
0.032296728 -0.0099374652 0.75121361
0.032303069 -0.011181802 0.75124729
0.032317378 -0.012429744 0.75132328
0.032339543 -0.013682097 0.75144112
0.032370687 -0.014940292 0.75160658
0.032410167 -0.016205043 0.75181627
0.032457102 -0.017476887 0.75206566
0.032511417 -0.018756598 0.7523542
0.032573458 -0.020045221 0.75268388
0.03264511 -0.02134487 0.75306451
0.032724276 -0.022655249 0.75348508
0.032810643 -0.023977011 0.75394392
0.032905452 -0.025311857 0.75444764
0.033010107 -0.026661992 0.75500369
0.033122804 -0.028026998 0.75560236
0.03324385 -0.029407978 0.75624549
0.033373561 -0.030806333 0.75693458
0.033514161 -0.032225132 0.75768161
0.033665475 -0.033665448 0.7584855
0.033826593 -0.03512758 0.75934148
0.033998828 -0.03661406 0.76025653
0.034183249 -0.038127482 0.76123637
0.034380227 -0.039669454 0.76228285
0.034592014 -0.041244328 0.76340801
0.034819286 -0.042854458 0.76461542
0.0350645 -0.044504911 0.7659182
0.035328846 -0.046199262 0.76732266
0.035614915 -0.047943145 0.7688424
0.037009262 0.010965735 0.76896811
0.036088768 0.0093563795 0.76425874
0.035567328 0.0079038739 0.76159108
0.035194281 0.0065174699 0.75968254
0.034903161 0.0051708519 0.75819314
0.034671821 0.0038524568 0.75700963
0.03448154 0.002554208 0.75603616
0.034322362 0.0012712181 0.75522178
0.034190979 2.9802322e-08 0.75454962
0.034081414 -0.0012622774 0.7539891
0.033991531 -0.002517879 0.75352919
0.033918303 -0.0037686825 0.75315452
0.033860091 -0.0050162971 0.75285679
0.033814888 -0.0062620044 0.75262552
0.033781316 -0.0075069368 0.7524538
0.033759158 -0.0087523758 0.75234044
0.033746816 -0.0099990368 0.75227726
0.033744972 -0.011248291 0.75226784
0.033753768 -0.012501389 0.75231284
0.033770658 -0.013758391 0.75239921
0.033795819 -0.015020311 0.75252795
0.033829279 -0.016288161 0.75269914
0.033872232 -0.017563373 0.7529189
0.033923607 -0.018846422 0.75318176
0.033982903 -0.020137995 0.75348508
0.034049619 -0.021438599 0.75382638
0.034126025 -0.022750676 0.75421733
0.034211811 -0.024074972 0.7546562
0.034304917 -0.02541104 0.7551325
0.034406636 -0.026760727 0.7556529
0.03451756 -0.028125405 0.75622046
0.034638919 -0.02950719 0.75684124
0.034769408 -0.030906111 0.75750887
0.034908928 -0.032323062 0.7582227
0.035058446 -0.033759952 0.75898755
0.035219599 -0.03521958 0.75981206
0.035392687 -0.036703527 0.7606976
0.035578046 -0.038213462 0.76164591
0.03577619 -0.039751291 0.76265961
0.035988327 -0.041319937 0.76374489
0.036216058 -0.042922735 0.76490998
0.036460426 -0.044562727 0.76616019
0.036724057 -0.046245098 0.76750898
0.037176497 -0.048191756 0.76982367
0.038529679 0.0096324384 0.76970661
0.037613034 0.0080599785 0.76518446
0.037079431 0.006621331 0.76255202
0.036696896 0.0052424371 0.76066488
0.036397271 0.0038997233 0.75918669
0.036158778 0.0025827587 0.75801015
0.035961863 0.0012843609 0.75703877
0.035797682 2.9802322e-08 0.7562288
0.035662156 -0.001273632 0.75556016
0.035550103 -0.0025392771 0.75500739
0.035457764 -0.0037990212 0.75455183
0.035382882 -0.0050546825 0.75418246
0.035323896 -0.0063078105 0.75389141
0.035278555 -0.0075596571 0.75366771
0.035245255 -0.0088112652 0.75350344
0.035223935 -0.010063946 0.75339824
0.035212617 -0.011318326 0.75334245
0.035212018 -0.012575716 0.75333953
0.035222296 -0.013837308 0.75339019
0.035242271 -0.015103817 0.75348866
0.035270784 -0.016375721 0.75362939
0.03530772 -0.017653823 0.7538116
0.035353139 -0.018939167 0.75403565
0.035409514 -0.020233989 0.75431383
0.035474077 -0.021537811 0.75463229
0.03554631 -0.022851169 0.75498867
0.035627216 -0.024175584 0.75538778
0.03571922 -0.025513709 0.75584167
0.035820011 -0.026864976 0.75633889
0.035929434 -0.02823025 0.75687873
0.036047641 -0.029610574 0.75746191
0.036176689 -0.031008601 0.75809848
0.036316793 -0.032425702 0.75878972
0.036466766 -0.033861965 0.75952959
0.036627486 -0.035319358 0.76032245
0.036799226 -0.036799222 0.76116967
0.036982764 -0.038303554 0.76207513
0.03718175 -0.039837539 0.76305676
0.0373943 -0.04140082 0.76410538
0.037622213 -0.042996764 0.76522976
0.037866861 -0.044628799 0.7664367
0.0381402 -0.046313107 0.76778519
0.040069822 0.0082903206 0.77048814
0.039152663 0.0067504644 0.76611948
0.03860845 0.0053253174 0.76352727
0.038215999 0.0039533675 0.76165801
0.037909433 0.0026144385 0.76019776
0.037662439 0.0012987256 0.75902128
0.037459109 2.9802322e-08 0.75805283
0.037290502 -0.001285851 0.75724971
0.037151236 -0.0025621355 0.75658631
0.03703637 -0.003831327 0.7560392
0.036941979 -0.0050954223 0.7555896
0.036865707 -0.0063561201 0.75522625
0.036805451 -0.0076149106 0.75493926
0.036759958 -0.0088730752 0.7547226
0.036727086 -0.010131568 0.75456601
0.036706917 -0.011391789 0.75446993
0.036697078 -0.012654155 0.75442308
0.036698017 -0.01391992 0.75442755
0.036709573 -0.015190154 0.75448263
0.036732405 -0.01646623 0.75459135
0.036764659 -0.017748445 0.75474495
0.036805451 -0.019037306 0.75493926
0.036854677 -0.020333558 0.75517374
0.036914621 -0.021639556 0.75545931
0.036984753 -0.022956014 0.75579333
0.037063107 -0.024282694 0.75616646
0.037150595 -0.025621116 0.75658327
0.037247505 -0.026972324 0.75704491
0.037355918 -0.028338969 0.75756127
0.037473757 -0.029720545 0.75812256
0.037600864 -0.031117946 0.75872803
0.037737917 -0.032532662 0.75938082
0.037886787 -0.033967465 0.76008987
0.038047742 -0.035423756 0.76085651
0.038220063 -0.03690213 0.76167738
0.03840404 -0.038404018 0.76255369
0.03860119 -0.039932251 0.7634927
0.038812425 -0.041489154 0.76449889
0.039038528 -0.043076962 0.76557589
0.039282665 -0.04470095 0.76673871
0.041622877 0.006937176 0.77127707
0.04070881 0.0054278374 0.76706827
0.040155124 0.0040155351 0.76451886
0.039751682 0.0026501119 0.76266122
0.039438374 0.00131464 0.76121867
0.039183415 2.9802322e-08 0.76004469
0.038973399 -0.001299113 0.75907773
0.038801026 -0.0025867224 0.75828403
0.038658958 -0.0038658679 0.75762993
0.038541388 -0.0051388443 0.7570886
0.038444899 -0.0064074695 0.75664425
0.038366701 -0.0076733232 0.75628424
0.03830526 -0.0089378357 0.75600129
0.038259264 -0.010202467 0.75578958
0.038227137 -0.011468112 0.75564158
0.03820831 -0.012736112 0.75555491
0.038200129 -0.014006734 0.75551724
0.0382034 -0.01528132 0.75553232
0.038216654 -0.016560555 0.75559336
0.038241554 -0.017846078 0.75570798
0.038277648 -0.019138783 0.75587422
0.038322698 -0.020438761 0.75608158
0.038376767 -0.021746814 0.75633055
0.038440425 -0.023064256 0.75662363
0.038515598 -0.024393201 0.75696981
0.038600583 -0.025733709 0.75736111
0.038695008 -0.027086467 0.75779581
0.03879866 -0.028452337 0.75827312
0.038913224 -0.029833436 0.75880063
0.03903991 -0.03123191 0.75938392
0.03917636 -0.032646924 0.76001221
0.039323475 -0.034080327 0.76068956
0.03948148 -0.035533309 0.76141715
0.039652213 -0.037008703 0.76220322
0.039836518 -0.038508624 0.76305193
0.040033501 -0.040033519 0.76395887
0.040244784 -0.04158625 0.76493168
0.040471151 -0.04316923 0.76597404
0.040806934 -0.044887602 0.76752013
0.043194894 0.0055735707 0.77209949
0.042284559 0.0040920973 0.76804316
0.0417214 0.0026917458 0.7655338
0.04130568 0.0013324618 0.76368141
0.040984701 2.9802322e-08 0.76225114
0.040721666 -0.0013135672 0.76107907
0.040507142 -0.0026133358 0.76012313
0.040330999 -0.0039029717 0.75933826
0.040184915 -0.0051851273 0.75868738
0.040064771 -0.0064620376 0.75815207
0.039966464 -0.0077354312 0.75771403
0.039887097 -0.0090067387 0.75736034
0.039824728 -0.010277361 0.75708246
0.039777987 -0.0115484 0.75687414
0.039746091 -0.012821287 0.75673199
0.039728105 -0.014097065 0.75665188
0.039722115 -0.0153763 0.75662518
0.039727762 -0.016660005 0.75665045
0.039744034 -0.017948896 0.75672287
0.039771125 -0.019244045 0.75684357
0.039810281 -0.020547271 0.75701809
0.03985985 -0.021858603 0.75723898
0.039919224 -0.023178905 0.75750351
0.039988309 -0.024508953 0.75781131
0.040067207 -0.025849789 0.75816286
0.040158834 -0.027204335 0.75857115
0.040260553 -0.028571993 0.75902438
0.040372327 -0.029953629 0.75952244
0.040494151 -0.031350315 0.76006532
0.040628172 -0.032764614 0.76066244
0.040774617 -0.034198046 0.76131499
0.040932111 -0.035650551 0.76201683
0.041101456 -0.037123889 0.76277143
0.041283112 -0.038619667 0.7635808
0.041477945 -0.040139943 0.764449
0.041688383 -0.041688323 0.7653867
0.041948635 -0.043301791 0.76654637
0.044794582 0.0041995049 0.77299011
0.043880425 0.0027425289 0.76904398
0.043305166 0.0013532937 0.76656079
0.042878449 -0 0.76471877
0.042548902 -0.0013296604 0.76329631
0.042278219 -0.0026423633 0.76212782
0.042059045 -0.0039430261 0.76118171
0.041879147 -0.0052348673 0.76040518
0.041729666 -0.0065202713 0.7597599
0.041606519 -0.0078012347 0.75922835
0.041506354 -0.0090794861 0.75879592
0.04142613 -0.010356516 0.75844967
0.041363474 -0.011633486 0.75817919
0.041316424 -0.01291135 0.75797611
0.041284341 -0.014191478 0.75783759
0.041267335 -0.015475273 0.75776422
0.041263398 -0.01676324 0.75774723
0.041271809 -0.018056363 0.75778353
0.04129133 -0.019355297 0.75786775
0.041321985 -0.020660967 0.75800008
0.041363295 -0.021974236 0.75817835
0.041417297 -0.02329722 0.75841153
0.04148211 -0.02463001 0.75869131
0.041557103 -0.025973171 0.75901502
0.041642021 -0.027327538 0.75938159
0.041738633 -0.028695315 0.75979859
0.041848205 -0.030078381 0.76027167
0.041967981 -0.031475961 0.76078862
0.042099051 -0.032889873 0.76135445
0.042241067 -0.034320861 0.76196748
0.042395934 -0.035771549 0.76263595
0.042564701 -0.037244111 0.76336443
0.04274594 -0.038738489 0.76414675
0.042940166 -0.040256351 0.7649852
0.043170013 -0.041820943 0.76597738
0.04641002 0.0028127432 0.77389264
0.045492917 0.0013785958 0.77005374
0.044906318 -0 0.76759833
0.04447066 -0.0013475716 0.76577473
0.044131111 -0.0026746094 0.76435345
0.043853849 -0.0039867163 0.76319289
0.043630619 -0.0052885413 0.76225847
0.043445781 -0.0065827072 0.76148474
0.043292649 -0.0078714192 0.76084375
0.043167163 -0.0091566741 0.76031852
0.043065257 -0.010440052 0.75989193
0.042984147 -0.011722952 0.75955242
0.042921171 -0.013006389 0.75928879
0.042874858 -0.014291614 0.75909495
0.042843789 -0.015579551 0.75896496
0.042826775 -0.016871154 0.75889373
0.042824343 -0.018167883 0.75888348
0.04283556 -0.019470692 0.75893044
0.042858753 -0.020779967 0.7590276
0.042893223 -0.022096485 0.75917184
0.042938448 -0.02342093 0.75936115
0.042995445 -0.024754912 0.75959975
0.04306601 -0.026100606 0.75989509
0.043147426 -0.027457446 0.76023591
0.043239243 -0.028826118 0.76062024
0.043341979 -0.030207992 0.76105022
0.043457899 -0.031605721 0.76153553
0.043586634 -0.033020169 0.76207435
0.043726847 -0.034451455 0.76266122
0.04387895 -0.03590095 0.76329792
0.044043377 -0.037370116 0.76398611
0.04422139 -0.038861215 0.76473135
0.044430193 -0.040391058 0.76560533
0.04804061 0.0014129877 0.77480358
0.047122907 2.9802322e-08 0.77107519
0.046525344 -0.0013683736 0.76864743
0.046081353 -0.0027106702 0.76684368
0.045731638 -0.004035145 0.76542282
0.045450229 -0.0053470433 0.76427948
0.045220543 -0.0066500902 0.76334637
0.045031235 -0.0079466701 0.7625773
0.044874556 -0.0092388391 0.76194072
0.044746667 -0.010528624 0.7614212
0.044643346 -0.011817366 0.76100141
0.044561502 -0.013106316 0.76066887
0.044498745 -0.014396667 0.76041389
0.044452775 -0.015689224 0.76022714
0.044422891 -0.016985238 0.76010573
0.044407479 -0.018285394 0.76004314
0.044405725 -0.019590735 0.76003599
0.044419773 -0.020903409 0.76009303
0.044446521 -0.022223264 0.76020181
0.044485237 -0.023550987 0.76035905
0.044535398 -0.024887383 0.76056278
0.04459668 -0.026233315 0.76081181
0.04467155 -0.027591258 0.76111603
0.044759348 -0.028961927 0.7614727
0.044858433 -0.03034541 0.76187521
0.044969156 -0.031742901 0.76232505
0.045091685 -0.03315562 0.76282287
0.045228228 -0.034586281 0.76337767
0.045378428 -0.036035776 0.76398778
0.045541115 -0.037504435 0.7646488
0.045736603 -0.039010614 0.76544297
0.049688701 2.9802322e-08 0.77573156
0.048770715 -0.0013934374 0.77210855
0.04816277 -0.0027520955 0.76970923
0.047710873 -0.0040895045 0.76792574
0.047350802 -0.0054114759 0.76650465
0.047065191 -0.0067235827 0.76537746
0.04682973 -0.0080279112 0.76444817
0.04663565 -0.0093271136 0.76368225
0.046476148 -0.010623097 0.7630527
0.046345778 -0.011917502 0.76253819
0.046240982 -0.013211697 0.76212454
0.046158548 -0.014506966 0.76179928
0.046095796 -0.015804261 0.76155162
0.046050519 -0.017104477 0.76137292
0.046022218 -0.018408865 0.76126122
0.046008997 -0.01971814 0.76120901
0.046009809 -0.021033049 0.76121223
0.046024662 -0.022354811 0.76127088
0.046055414 -0.023685604 0.76139224
0.046098448 -0.025024891 0.76156211
0.046153639 -0.026373506 0.7617799
0.046220653 -0.027732372 0.76204437
0.046300013 -0.029102862 0.76235759
0.046393495 -0.03048712 0.76272649
0.046500441 -0.031885982 0.76314861
0.046619359 -0.033299506 0.76361787
0.046750855 -0.034729213 0.76413691
0.046894919 -0.036176056 0.76470548
0.047100332 -0.037680268 0.76551616
0.051367566 -0.0014268458 0.77672607
0.050435927 -0.0028019845 0.77315134
0.049818695 -0.0041515529 0.77078301
0.049359106 -0.0054843128 0.76901954
0.048991624 -0.0068043768 0.76760954
0.048699915 -0.0081166029 0.76649022
0.048458554 -0.0094224811 0.76556408
0.04825978 -0.010724396 0.76480138
0.048096962 -0.012024224 0.76417667
0.047964446 -0.013323456 0.76366824
0.047858313 -0.014623344 0.76326096
0.047775663 -0.015925199 0.7629438
0.047713067 -0.017229706 0.76270366
0.047668882 -0.018537909 0.76253414
0.047642365 -0.01985094 0.76243234
0.047631346 -0.021169454 0.76239002
0.047634948 -0.022494256 0.76240396
0.04765318 -0.023826569 0.76247388
0.047685441 -0.025167316 0.76259768
0.047733489 -0.026518613 0.7627821
0.047793794 -0.027879685 0.76301336
0.04786709 -0.029252112 0.76329464
0.047952846 -0.030636519 0.76362371
0.048050985 -0.03203398 0.7640003
0.04816534 -0.03344813 0.76443899
0.048293084 -0.034878314 0.76492918
0.048544023 -0.036407977 0.76589203
0.053063292 -0.0028682649 0.77772975
0.052123718 -0.0042262375 0.77422202
0.051496323 -0.0055671334 0.77187973
0.051026605 -0.0068954527 0.77012616
0.050653595 -0.0082140565 0.76873356
0.050353885 -0.0095264018 0.76761472
0.050106708 -0.010833859 0.76669192
0.049903784 -0.012138754 0.76593429
0.049738437 -0.013442814 0.76531702
0.049604353 -0.014747232 0.76481646
0.049496807 -0.016052991 0.76441491
0.04941301 -0.017361313 0.7641021
0.049350958 -0.018673301 0.76387042
0.049308054 -0.019989729 0.76371026
0.049283545 -0.02131179 0.76361871
0.049274936 -0.022639811 0.76358658
0.049281996 -0.023974985 0.76361299
0.049303859 -0.025318176 0.76369458
0.049339674 -0.026670098 0.76382828
0.04939061 -0.028032482 0.76401842
0.04945654 -0.029406577 0.76426458
0.049536243 -0.030792803 0.76456219
0.049628742 -0.032191604 0.76490748
0.049755532 -0.033618569 0.7653808
0.054776907 -0.004324466 0.77874559
0.053834658 -0.0056667924 0.77532053
0.053196069 -0.0069994926 0.77299917
0.052713703 -0.0083231926 0.77124578
0.052335564 -0.0096407533 0.76987118
0.052028362 -0.010953337 0.76875454
0.051775221 -0.012262523 0.76783431
0.051568966 -0.013570786 0.76708454
0.051402427 -0.014879614 0.76647913
0.051267181 -0.016189605 0.76598752
0.051158797 -0.017501682 0.76559353
0.051074177 -0.018816769 0.76528591
0.051011011 -0.020135909 0.76505631
0.050968677 -0.021460503 0.76490247
0.050945703 -0.022791475 0.76481891
0.05094019 -0.02412957 0.76479894
0.050950527 -0.025475234 0.76483643
0.050976727 -0.026829839 0.76493168
0.051017229 -0.028193712 0.7650789
0.051071867 -0.029567927 0.76527762
0.051143289 -0.030955136 0.7655372
0.051349409 -0.032431155 0.76628643
0.056507912 -0.0057956874 0.77977109
0.055565018 -0.0071236789 0.77643144
0.054915983 -0.0084486008 0.77413267
0.054421257 -0.00976789 0.77238035
0.054037888 -0.011084676 0.77102256
0.053722769 -0.012397528 0.7699064
