# .PCD v0.7 - Point Cloud Data file format
VERSION 0.7
FIELDS x y z
SIZE 4 4 4
TYPE F F F
COUNT 1 1 1
WIDTH 1307
HEIGHT 1
VIEWPOINT 0 0 0 1 0 0 0
POINTS 1307
DATA ascii
-0.021921288 0.022917718 0.71726614
-0.021799678 0.021799684 0.71650261
-0.02167948 0.020694077 0.71574783
-0.021560531 0.019600511 0.71500099
-0.02144295 0.018518925 0.71426278
-0.021326646 0.017449111 0.71353251
-0.021211525 0.016390741 0.71280968
-0.02109771 0.015343815 0.71209508
-0.020985045 0.014307976 0.71138769
-0.020873638 0.013283223 0.71068823
-0.020763412 0.012269288 0.7099961
-0.020654278 0.011265993 0.70931089
-0.019998528 0.009999305 0.70519352
-0.020101443 0.0091370344 0.70583975
-0.020330871 0.0083172023 0.70728028
-0.02060614 0.0074931383 0.70900863
-0.020810831 0.0066216588 0.71029383
-0.020934818 0.0057095289 0.71107233
-0.021020778 0.0047774613 0.71161205
-0.021107921 0.0038378239 0.71215916
-0.021198537 0.0028907359 0.71272814
-0.021294093 0.0019358397 0.71332812
-0.021392401 0.00097239017 0.71394539
-0.021500662 2.9802322e-08 0.71462512
-0.021610595 -0.00098228455 0.71531534
-0.021727502 -0.0019752085 0.71604937
-0.021849765 -0.0029794872 0.71681708
-0.021991728 -0.0039984584 0.71770841
-0.022313634 -0.0050712526 0.71972954
-0.022712629 -0.0061943531 0.72223485
-0.023148574 -0.0073654056 0.72497201
-0.023633635 -0.0085940361 0.72801757
-0.024184074 -0.009893477 0.73147368
-0.024832375 -0.011287421 0.7355442
-0.025660096 -0.012830019 0.74074119
-0.027086567 -0.014774501 0.74969774
-0.023450064 0.052483499 0.73387623
-0.023532325 0.051547021 0.73441738
-0.023592863 0.050556153 0.73481554
-0.023611864 0.049472511 0.73494053
-0.023478009 0.048074067 0.73406005
-0.023331968 0.04666397 0.73309946
-0.023187736 0.045271307 0.73215079
-0.023045445 0.043896109 0.73121476
-0.02290472 0.042537361 0.7302891
-0.022765787 0.041195244 0.7293753
-0.022628449 0.039869219 0.72847188
-0.022492837 0.038559169 0.72757989
-0.022358762 0.037264615 0.72669798
-0.022226354 0.035985529 0.72582698
-0.022095429 0.034721434 0.72496575
-0.021965958 0.033471942 0.72411418
-0.021838149 0.032237291 0.72327352
-0.021711819 0.031016886 0.72244251
-0.021586867 0.029810458 0.72162056
-0.021463418 0.028617948 0.72080863
-0.021341374 0.027438939 0.72000581
-0.021220637 0.026273161 0.71921158
-0.021101331 0.025120646 0.71842688
-0.020983359 0.023981035 0.71765089
-0.020866698 0.02285403 0.71688348
-0.020751258 0.021739453 0.71612418
-0.020637156 0.020637214 0.71537364
-0.020524235 0.019546896 0.71463084
-0.020412611 0.018468559 0.71389663
-0.020302193 0.017401874 0.71317035
-0.020192899 0.016346633 0.71245146
-0.020084774 0.015302718 0.7117402
-0.019977801 0.014269888 0.71103656
-0.019872027 0.013248056 0.7103408
-0.019767364 0.012236983 0.7096523
-0.019663738 0.011236459 0.70897073
-0.019044915 0.0099759698 0.70490026
-0.019155785 0.0091218054 0.70562953
-0.019433491 0.0083286762 0.70745629
-0.019619817 0.0074742436 0.70868182
-0.019813081 0.0066043735 0.70995313
-0.019927444 0.0056935847 0.71070528
-0.020007433 0.0047636926 0.71123147
-0.020087875 0.0038262904 0.71176058
-0.020172093 0.0028817356 0.71231455
-0.020262739 0.0019297898 0.71291077
-0.020354135 0.00096926093 0.71351206
-0.020453859 2.9802322e-08 0.71416795
-0.020555714 -0.00097882748 0.71483791
-0.020662896 -0.0019678771 0.71554297
-0.020777699 -0.0029682517 0.7162981
-0.020899447 -0.0039808154 0.71709895
-0.021168346 -0.0050400794 0.71886766
-0.021523777 -0.0061496198 0.72120565
-0.021908935 -0.0073029697 0.72373909
-0.022328226 -0.0085059404 0.72649705
-0.022792872 -0.0097683668 0.72955346
-0.023316899 -0.011103272 0.73300034
-0.023932165 -0.01253587 0.73704743
-0.024700845 -0.014114767 0.74210358
-0.025899963 -0.016033322 0.74999112
-0.022333059 0.052482694 0.7338739
-0.022447007 0.051628172 0.73466092
-0.022466339 0.050549269 0.73479444
-0.022430163 0.049346358 0.73454463
-0.022290207 0.047923952 0.73357803
-0.022152068 0.046519369 0.73262393
-0.022015551 0.045131892 0.73168099
-0.021880785 0.043761581 0.73075026
-0.02174758 0.042407781 0.72983021
-0.021616066 0.041070521 0.72892195
-0.021486131 0.039749354 0.72802454
-0.021357752 0.038443983 0.72713786
-0.021230821 0.037153989 0.72626114
-0.021105465 0.035879314 0.72539538
-0.020981506 0.03461951 0.72453916
-0.020859068 0.033374518 0.72369361
-0.020737905 0.032143772 0.72285676
-0.020618284 0.030927479 0.72203064
-0.020499967 0.029724985 0.72121346
-0.020383067 0.02853632 0.72040612
-0.020267496 0.027361125 0.71960789
-0.020153159 0.026199132 0.71881813
-0.020040171 0.025050223 0.71803772
-0.019928442 0.023914129 0.71726608
-0.019817954 0.02279067 0.71650302
-0.01970862 0.021679491 0.71574795
-0.019600548 0.02058056 0.71500146
-0.019493591 0.01949361 0.71426278
-0.019387858 0.018418491 0.71353251
-0.019283269 0.017354965 0.71281016
-0.019179676 0.016302764 0.71209466
-0.019077312 0.015261859 0.71138763
-0.018976035 0.014232039 0.71068823
-0.018875768 0.013213068 0.70999569
-0.018776616 0.012204826 0.70931089
-0.01867844 0.011207104 0.70863283
-0.018099047 0.0099545121 0.70463115
-0.018222198 0.0091111064 0.70548165
-0.018476753 0.0083145499 0.70723981
-0.018649507 0.0074598193 0.70843297
-0.018826539 0.0065893233 0.70965564
-0.018932063 0.0056796074 0.71038455
-0.019006172 0.0047515333 0.71089631
-0.019080801 0.0038161874 0.71141177
-0.019159781 0.002873987 0.71195728
-0.019243713 0.0019243658 0.71253693
-0.019328449 0.00096645951 0.71312219
-0.019420333 2.9802322e-08 0.7137568
-0.019514505 -0.00097572803 0.71440721
-0.01961522 -0.0019614995 0.71510279
-0.019721949 -0.0029582679 0.71583992
-0.019833682 -0.0039666891 0.71661162
-0.020058824 -0.0050147176 0.71816665
-0.02037804 -0.00611341 0.72037125
-0.020719701 -0.0072518587 0.72273105
-0.021088103 -0.0084352195 0.72527546
-0.0214918 -0.0096712708 0.72806364
-0.021935171 -0.010967582 0.73112589
-0.022436848 -0.012340277 0.73459083
-0.023018345 -0.013810962 0.73860693
-0.023736691 -0.015428811 0.7435683
-0.024784835 -0.017349362 0.75080746
-0.021198815 0.053554952 0.73374599
-0.021242326 0.052546829 0.73406237
-0.021318866 0.051614136 0.73461878
-0.021340281 0.050542772 0.73477453
-0.021242008 0.049192041 0.73406005
-0.021109877 0.047775 0.73309946
-0.020979458 0.046375692 0.73215127
-0.020850563 0.044993311 0.73121423
-0.020723319 0.043628067 0.73028916
-0.020597542 0.042279184 0.72937471
-0.020473357 0.040946752 0.72847188
-0.020350663 0.039630264 0.72757983
-0.020229427 0.038329452 0.72669846
-0.020109558 0.037043959 0.72582698
-0.019991172 0.035773665 0.72496635
-0.019874102 0.034518182 0.72411519
-0.019758463 0.033277422 0.72327447
-0.019644026 0.032050818 0.72244251
-0.019531041 0.030838519 0.7216211
-0.019419283 0.029639989 0.72080863
-0.019308861 0.028455168 0.72000581
-0.01919969 0.027283788 0.71921211
-0.019091681 0.026125491 0.71842682
-0.018984944 0.024980217 0.71765089
-0.018879393 0.023847669 0.71688348
-0.018774947 0.022727579 0.71612418
-0.018671652 0.021619827 0.71537322
-0.018569546 0.020524263 0.7146309
-0.018468492 0.019440532 0.71389621
-0.018368592 0.018368632 0.71316993
-0.018269764 0.017308235 0.71245146
-0.01817194 0.016259104 0.71174026
-0.018075213 0.015221238 0.71103698
-0.01797951 0.014194369 0.71034122
-0.017884759 0.013178259 0.70965236
-0.017791057 0.012172818 0.70897114
-0.017698277 0.011177897 0.70829666
-0.017163334 0.0099366903 0.70440745
-0.017302606 0.009106636 0.70542008
-0.017527161 0.008302331 0.70705265
-0.017688083 0.00744766 0.70822251
-0.017848715 0.0065758824 0.70939028
-0.017945362 0.0056669414 0.71009296
-0.018014763 0.0047407448 0.71059752
-0.018085103 0.0038073957 0.71110892
-0.018158156 0.0028671026 0.71164
-0.018235568 0.0019195378 0.71220279
-0.01831376 0.00096389651 0.7127713
-0.018399574 -0 0.71339512
-0.018488616 -0.00097307563 0.71404248
-0.018581271 -0.0019558966 0.71471608
-0.01867949 -0.0029493868 0.7154302
-0.018781502 -0.0039539933 0.7161718
-0.018975573 -0.0049935579 0.7175827
-0.019263508 -0.0060832202 0.71967614
-0.01957041 -0.0072101355 0.72190738
-0.019899018 -0.0083785057 0.72429633
-0.020252848 -0.0095934272 0.72686869
-0.020637488 -0.010861784 0.7296651
-0.021063371 -0.012194574 0.73276138
-0.02153983 -0.013604105 0.73622525
-0.02209047 -0.015114516 0.74022847
-0.022759942 -0.016770482 0.74509567
-0.023696471 -0.018707722 0.75190443
-0.020052169 0.053472459 0.73350877
-0.020145515 0.052602232 0.73422515
-0.020184787 0.05158338 0.73452652
-0.020187145 0.050467879 0.73454463
-0.020061186 0.04903847 0.73357797
-0.019936787 0.047626793 0.73262334
-0.019813996 0.046232671 0.73168099
-0.019692706 0.044855654 0.7307502
-0.019572893 0.043495327 0.72983074
-0.019454459 0.042151362 0.72892195
-0.019337518 0.040823668 0.72802454
-0.019221976 0.039511859 0.7271378
-0.019107739 0.038215518 0.72626114
-0.018994849 0.036934435 0.72539485
-0.018883355 0.035668582 0.72453922
-0.018773094 0.034417361 0.72369313
-0.018664179 0.033180773 0.72285724
-0.018556457 0.031958371 0.72203064
-0.018450033 0.030750096 0.72121394
-0.018344762 0.02955547 0.72040606
-0.018240746 0.028374523 0.71960783
-0.018137904 0.027206898 0.71881866
-0.018036153 0.026052237 0.71803772
-0.017935598 0.024910599 0.71726608
-0.017836159 0.023781568 0.71650302
-0.017737757 0.022664934 0.71574789
-0.017640436 0.02156058 0.71500105
-0.017544232 0.020468295 0.71426278
-0.017449018 0.019387811 0.71353209
-0.017354885 0.01831907 0.71280968
-0.017261764 0.017261803 0.71209508
-0.01716958 0.016215712 0.71138769
-0.017078431 0.015180856 0.71068823
-0.016988192 0.014156848 0.70999575
-0.0168989 0.013143599 0.70931047
-0.016810596 0.012140989 0.70863283
-0.016723158 0.01114881 0.7079618
-0.01623825 0.0099233985 0.70424062
-0.016381361 0.0091007948 0.70533884
-0.016593922 0.0082969666 0.70696998
-0.016738949 0.0074395835 0.70808297
-0.01688371 0.0065658987 0.70919383
-0.016968053 0.0056560338 0.70984113
-0.017032785 0.0047313273 0.71033794
-0.017098069 0.0037996173 0.71083891
-0.017165728 0.0028609633 0.71135813
-0.017237417 0.0019152761 0.71190828
-0.017311109 0.00096175075 0.71247375
-0.017391082 2.9802322e-08 0.7130875
-0.01747288 -0.00097069144 0.7137152
-0.017558044 -0.00195086 0.7143687
-0.017649101 -0.002941519 0.71506757
-0.017743284 -0.0039429367 0.71579033
-0.017914711 -0.0049763024 0.71710587
-0.018175595 -0.0060585141 0.71910787
-0.018451942 -0.0071757138 0.72122854
-0.018745484 -0.0083312988 0.72348124
-0.019060114 -0.0095300078 0.7258957
-0.01939947 -0.010777444 0.72849989
-0.019767899 -0.012080371 0.7313273
-0.020172767 -0.013448477 0.73443431
-0.020625437 -0.014896125 0.73790801
-0.021146059 -0.016446888 0.74190336
-0.02177297 -0.018144071 0.74671423
-0.02261612 -0.020103186 0.75318462
-0.018930715 0.053451419 0.73344833
-0.019030187 0.052612931 0.73425651
-0.019052561 0.051553994 0.73443842
-0.019005936 0.050309837 0.73405945
-0.018887784 0.048886061 0.73309946
-0.018771024 0.047479659 0.73215067
-0.018655768 0.046090722 0.73121423
-0.018541917 0.044718772 0.7302891
-0.018429447 0.043363392 0.72937524
-0.018318268 0.042024285 0.72847193
-0.018208489 0.04070133 0.72757983
-0.018100016 0.03939414 0.72669852
-0.017992763 0.038102329 0.72582704
-0.017886775 0.036825746 0.72496581
-0.01778209 0.035564184 0.72411519
-0.017678564 0.034317225 0.72327399
-0.017576294 0.03308481 0.72244298
-0.017475083 0.031866342 0.72162068
-0.017375149 0.03066206 0.72080857
-0.017276291 0.029471338 0.72000533
-0.017178612 0.028294206 0.71921164
-0.01708203 0.027130306 0.71842682
-0.016986473 0.02597931 0.71765041
-0.016892033 0.024841219 0.71688306
-0.016798636 0.023715734 0.71612418
-0.016706269 0.022602588 0.71537364
-0.016614858 0.021501601 0.7146309
-0.016524494 0.020412624 0.71389663
-0.016435055 0.019335359 0.71316993
-0.016346632 0.018269747 0.7124514
-0.016259104 0.01721552 0.71174026
-0.016172506 0.016172528 0.71103656
-0.01608693 0.015140653 0.71034122
-0.016002152 0.014119565 0.70965236
-0.015918264 0.013109177 0.70897073
-0.0158353 0.012109399 0.70829666
-0.015328778 0.010820299 0.70418084
-0.015325059 0.0099162459 0.70415068
-0.015470573 0.0091003478 0.70533311
-0.015661988 0.0082916617 0.70688838
-0.01579809 0.0074343979 0.70799428
-0.015926789 0.0065581203 0.70904005
-0.015999671 0.0056469738 0.70963216
-0.016059132 0.0047232807 0.71011543
-0.016118985 0.0037927628 0.71060169
-0.016182601 0.0028557479 0.71111858
-0.016249748 0.0019117296 0.7116642
-0.016317509 0.0009598732 0.71221477
-0.016391097 2.9802322e-08 0.71281272
-0.01646621 -0.00096857548 0.71342313
-0.016545368 -0.0019465089 0.71406627
-0.016630162 -0.0029347539 0.71475524
-0.016716102 -0.0039331913 0.71545351
-0.016872864 -0.0049625635 0.71672732
-0.017109722 -0.0060386956 0.71865189
-0.017359218 -0.0071479082 0.72067916
-0.017623533 -0.0082933903 0.72282684
-0.017904511 -0.0094788074 0.72510988
-0.018204881 -0.010708749 0.72755057
-0.01852751 -0.011988342 0.7301721
-0.018879389 -0.013326585 0.73303127
-0.019264402 -0.014731586 0.73615968
-0.019694552 -0.01621905 0.73965484
-0.020185532 -0.017810732 0.74364424
-0.020770162 -0.019548357 0.74839461
-0.021537006 -0.021536976 0.75462568
-0.017794553 0.054495841 0.7332533
-0.017821345 0.053464085 0.73348457
-0.017892916 0.052560478 0.73410243
-0.017913867 0.051502407 0.73428327
-0.017832166 0.050152987 0.73357797
-0.017721655 0.048734546 0.73262388
-0.017612439 0.047333449 0.73168099
-0.017504627 0.045949668 0.7307502
-0.017398063 0.044582576 0.72983027
-0.017292853 0.043232113 0.72892189
-0.017188843 0.041897833 0.72802401
-0.017086141 0.040579617 0.72713733
-0.016984656 0.039277047 0.7262612
-0.016884372 0.037989885 0.72539532
-0.016785204 0.036717653 0.72453922
-0.016687253 0.035460442 0.72369367
-0.016590381 0.034217685 0.72285724
-0.016494686 0.032989413 0.72203112
-0.01640003 0.031775087 0.72121388
-0.016306456 0.03057465 0.72040606
-0.01621394 0.029387772 0.71960735
-0.016122526 0.028214425 0.71881813
-0.016032137 0.02705425 0.71803778
-0.0159427 0.02590692 0.71726567
-0.01585431 0.024772376 0.71650255
-0.015766894 0.023650378 0.71574789
-0.015680438 0.022540629 0.71500146
-0.015594873 0.02144295 0.71426278
-0.015510288 0.020357281 0.71353251
-0.015426565 0.019283205 0.71280968
-0.01534379 0.018220752 0.71209508
-0.015261849 0.017169595 0.71138763
-0.01518078 0.016129583 0.71068776
-0.015100663 0.015100688 0.7099961
-0.015021292 0.014082462 0.70931089
-0.014942752 0.013074905 0.70863283
-0.014865075 0.012077898 0.70796216
-0.014389651 0.010792255 0.70385766
-0.014429053 0.009920001 0.70419788
-0.014569902 0.009106189 0.70541388
-0.01473896 0.0082907081 0.70687336
-0.014863867 0.0074319541 0.70795178
-0.014975012 0.0065515935 0.7089113
-0.015038146 0.0056393445 0.70945632
-0.015092664 0.0047164559 0.70992702
-0.015148737 0.0037871897 0.71041113
-0.015207756 0.0028514564 0.71092063
-0.015269147 0.0019086599 0.7114507
-0.015330985 0.00095820427 0.71198452
-0.015399006 -0 0.71257186
-0.015469443 -0.00096681714 0.71317989
-0.015543068 -0.0019428432 0.71381551
-0.015620676 -0.002928853 0.71448553
-0.015700046 -0.0039249957 0.7151708
-0.01584544 -0.0049516559 0.71642596
-0.016060436 -0.0060226321 0.7182821
-0.016286362 -0.0071252882 0.72023255
-0.016524242 -0.0082621276 0.72228628
-0.016776327 -0.0094366372 0.72446257
-0.017044216 -0.010652632 0.72677535
-0.017330579 -0.01191479 0.72924769
-0.017638229 -0.013228655 0.73190367
-0.017970968 -0.014601409 0.73477632
-0.018337537 -0.016045302 0.73794097
-0.01874304 -0.017571568 0.74144185
-0.019205643 -0.01920563 0.7454356
-0.019752556 -0.020987093 0.7501573
-0.020453094 -0.023009717 0.7562052
-0.021695726 -0.025763661 0.76693332
-0.016640389 0.054358661 0.73286647
-0.016707888 0.053465277 0.73348802
-0.016756462 0.052503645 0.73393536
-0.016770005 0.05142802 0.73406005
-0.016665692 0.049997091 0.73309946
-0.01656273 0.048584014 0.73215127
-0.01646097 0.047188133 0.73121417
-0.016360514 0.045809478 0.7302891
-0.016261218 0.044447362 0.72937465
-0.016163178 0.043101847 0.72847188
-0.016066255 0.041772306 0.7275793
-0.015970543 0.040458709 0.72669792
-0.015875967 0.039160728 0.72582698
-0.015782503 0.037878007 0.72496629
-0.015690081 0.036610216 0.72411525
-0.015598786 0.035357296 0.72327447
-0.015508495 0.034118682 0.72244304
-0.015419297 0.032894522 0.72162163
-0.015331065 0.03168422 0.72080904
-0.015243839 0.030487716 0.72000581
-0.015157598 0.029304713 0.71921164
-0.015072378 0.028135151 0.71842688
-0.014988113 0.026978642 0.71765083
-0.014904734 0.025834918 0.716883
-0.014822327 0.02470386 0.71612418
-0.014740827 0.02358532 0.71537364
-0.014660168 0.022478938 0.7146309
-0.014580389 0.021384597 0.71389616
-0.01450152 0.020302147 0.71316993
-0.014423452 0.01923129 0.71245098
-0.014346267 0.018171936 0.7117402
-0.014269904 0.017123908 0.71103704
-0.014194305 0.016086906 0.7103408
-0.014119546 0.015060872 0.70965236
-0.014045527 0.014045537 0.70897079
-0.01397228 0.013040811 0.70829624
-0.013899837 0.012046516 0.70762914
-0.013467288 0.010773808 0.70364583
-0.0135398 0.0099291801 0.70431364
-0.01366958 0.0091130733 0.70550865
-0.013822442 0.0082934797 0.70691633
-0.013935747 0.007432431 0.70795977
-0.01402967 0.0065471828 0.70882469
-0.014082817 0.0056331754 0.70931417
-0.014133191 0.0047110617 0.70977807
-0.01418442 0.0037825108 0.71024978
-0.014238659 0.0028477311 0.71074927
-0.014294505 0.0019059181 0.71126354
-0.014352453 0.00095683336 0.71179712
-0.014415948 2.9802322e-08 0.71238196
-0.014480008 -0.00096532702 0.71297181
-0.014547533 -0.0019396544 0.71359372
-0.014618804 -0.0029237568 0.71424997
-0.014693632 -0.0039182603 0.714939
-0.01483031 -0.0049434304 0.71619773
-0.015025217 -0.0060100555 0.71799254
-0.015229475 -0.0071071088 0.71987355
-0.015444547 -0.0082370341 0.72185409
-0.015671063 -0.0094026327 0.72394007
-0.01591045 -0.010606945 0.72614461
-0.016164759 -0.011854172 0.72848642
-0.016436225 -0.013148963 0.73098636
-0.016728437 -0.014497936 0.73367727
-0.017044503 -0.015908211 0.73658788
-0.017389605 -0.017389596 0.73976588
-0.017773649 -0.018958509 0.74330246
-0.018208127 -0.020635873 0.74730349
-0.018717159 -0.02246055 0.75199109
-0.019357577 -0.024519593 0.75788867
-0.020370763 -0.027161032 0.76721895
-0.01550535 0.054268748 0.73261309
-0.015591927 0.053458065 0.73346722
-0.015616018 0.052425206 0.73370504
-0.015603202 0.051267684 0.7335785
-0.015506448 0.049842179 0.73262388
-0.015410941 0.048434407 0.73168159
-0.015316549 0.047043711 0.73075026
-0.015223362 0.045670122 0.7298308
-0.015131246 0.044312954 0.72892195
-0.015040292 0.042972267 0.72802454
-0.014950373 0.041647464 0.72713733
-0.014861574 0.040338546 0.72626114
-0.014773824 0.039045125 0.72539538
-0.014687105 0.037766874 0.72453976
-0.014601347 0.036503404 0.72369361
-0.014516635 0.035254687 0.72285783
-0.014432849 0.034020305 0.72203106
-0.014350075 0.032800198 0.72121441
-0.014268196 0.031593889 0.72040653
-0.014187247 0.03040126 0.71960789
-0.014107211 0.029222101 0.71881819
-0.01402812 0.028056264 0.71803772
-0.01394991 0.026903391 0.71726614
-0.013872522 0.025763243 0.71650255
-0.013796033 0.024635792 0.71574783
-0.013720384 0.023520678 0.71500152
-0.013645515 0.022417635 0.71426278
-0.013571457 0.021326602 0.71353209
-0.013498244 0.02024737 0.71280968
-0.013425773 0.019179672 0.71209466
-0.013354119 0.018123448 0.71138763
-0.013283183 0.0170784 0.71068776
-0.013213038 0.016044438 0.70999569
-0.013143631 0.015021294 0.70931089
-0.013074907 0.01400885 0.70863283
-0.0130069 0.013006926 0.7079618
-0.012939636 0.012015373 0.7072981
-0.012559534 0.010765314 0.70354778
-0.01265397 0.0099424124 0.70447958
-0.012803196 0.0091451406 0.70595193
-0.012906384 0.0082969666 0.70696998
-0.013011372 0.0074350834 0.70800591
-0.013086868 0.0065434575 0.70875084
-0.013132811 0.0056283474 0.70920408
-0.013178743 0.0047067106 0.70965731
-0.013224958 0.0037785769 0.71011329
-0.013275348 0.0028447509 0.71061051
-0.013327317 0.0019039512 0.71112323
-0.013380641 0.00095576048 0.71164936
-0.013438166 2.9802322e-08 0.71221691
-0.013496188 -0.00096398592 0.71278942
-0.013558949 -0.0019369721 0.71340871
-0.013624661 -0.0029195845 0.71405703
-0.013693985 -0.0039125681 0.71474099
-0.013825352 -0.0049375892 0.71603715
-0.014001749 -0.0060007274 0.71777761
-0.01418686 -0.0070933998 0.71960402
-0.014380806 -0.0082175732 0.72151756
-0.014584621 -0.0093758106 0.72352862
-0.014799083 -0.010570735 0.72564459
-0.015025583 -0.011805803 0.72787941
-0.01526623 -0.013085335 0.73025376
-0.015522809 -0.014413983 0.73278534
-0.015798043 -0.015798032 0.73550099
-0.01609621 -0.017245919 0.73844284
-0.016422154 -0.018768162 0.74165881
-0.016782653 -0.020378917 0.74521577
-0.017188376 -0.022099286 0.74921882
-0.017662548 -0.023970604 0.75389737
-0.018249286 -0.026070386 0.75968647
-0.019114576 -0.028671861 0.768224
-0.014377319 0.05419144 0.73239517
-0.014458994 0.053387076 0.73326308
-0.014478813 0.052346528 0.7334736
-0.0144436 0.051108152 0.73309946
-0.014354313 0.049688011 0.73215073
-0.014266174 0.048285544 0.73121417
-0.014179112 0.046900153 0.7302891
-0.014093107 0.045531601 0.72937524
-0.014008087 0.04417938 0.72847188
-0.013924137 0.04284355 0.72757983
-0.013841138 0.041523457 0.72669792
-0.013759173 0.040219128 0.72582698
-0.013678122 0.038930058 0.72496581
-0.01359807 0.037656218 0.72411519
-0.013518902 0.03639707 0.72327405
-0.013440696 0.035152614 0.72244298
-0.013363345 0.033922374 0.7216211
-0.013286924 0.03270629 0.7208091
-0.013211327 0.031503946 0.72000575
-0.01313663 0.03031534 0.71921211
-0.013062685 0.029139847 0.71842641
-0.012989655 0.027977765 0.71765041
-0.012917437 0.026828557 0.71688306
-0.012845974 0.025691956 0.7161237
-0.01277534 0.024567962 0.71537316
-0.01270548 0.023456305 0.71463084
-0.012636378 0.022356719 0.71389663
-0.012567984 0.021268904 0.71316993
-0.012500366 0.020192891 0.71245146
-0.012433432 0.019128352 0.7117402
-0.012367211 0.018075198 0.71103656
-0.012301731 0.01703319 0.7103408
-0.01223694 0.016002178 0.70965236
-0.012172828 0.014981925 0.70897114
-0.012109347 0.013972342 0.70829666
-0.012046525 0.012973189 0.70762908
-0.01166035 0.011660367 0.70352578
-0.011665311 0.010767996 0.70357847
-0.011770613 0.0099597573 0.70469737
-0.011903653 0.0091566741 0.70611107
-0.011995394 0.0083045363 0.70708585
-0.012088296 0.0074389875 0.7080729
-0.012146136 0.0065402687 0.70868754
-0.012187333 0.0056249499 0.70912528
-0.012228503 0.0047033131 0.70956272
-0.012271237 0.0037758052 0.71001679
-0.012317604 0.0028425455 0.71050948
-0.012364402 0.0019022226 0.71100676
-0.012413112 0.00095489621 0.71152425
-0.012465583 2.9802322e-08 0.71208179
-0.01251935 -0.00096303225 0.71265316
-0.012576979 -0.0019349158 0.71326548
-0.012636089 -0.0029160082 0.71389353
-0.012702014 -0.0039083064 0.71459407
-0.012828498 -0.0049340129 0.71593803
-0.012988171 -0.0059944987 0.71763468
-0.013155314 -0.0070836246 0.7194106
-0.013329711 -0.0082028806 0.72126371
-0.013512286 -0.009354651 0.72320372
-0.013704207 -0.010541677 0.72524297
-0.013906208 -0.011766791 0.7273894
-0.01411951 -0.01303339 0.7296558
-0.014346216 -0.014346212 0.73206472
-0.014587803 -0.015709937 0.73463172
-0.014847124 -0.017131269 0.73738712
-0.015126537 -0.018617243 0.74035609
-0.015432174 -0.020180494 0.74360365
-0.015768919 -0.021833897 0.74718183
-0.016148768 -0.023602039 0.75121796
-0.016587693 -0.02551952 0.75588173
-0.017123722 -0.027661383 0.76157737
-0.017878357 -0.030255646 0.76959586
-0.013252644 0.054114968 0.73217958
-0.013321256 0.053285033 0.7329694
-0.013339181 0.05224514 0.73317575
-0.013291241 0.050949812 0.73262388
-0.01320933 0.049535006 0.73168099
-0.013128471 0.048137724 0.73075026
-0.013048548 0.046757311 0.72983027
-0.012969639 0.045393765 0.72892195
-0.012891633 0.044046432 0.72802401
-0.012814605 0.042715371 0.72713733
-0.012738492 0.041400105 0.72626114
-0.012663279 0.040100396 0.72539544
-0.012588903 0.038815796 0.72453928
-0.012515441 0.037546366 0.72369361
-0.012442786 0.03629148 0.7228573
-0.012371014 0.035051227 0.72203112
-0.012300022 0.03382507 0.72121394
-0.012229882 0.032613009 0.72040653
-0.012160498 0.031414628 0.71960783
-0.012091936 0.030229867 0.7188186
-0.012024062 0.029058158 0.71803737
-0.011957026 0.027899742 0.71726567
-0.011890733 0.026754141 0.71650255
-0.011825132 0.025621146 0.71574742
-0.011760291 0.024500608 0.71500105
-0.011696154 0.02339232 0.71426278
-0.011632715 0.022296071 0.71353257
-0.011569924 0.021211535 0.71280968
-0.011507842 0.020138741 0.71209508
-0.011446388 0.019077331 0.71138763
-0.011385585 0.018027216 0.71068776
-0.011325461 0.016988188 0.70999569
-0.011265934 0.015960127 0.70931047
-0.011207064 0.014942795 0.70863277
-0.011148771 0.013935983 0.7079618
-0.011091082 0.012939602 0.70729774
-0.010743245 0.011638552 0.70329374
-0.010789367 0.010789394 0.70382464
-0.010884169 0.0099771619 0.70491594
-0.011002045 0.0091683865 0.70627284
-0.011086466 0.0083148777 0.70724458
-0.011164326 0.0074428916 0.70814085
-0.011208472 0.0065382719 0.70864904
-0.011245096 0.0056225359 0.70907062
-0.011282709 0.0047011375 0.70950359
-0.011321761 0.0037739277 0.70995313
-0.011363289 0.0028408468 0.7104311
-0.011405162 0.0019008815 0.71091306
-0.011450831 0.00095421076 0.71143883
-0.011498536 2.9802322e-08 0.71198791
-0.011546639 -0.00096222758 0.7125417
-0.011599105 -0.0019331574 0.71314561
-0.011653075 -0.0029132366 0.71376687
-0.01171616 -0.0039053857 0.71449304
-0.011838038 -0.004932493 0.71589595
-0.011982117 -0.0059910417 0.71755451
-0.012132345 -0.0070771873 0.71928376
-0.01228884 -0.0081925392 0.72108519
-0.012452033 -0.0093390048 0.72296375
-0.012623101 -0.010519236 0.72493291
-0.012802929 -0.011736006 0.72700292
-0.012992682 -0.01299262 0.72918719
-0.013192679 -0.014292061 0.73148936
-0.013404717 -0.015638828 0.73393017
-0.013630603 -0.017038256 0.73653036
-0.013872908 -0.018497199 0.7393195
-0.014134726 -0.02002418 0.74233329
-0.014418956 -0.02162841 0.74560511
-0.014733502 -0.023328036 0.74922591
-0.015085189 -0.025141954 0.7532742
-0.015490162 -0.027107775 0.75793588
-0.015979772 -0.029296219 0.76357174
-0.016642552 -0.031898171 0.77120101
-0.012118465 0.05508393 0.73180556
-0.012131363 0.054039717 0.73196745
-0.012186451 0.053177267 0.73265922
-0.01220318 0.052140892 0.73286927
-0.012146002 0.050792396 0.73215127
-0.012071379 0.049382925 0.73121423
-0.011997711 0.047990829 0.73028916
-0.011924893 0.046615541 0.72937465
-0.011852996 0.045256913 0.72847188
-0.011781921 0.043914437 0.72757936
-0.011711732 0.042588115 0.72669792
-0.011642376 0.041277528 0.72582698
-0.011573837 0.039982378 0.72496635
-0.011506058 0.03870222 0.72411519
-0.01143911 0.037437111 0.72327447
-0.011372896 0.036186516 0.72244298
-0.011307484 0.034950435 0.72162157
-0.011242781 0.033728361 0.72080904
-0.011178853 0.032520294 0.72000635
-0.01111561 0.031325817 0.71921211
-0.011053115 0.0301449 0.7184273
-0.010991246 0.028976947 0.71765041
-0.010930139 0.027822196 0.71688306
-0.010869706 0.026680231 0.71612418
-0.010809903 0.025550693 0.71537316
-0.01075079 0.024433643 0.7146309
-0.010692285 0.023328662 0.71389616
-0.010634447 0.022235692 0.71316987
-0.010577199 0.021154404 0.71245104
-0.010520597 0.020084798 0.7117402
-0.010464564 0.019026488 0.71103656
-0.010409157 0.017979473 0.71034086
-0.010354334 0.016943485 0.7096523
-0.010300054 0.015918285 0.70897079
-0.010246371 0.014903814 0.7082966
-0.010193214 0.013899863 0.70762908
-0.010140604 0.012906253 0.70696843
-0.0098444195 0.01163432 0.7032491
-0.0099140219 0.010815293 0.70412314
-0.010026356 0.010026366 0.7055338
-0.010100435 0.0091822445 0.70646399
-0.010177516 0.0083270669 0.70743191
-0.01023829 0.0074460208 0.70819515
-0.010273206 0.006537497 0.7086336
-0.010306284 0.0056216419 0.70904899
-0.010339607 0.0046997964 0.70946747
-0.010374792 0.003772676 0.70990926
-0.010412403 0.0028397739 0.71038157
-0.010450689 0.0019001365 0.7108624
-0.010492017 0.00095382333 0.71138132
-0.010534419 -0 0.71191376
-0.010578088 -0.00096163154 0.71246219
-0.010626054 -0.0019319952 0.71306449
-0.010674423 -0.0029111803 0.71367186
-0.010736535 -0.0039041936 0.71445191
-0.010852614 -0.0049329698 0.71590948
-0.010981947 -0.0059901476 0.71753365
-0.011116252 -0.0070739686 0.71922016
-0.011255857 -0.0081860423 0.72097325
-0.011401355 -0.0093283355 0.72280037
-0.01155393 -0.01050356 0.72471631
-0.011713452 -0.011713415 0.72671956
-0.011880934 -0.012961 0.72882271
-0.012057496 -0.014249742 0.73103988
-0.012243692 -0.01558286 0.73337805
-0.012440883 -0.016964823 0.73585433
-0.012651033 -0.018401474 0.7384932
-0.012875849 -0.01989904 0.74131632
-0.013118578 -0.021466762 0.7443645
-0.013382669 -0.023115486 0.74768078
-0.013672737 -0.024859488 0.75132328
-0.013997485 -0.026722431 0.75540137
-0.014369524 -0.028739035 0.76007318
-0.014813754 -0.030974209 0.7656517
-0.015398935 -0.033597678 0.77300012
-0.010980829 0.054904103 0.73130882
-0.011007246 0.053935528 0.73167372
-0.011051873 0.053048998 0.73229015
-0.011066967 0.052014768 0.73249865
-0.011007816 0.050635964 0.73168159
-0.010940393 0.049231797 0.73075026
-0.01087383 0.047844887 0.7298308
-0.010808033 0.046474546 0.72892195
-0.010743066 0.045120895 0.72802448
-0.010678838 0.043783247 0.72713733
-0.01061541 0.042461663 0.7262612
-0.010552694 0.041155517 0.7253949
-0.010490753 0.039864868 0.72453928
-0.010429534 0.038589299 0.72369361
-0.010369025 0.037328511 0.72285777
-0.010309178 0.036082178 0.72203112
-0.010250053 0.03485021 0.72121441
-0.010191569 0.033632189 0.72040653
-0.010133782 0.032428116 0.71960831
-0.010076613 0.031237513 0.71881866
-0.010020119 0.030060351 0.71803826
-0.0099642212 0.028896272 0.71726608
-0.0099089444 0.027745068 0.71650255
-0.0098543102 0.026606649 0.71574789
-0.0098002413 0.025480628 0.71500105
-0.0097467955 0.024367034 0.71426278
-0.0096938983 0.023265362 0.71353209
-0.0096416026 0.022175699 0.71280974
-0.0095898379 0.02109766 0.71209466
-0.0095386561 0.020031184 0.71138763
-0.0094879875 0.018975973 0.71068782
-0.0094379149 0.017932057 0.7099961
-0.009388308 0.01689899 0.70931089
-0.0093392199 0.01587671 0.70863283
-0.0092906719 0.0148651 0.70796221
-0.0092425682 0.013863891 0.70729768
-0.0089471834 0.012526035 0.70321751
-0.0089622559 0.01165095 0.70342571
-0.0090375608 0.010845095 0.70446587
-0.009134775 0.01004827 0.70580876
-0.0092006782 0.0092006922 0.7067191
-0.0092673078 0.0083405972 0.70763946
-0.0093110334 0.0074488521 0.70824343
-0.0093401289 0.0065381229 0.70864534
-0.0093690539 0.0056214333 0.70904487
-0.0093984846 0.00469926 0.70945144
-0.0094312401 0.0037724972 0.7099039
-0.009464616 0.0028394163 0.71036494
-0.009498382 0.0018997192 0.71083134
-0.0095354142 0.00095355511 0.71134287
-0.0095739383 -0 0.71187502
-0.0096139563 -0.00096139312 0.71242785
-0.0096562225 -0.0019312501 0.71301162
-0.0096993363 -0.0029097795 0.71360719
-0.0097624417 -0.0039049685 0.71447891
-0.0098706959 -0.004935354 0.71597421
-0.0099859349 -0.0059915483 0.71756607
-0.010105409 -0.0070737898 0.71921635
-0.010229218 -0.0081833899 0.72092664
-0.010358371 -0.0093225241 0.72271061
-0.010493269 -0.010493249 0.72457403
-0.010634162 -0.011697561 0.72652018
-0.01078135 -0.012937605 0.7285533
-0.010935887 -0.014216602 0.73068804
-0.011098975 -0.015538573 0.73294079
-0.011270802 -0.016906172 0.73531431
-0.011452751 -0.018324405 0.7378276
-0.011646825 -0.01979959 0.74050838
-0.011854437 -0.021337986 0.7433762
-0.01207782 -0.022947848 0.74646187
-0.012320594 -0.024641156 0.74981534
-0.012587324 -0.026433349 0.75349975
-0.012884867 -0.028346688 0.75760984
-0.013223517 -0.030414075 0.76228774
-0.013625433 -0.032701015 0.76783949
-0.014142762 -0.035356879 0.77498543
-0.015092988 -0.039241761 0.78811121
-0.0098525509 0.054736435 0.73084533
-0.0098840222 0.05381304 0.73132837
-0.0099216504 0.052915484 0.73190594
-0.0099352403 0.051884055 0.73211449
-0.0098766182 0.050480545 0.73121476
-0.0098163448 0.049081743 0.7302897
-0.0097567663 0.047699749 0.72937524
-0.0096979067 0.046334475 0.72847182
-0.0096397875 0.044985682 0.72757989
-0.0095823267 0.043652862 0.72669792
-0.0095255468 0.042335808 0.72582644
-0.0094694691 0.041034371 0.72496581
-0.0094140479 0.039748192 0.72411519
-0.0093592722 0.038477033 0.72327453
-0.0093051298 0.037220538 0.72244352
-0.0092515778 0.035978407 0.72162157
-0.0091986703 0.034750551 0.72080958
-0.0091463346 0.033536583 0.72000635
-0.0090946211 0.032336473 0.71921259
-0.0090434579 0.031149715 0.71842736
-0.0089928973 0.029976368 0.71765131
-0.0089428704 0.028815955 0.71688348
-0.0088933669 0.027668267 0.71612376
-0.0088444669 0.026533455 0.71537322
-0.0087960716 0.025410891 0.71463042
-0.0087482324 0.024300665 0.71389616
-0.0087009119 0.023202449 0.71316993
-0.0086540999 0.022116035 0.71245146
-0.0086077601 0.021041214 0.7117402
-0.0085619427 0.019977897 0.71103698
-0.0085165827 0.018925756 0.7103408
-0.0084717283 0.017884761 0.70965236
-0.0084273163 0.016854614 0.70897073
-0.0083833681 0.015835255 0.70829624
-0.0083399024 0.014826506 0.70762914
-0.0082968585 0.013828099 0.70696843
-0.0080457358 0.012515604 0.70311421
-0.0080907773 0.011686713 0.70380557
-0.0081565101 0.010875374 0.70481437
-0.0082393661 0.010070354 0.7060861
-0.0082990443 0.0092211664 0.70700204
-0.0083529409 0.0083529651 0.70782924
-0.0083834734 0.0074520111 0.70829785
-0.008408335 0.0065398216 0.70867938
-0.0084337154 0.0056224763 0.70906901
-0.0084603475 0.0047002137 0.70947766
-0.0084891394 0.003772974 0.70991957
-0.0085181007 0.0028393865 0.7103641
-0.0085489796 0.0018998086 0.71083808
-0.0085822307 0.00095358491 0.71134841
-0.0086157685 -0 0.7118631
-0.0086513581 -0.00096124411 0.71240938
-0.0086889919 -0.0019308627 0.71298695
-0.0087277507 -0.0029092431 0.71358186
-0.0087933559 -0.0039081573 0.71458876
-0.0088911215 -0.0049394667 0.71608925
-0.0089928973 -0.0059952736 0.71765137
-0.0090982066 -0.0070764124 0.71926761
-0.0092072776 -0.0081842244 0.72094166
-0.0093210721 -0.0093210638 0.7226882
-0.0094393464 -0.010488153 0.72450346
-0.0095625734 -0.011687577 0.72639477
-0.0096913399 -0.01292178 0.72837108
-0.0098261107 -0.014193237 0.73043954
-0.0099677248 -0.015505344 0.73261309
-0.010116693 -0.016861111 0.73489946
-0.010274241 -0.018265307 0.7373175
-0.010440722 -0.019721359 0.73987269
-0.01061774 -0.021235436 0.74258953
-0.010807013 -0.02281478 0.74549454
-0.011010987 -0.024468839 0.74862516
-0.011232134 -0.026208252 0.75201929
-0.011474778 -0.028049439 0.75574344
-0.011744038 -0.030012518 0.75987613
-0.012050658 -0.032135069 0.7645821
-0.012410725 -0.034474224 0.77010846
-0.012866337 -0.037169397 0.77710122
-0.013598595 -0.040795743 0.78833997
-0.0087313075 0.054570675 0.73038757
-0.0087628225 0.053672314 0.73093176
-0.0087932013 0.05275923 0.73145628
-0.0088052098 0.051730633 0.73166358
-0.0087523134 0.050325871 0.7307502
-0.0086990641 0.048932254 0.7298308
-0.0086464267 0.047555357 0.72892189
-0.0085944217 0.04619506 0.72802395
-0.0085430704 0.044851124 0.72713733
-0.0084922984 0.043523073 0.7262606
-0.008442156 0.042210817 0.7253949
-0.0083926022 0.040913969 0.72453922
-0.0083436267 0.039632231 0.72369361
-0.0082951905 0.038365275 0.7228573
-0.0082473429 0.03711307 0.72203106
-0.0082000149 0.035875082 0.72121394
-0.0081532551 0.034651369 0.72040653
-0.0081069982 0.033441365 0.71960783
-0.0080612907 0.032245219 0.7188186
-0.0080160685 0.031062305 0.71803778
-0.0079713771 0.029892653 0.71726614
-0.0079271551 0.028735965 0.71650255
-0.0078834211 0.027591974 0.71574736
-0.0078401929 0.026460648 0.71500105
-0.0077974107 0.02534157 0.71426231
-0.0077551184 0.024234742 0.71353209
-0.0077132825 0.023139894 0.71280968
-0.007671895 0.022056729 0.71209502
-0.0076309247 0.020985067 0.71138775
-0.0075904145 0.019924879 0.71068817
-0.0075503075 0.018875808 0.70999569
-0.0075106462 0.017837822 0.70931083
-0.0074713761 0.016810596 0.70863283
-0.0074325143 0.015794098 0.7079618
-0.0073940777 0.014788181 0.7072981
-0.0071571004 0.013419598 0.70320636
-0.0071600084 0.012529999 0.70325655
-0.007216868 0.011727422 0.70423836
-0.0072923866 0.010938585 0.70554227
-0.007342665 0.010096163 0.70641041
-0.0073949513 0.0092436969 0.70731318
-0.007433536 0.0083627403 0.7079795
-0.0074559231 0.0074559152 0.70836604
-0.0074775284 0.0065428615 0.70873898
-0.0074996608 0.0056248009 0.70912117
-0.0075230668 0.0047019422 0.70952535
-0.0075480081 0.0037740171 0.70995599
-0.0075737899 0.0028402209 0.71040118
-0.0076013273 0.0019003749 0.71087658
-0.0076298728 0.00095373392 0.71136951
-0.0076588546 2.9802322e-08 0.71186996
-0.0076911654 -0.00096139312 0.71242785
-0.0077239745 -0.0019309819 0.71299434
-0.0077601774 -0.002910018 0.71361941
-0.0078271935 -0.0039135814 0.71477652
-0.0079126814 -0.0049453974 0.71625262
-0.0080016181 -0.0060012341 0.71778834
-0.0080934577 -0.0070817471 0.71937406
-0.0081884442 -0.0081884265 0.72101414
-0.0082875052 -0.0093234479 0.72272456
-0.0083903819 -0.010487974 0.72450095
-0.0084970295 -0.011683404 0.72634232
-0.0086085405 -0.01291278 0.72826773
-0.0087251915 -0.014178425 0.73028195
-0.0088472851 -0.015482754 0.73239011
-0.0089751454 -0.016828358 0.7345978
-0.0091096843 -0.018219352 0.73692083
-0.009252023 -0.019660503 0.73937851
-0.0094024828 -0.021155566 0.74197644
-0.0095622586 -0.022710353 0.74473524
-0.0097331684 -0.024332911 0.74768627
-0.009916909 -0.026031852 0.75085878
-0.010115972 -0.027818888 0.754296
-0.010333952 -0.029710114 0.7580598
-0.01057618 -0.031728536 0.7622422
-0.01084999 -0.033906192 0.76696992
-0.011169991 -0.036302447 0.77249533
-0.011566684 -0.039037555 0.77934492
-0.012159984 -0.042559892 0.78958911
-0.007615746 0.054398209 0.72991103
-0.0076421378 0.05349499 0.7304318
-0.0076705497 0.052598059 0.73099244
-0.0076810778 0.051572949 0.73120022
-0.007634907 0.050172269 0.73028916
-0.0075885956 0.048783839 0.72937524
-0.007542816 0.047412008 0.72847188
-0.0074975854 0.046056628 0.72757936
-0.0074529205 0.04471752 0.72669792
-0.0074087586 0.043394148 0.7258265
-0.0073651425 0.042086571 0.72496581
-0.0073220371 0.040794253 0.72411513
-0.0072794338 0.039516956 0.72327447
-0.0072372979 0.038254291 0.72244304
-0.0071956716 0.037006348 0.72162157
-0.0071544973 0.035772502 0.7208091
-0.0071138153 0.034552842 0.72000629
-0.00707357 0.033346862 0.71921206
-0.0070338007 0.03215453 0.7184273
-0.0069944528 0.030975461 0.71765083
-0.0069555659 0.029809594 0.71688354
-0.006917086 0.028656542 0.71612418
-0.0068790293 0.027516156 0.71537322
-0.0068414118 0.026388347 0.7146309
-0.0068041813 0.025272697 0.71389621
-0.0067673759 0.024169236 0.71316993
-0.0067309444 0.023077548 0.71245104
-0.006694925 0.021997631 0.7117402
-0.0066592675 0.020929158 0.71103656
-0.0066240085 0.01987204 0.71034086
-0.0065891217 0.018826097 0.70965236
-0.0065546003 0.017791063 0.70897114
-0.006520418 0.016766816 0.7082966
-0.00648657 0.01575312 0.70762867
-0.0064531122 0.014750004 0.70696843
-0.0062568542 0.013407558 0.70309567
-0.0062885312 0.012577087 0.70372075
-0.0063386015 0.011771709 0.70470876
-0.0064005153 0.010972321 0.70593059
-0.0064438637 0.010126084 0.70678598
-0.0064853374 0.009264797 0.70760441
-0.0065105683 0.0083707273 0.70810223
-0.0065286383 0.007461369 0.70845878
-0.0065470552 0.0065470934 0.70882225
-0.0065655978 0.0056276917 0.7091881
-0.0065866406 0.0047047734 0.70960343
-0.006608176 0.0037761033 0.71002841
-0.0066298945 0.0028413832 0.71045697
-0.0066537759 0.0019010901 0.7109282
-0.0066787302 0.00095415115 0.7114206
-0.0067044119 -0 0.71192741
-0.0067318804 -0.00096169114 0.71246946
-0.0067600138 -0.0019313991 0.71302462
-0.0067946101 -0.0029119849 0.71370733
-0.0068605533 -0.0039203167 0.71500862
-0.0069342051 -0.004952997 0.71646202
-0.0070108003 -0.0060092211 0.71797347
-0.0070898063 -0.0070897639 0.71953249
-0.0071714539 -0.0081959367 0.72114366
-0.0072563947 -0.0093296468 0.72281986
-0.0073444075 -0.010491967 0.72455662
-0.0074357772 -0.011684746 0.72635961
-0.0075312732 -0.012910724 0.72824407
-0.007630541 -0.014170974 0.73020297
-0.0077342419 -0.015468448 0.73224932
-0.0078428369 -0.016806036 0.73439229
-0.0079564722 -0.018186212 0.73663467
-0.0080765495 -0.019614428 0.73900419
-0.0082029887 -0.021093369 0.74149919
-0.0083367191 -0.022628218 0.74413824
-0.0084788185 -0.024225175 0.74694222
-0.0086308876 -0.025892645 0.74994314
-0.008794155 -0.027638763 0.75316483
-0.0089708623 -0.029475689 0.75665188
-0.0091638053 -0.031418741 0.76045924
-0.009377717 -0.03349182 0.76468039
-0.00961849 -0.035725802 0.76943165
-0.009898426 -0.038179636 0.77495581
-0.010242549 -0.040970176 0.78174639
-0.010728874 -0.044448167 0.79134315
-0.0065067401 0.054222882 0.72942662
-0.0065262071 0.053297341 0.72987473
-0.0065515339 0.052412301 0.73045784
-0.0065603741 0.051389605 0.73066139
-0.0065242979 0.050019652 0.72983074
-0.0064848433 0.048636347 0.72892249
-0.00644584 0.047269493 0.72802454
-0.0064073023 0.045919031 0.72713739
-0.0063692462 0.044584721 0.72626114
-0.006331617 0.043266058 0.72539485
-0.0062944517 0.041963041 0.72453922
-0.0062577203 0.040675193 0.72369361
-0.006221415 0.039402336 0.72285777
-0.0061855069 0.038143992 0.72203106
-0.0061500324 0.036900222 0.72121441
-0.0061149411 0.035670489 0.72040653
-0.0060802698 0.034454912 0.71960831
-0.0060459678 0.033252805 0.71881866
-0.0060120719 0.032064408 0.71803826
-0.0059785331 0.030889094 0.71726614
-0.0059453864 0.029726923 0.71650302
-0.0059125856 0.028577507 0.71574789
-0.0058801644 0.027440786 0.71500146
-0.0058480771 0.026316404 0.71426272
-0.0058163386 0.025204152 0.71353209
-0.0057849619 0.024104059 0.71280968
-0.0057539027 0.023015618 0.71209466
-0.0057231938 0.02193895 0.71138763
-0.0056927926 0.020873606 0.71068776
-0.0056627127 0.019819498 0.70999527
-0.0056329668 0.018776566 0.70931047
-0.0056035318 0.017744541 0.70863283
-0.0055743856 0.016723186 0.70796174
-0.0055455412 0.01571238 0.70729774
-0.0053681484 0.014315099 0.70321375
-0.0053719627 0.01342994 0.70330155
-0.0054121423 0.012628347 0.70422661
-0.0054665087 0.011844099 0.70547825
-0.0055033639 0.011006743 0.70632672
-0.0055408403 0.010158241 0.7071895
-0.0055696876 0.0092828274 0.70785367
-0.0055860602 0.0083791316 0.70823056
-0.0056009991 0.007468015 0.70857453
-0.0056161596 0.0065522194 0.70892352
-0.0056325584 0.0056325793 0.70930099
-0.0056501972 0.0047084987 0.70970708
-0.0056679114 0.0037786067 0.71011496
-0.0056868233 0.0028434098 0.71055037
-0.0057073412 0.0019024611 0.71102273
-0.0057279887 0.0009546876 0.71149802
-0.0057498054 2.9802322e-08 0.71200037
-0.005773114 -0.00096216798 0.71253693
-0.0057968767 -0.0019322634 0.71308398
-0.0058330134 -0.0029164851 0.71391594
-0.0058924556 -0.0039282739 0.71528441
-0.0059547112 -0.0049622357 0.71671772
-0.0060193525 -0.0060193241 0.71820587
-0.0060859928 -0.0071002841 0.71974009
-0.0061548478 -0.0082064569 0.72132528
-0.0062264297 -0.0093396604 0.72297329
-0.006300319 -0.01050055 0.7246744
-0.0063770995 -0.011691332 0.72644198
-0.0064571057 -0.012914181 0.72828394
-0.0065403441 -0.014170706 0.73020023
-0.0066267895 -0.015462458 0.73219037
-0.0067173708 -0.01679343 0.73427576
-0.0068121008 -0.018165618 0.73645663
-0.0069116824 -0.019583076 0.73874921
-0.0070160935 -0.021048248 0.741153
-0.0071262969 -0.022566557 0.74369007
-0.0072432794 -0.024144262 0.74638331
-0.0073671462 -0.025784999 0.74923503
-0.0074993242 -0.0274975 0.75227797
-0.0076412363 -0.029291391 0.75554514
-0.007794918 -0.031179696 0.75908315
-0.0079625398 -0.033177227 0.76294225
-0.0081478227 -0.035307199 0.7672078
-0.0083563477 -0.037603527 0.77200848
-0.0085968571 -0.040118635 0.77754557
-0.0088876858 -0.042957157 0.78424102
-0.0092862956 -0.046431452 0.79341787
-0.0054049985 0.054050028 0.72894907
-0.0054159835 0.053076625 0.72925258
-0.0054399581 0.052223653 0.7299149
-0.0054472717 0.051204354 0.7301169
-0.0054204254 0.049867928 0.7293753
-0.0053877453 0.04848972 0.72847235
-0.0053554373 0.047127843 0.72757983
-0.0053235143 0.045782208 0.72669798
-0.0052919895 0.044452727 0.72582704
-0.0052608163 0.043138713 0.72496581
-0.0052300268 0.041840255 0.72411513
-0.0051995954 0.040556878 0.72327447
-0.0051695164 0.039288342 0.72244352
-0.0051397653 0.03803432 0.72162163
-0.0051103728 0.036794722 0.72080958
-0.0050812969 0.035569102 0.72000629
-0.005052567 0.034357458 0.71921265
-0.0050241435 0.033159375 0.71842736
-0.0049960543 0.031974763 0.71765137
-0.0049682613 0.030803204 0.71688354
-0.004940792 0.029644787 0.71612465
-0.004913609 0.028498948 0.71537364
-0.004886739 0.027365744 0.71463132
-0.0048601297 0.0262447 0.71389621
-0.004833824 0.025135934 0.71316946
-0.0048078177 0.02403909 0.71245098
-0.004782089 0.022954077 0.71174026
-0.0047566351 0.021880537 0.71103704
-0.0047314349 0.020818323 0.7103408
-0.0047065155 0.019767404 0.70965242
-0.0046818424 0.018727362 0.70897073
-0.0046574413 0.017698288 0.7082966
-0.0046332786 0.016679794 0.70762908
-0.0046093659 0.015671849 0.70696849
-0.0044721654 0.014310956 0.70317811
-0.0044972012 0.013491601 0.7038697
-0.0045312699 0.012687564 0.70481092
-0.0045729633 0.011889726 0.70596278
-0.0046026171 0.01104629 0.70678204
-0.004631388 0.010189086 0.70757687
-0.0046483274 0.0092966557 0.70804483
-0.0046603167 0.0083885789 0.70837605
-0.0046724565 0.0074759722 0.70871139
-0.0046849991 0.0065590441 0.70905793
-0.0046986337 0.0056383908 0.70943463
-0.0047127507 0.0047127604 0.70982462
-0.004727554 0.0037820637 0.71023363
-0.0047435854 0.0028461516 0.71067649
-0.0047599999 0.001903981 0.71112996
-0.004776774 0.00095534325 0.71159339
-0.0047955066 2.9802322e-08 0.71211088
-0.0048144329 -0.00096285343 0.71263373
-0.0048350031 -0.0019340217 0.71320206
-0.0048719929 -0.0029231608 0.71422398
-0.0049219849 -0.003937602 0.71560508
-0.0049731797 -0.0049731731 0.71701944
-0.0050262832 -0.006031543 0.71848649
-0.005080984 -0.0071133673 0.71999764
-0.0051374924 -0.0082199574 0.72155881
-0.0051961434 -0.0093530416 0.7231791
-0.0052566873 -0.010513335 0.72485173
-0.0053195534 -0.011703014 0.72658855
-0.0053847996 -0.012923509 0.72839105
-0.0054525449 -0.014176607 0.73026264
-0.0055230218 -0.015464455 0.73220968
-0.0055967979 -0.01679036 0.7342478
-0.0056735668 -0.018155366 0.73636866
-0.0057539628 -0.019563466 0.73858976
-0.0058383886 -0.021018177 0.74092209
-0.0059269113 -0.022522241 0.74336773
-0.00602045 -0.024081796 0.74595189
-0.0061196568 -0.025702536 0.74869257
-0.0062246625 -0.027388513 0.75159359
-0.0063366811 -0.029148728 0.75468826
-0.0064569251 -0.030993223 0.75801021
-0.0065868637 -0.032934308 0.76159996
-0.0067283446 -0.03498736 0.76550853
-0.0068847281 -0.037177473 0.76982892
-0.0070595299 -0.039533377 0.77465808
-0.0072606285 -0.042111605 0.78021371
-0.0075026681 -0.045015991 0.78690052
-0.0078224 -0.048498869 0.79573357
-0.0043121963 0.053902447 0.72854149
-0.004311149 0.052811593 0.72850531
-0.0043343501 0.052012205 0.72930658
-0.0043395199 0.050989389 0.72948503
-0.0043232134 0.049716949 0.72892195
-0.0042972262 0.048343807 0.72802454
-0.0042715352 0.046986878 0.72713733
-0.0042461492 0.045646131 0.72626066
-0.004221078 0.044321328 0.72539485
-0.0041963011 0.043012112 0.72453928
-0.0041717985 0.041717976 0.72369313
-0.0041475953 0.040439069 0.72285736
-0.0041236714 0.039174914 0.72203106
-0.0041000219 0.037925214 0.72121441
-0.0040766415 0.036689758 0.72040701
-0.0040535131 0.03546828 0.71960831
-0.0040306589 0.034260631 0.71881908
-0.0040080477 0.033066422 0.71803826
-0.0039857021 0.031885624 0.71726656
-0.0039635911 0.03071782 0.71650302
-0.0039417371 0.02956304 0.71574831
-0.0039201095 0.028420776 0.71500146
-0.003898731 0.027291119 0.7142632
-0.0038775592 0.026173532 0.71353209
-0.0038566284 0.025068074 0.71280932
-0.0038359351 0.023974597 0.71209466
-0.0038154623 0.022892803 0.71138769
-0.0037952072 0.021822453 0.71068823
-0.0037751538 0.020763367 0.70999569
-0.0037553231 0.019715458 0.70931089
-0.003735688 0.018678427 0.70863283
-0.0037162572 0.017652214 0.7079618
-0.0036970389 0.01663667 0.70729816
-0.0035803167 0.015216351 0.70326734
-0.0035888066 0.014355242 0.70356047
-0.0036146289 0.013554871 0.70445222
-0.0036500196 0.012775123 0.70567441
-0.0036729875 0.011937231 0.70646757
-0.003696315 0.011088938 0.70727313
-0.0037137743 0.010212898 0.70787603
-0.0037240053 0.0093100071 0.70822936
-0.0037332261 0.0083997846 0.70854777
-0.0037427163 0.0074854493 0.70887548
-0.0037525038 0.0065668523 0.7092135
-0.0037634615 0.0056451857 0.70959193
-0.0037747105 0.0047184229 0.70998037
