# .PCD v0.7 - Point Cloud Data file format
VERSION 0.7
FIELDS x y z
SIZE 4 4 4
TYPE F F F
COUNT 1 1 1
WIDTH 1349
HEIGHT 1
VIEWPOINT 0 0 0 1 0 0 0
POINTS 1349
DATA ascii
0.015915358 0.008425802 0.70894712
0.015915358 0.0074895918 0.70894718
0.015915358 0.0065534115 0.70894712
0.015915358 0.0056172013 0.70894712
0.015915358 0.0046809912 0.70894712
0.015915358 0.003744781 0.70894718
0.015915358 0.0028086007 0.70894712
0.015915358 0.0018723905 0.70894712
0.015915358 0.00093621016 0.70894706
0.015915358 -0 0.70894712
0.015915358 -0.00093621016 0.70894712
0.015915358 -0.0018723905 0.70894712
0.015915358 -0.0028086007 0.70894718
0.015915358 -0.003744781 0.70894712
0.015915358 -0.0046809912 0.70894712
0.015915358 -0.0056171715 0.70894706
0.015915358 -0.0065533817 0.70894712
0.015915358 -0.0074895322 0.70894712
0.015915358 -0.0084257722 0.70894712
0.015915358 -0.0093619823 0.70894712
0.015915358 -0.010298163 0.70894712
0.015915306 -0.011234313 0.7089467
0.015915306 -0.012170523 0.7089467
0.015915306 -0.013106704 0.7089467
0.015915306 -0.014042914 0.7089467
0.015915306 -0.014979094 0.7089467
0.015915358 -0.015915334 0.70894706
0.015915358 -0.016851544 0.70894712
0.015526541 -0.017353177 0.70578778
0.015529117 -0.018269539 0.70580876
0.015653357 -0.019336462 0.70681822
0.016045168 -0.020764351 0.71000195
0.016365046 -0.02214092 0.71260107
0.016592829 -0.023425132 0.71445191
0.016764103 -0.024653047 0.71584356
0.016953208 -0.025928408 0.71738011
0.017180538 -0.027286708 0.71922731
0.017448185 -0.028738141 0.72140205
0.017789222 -0.030346334 0.72417319
0.018863859 0.031439781 0.72438967
0.018488839 0.0297876 0.72151172
0.018194806 0.028303057 0.71925527
0.017948046 0.026922047 0.71736169
0.017737934 0.025621474 0.71574926
0.017531535 0.024349362 0.71416533
0.017131448 0.02284193 0.71109498
0.016656036 0.021282732 0.70744669
0.016517377 0.020187914 0.70638257
0.016538044 0.019294381 0.70654118
0.016933754 0.018815279 0.70957792
0.016933754 0.017874509 0.70957792
0.016933754 0.016933739 0.70957792
0.016933754 0.015992999 0.70957798
0.016933702 0.015052199 0.7095775
0.016933702 0.014111429 0.70957756
0.016933702 0.01317066 0.70957756
0.016933754 0.012229919 0.70957792
0.016933754 0.011289179 0.70957792
0.016933754 0.010348439 0.70957792
0.016933754 0.0094076395 0.70957792
0.016933754 0.0084668994 0.70957792
0.016933754 0.0075261295 0.70957792
0.016933754 0.0065853298 0.70957792
0.016933754 0.0056445897 0.70957798
0.016933754 0.0047038496 0.70957792
0.016933754 0.0037630796 0.70957792
0.016933754 0.0028223097 0.70957792
0.016933754 0.0018815398 0.70957798
0.016933754 0.00094076991 0.70957792
0.016933754 2.9802322e-08 0.70957792
0.016933754 -0.00094074011 0.70957792
0.016933754 -0.0018814802 0.70957792
0.016933754 -0.0028222799 0.70957792
0.016933754 -0.0037630498 0.70957792
0.016933754 -0.0047038198 0.70957792
0.016933754 -0.0056445599 0.70957792
0.016933754 -0.0065853 0.70957792
0.016933754 -0.0075260699 0.70957792
0.016933754 -0.0084668696 0.70957792
0.016933754 -0.0094076097 0.70957792
0.016933754 -0.01034838 0.70957786
0.016933702 -0.01128912 0.7095775
0.016933702 -0.01222986 0.70957756
0.016933702 -0.01317066 0.7095775
0.016933702 -0.014111429 0.70957756
0.016933702 -0.01505214 0.7095775
0.016933702 -0.01599291 0.70957756
0.016933754 -0.016933709 0.70957792
0.016933754 -0.017874479 0.70957792
0.016537687 -0.018375188 0.7065385
0.016517427 -0.019270301 0.70638299
0.016656399 -0.020357758 0.70744944
0.017133366 -0.021892607 0.71110976
0.01753274 -0.023376971 0.71417457
0.017740345 -0.024639338 0.71576768
0.017948227 -0.025925189 0.717363
0.018194929 -0.027292371 0.71925622
0.018489223 -0.028760999 0.7215147
0.018864457 -0.030392677 0.72439426
0.019969765 0.031531245 0.72481072
0.019540565 0.029825091 0.7216903
0.019215491 0.028317571 0.71932697
0.018949863 0.026928782 0.71739578
0.018718103 0.025614262 0.71571088
0.01833212 0.024121255 0.71290475
0.017726261 0.022391051 0.70850003
0.017521782 0.021210581 0.70701349
0.017550843 0.020322025 0.70722473
0.017962135 0.019852906 0.71021497
0.017962135 0.018907517 0.71021491
0.017962135 0.017962128 0.71021491
0.017962135 0.017016768 0.71021491
0.017962078 0.016071349 0.7102145
0.017962078 0.01512599 0.7102145
0.017962078 0.01418063 0.7102145
0.017962135 0.013235271 0.71021485
0.017962135 0.012289882 0.71021491
0.017962135 0.011344522 0.71021491
0.017962135 0.010399133 0.71021491
0.017962135 0.0094537735 0.71021491
0.017962135 0.0085083842 0.71021497
0.017962135 0.0075630248 0.71021485
0.017962135 0.0066176355 0.71021491
0.017962135 0.0056723058 0.71021491
0.017962135 0.0047268867 0.71021491
0.017962135 0.0037815571 0.71021491
0.017962135 0.002836138 0.71021497
0.017962135 0.0018907785 0.71021485
0.017962135 0.00094538927 0.71021497
0.017962135 2.9802322e-08 0.71021491
0.017962135 -0.00094535947 0.71021491
0.017962135 -0.0018907189 0.71021491
0.017962135 -0.0028361082 0.71021491
0.017962135 -0.0037814677 0.71021491
0.017962135 -0.0047268569 0.71021497
0.017962135 -0.0056722462 0.71021485
0.017962135 -0.0066176355 0.71021491
0.017962135 -0.007562995 0.71021491
0.017962135 -0.0085083842 0.71021491
0.017962193 -0.0094537437 0.71021533
0.017962193 -0.010399133 0.71021533
0.017962135 -0.011344492 0.71021485
0.017962135 -0.012289852 0.71021497
0.017962135 -0.013235211 0.71021491
0.017962135 -0.01418063 0.71021491
0.017962135 -0.01512599 0.71021491
0.017962135 -0.016071379 0.71021497
0.017962135 -0.017016739 0.71021485
0.017962135 -0.017962128 0.71021497
0.017962135 -0.018907487 0.71021491
0.017550517 -0.019397914 0.7072224
0.01752189 -0.020288467 0.70701426
0.017722091 -0.021453053 0.70846975
0.018338012 -0.023163766 0.71294755
0.018720087 -0.024631679 0.7157253
0.018950116 -0.025931716 0.71739769
0.019215621 -0.027306408 0.71932793
0.019541038 -0.028797299 0.72169375
0.0199704 -0.03048113 0.72481531
0.021104716 0.0316571 0.7253902
0.020612925 0.029888749 0.72199357
0.020249419 0.028349221 0.71948296
0.019959137 0.026944846 0.71747816
0.019684942 0.02559042 0.71558434
0.018904265 0.023630321 0.71019256
0.01854392 0.022252709 0.70770371
0.018546579 0.021328598 0.70772207
0.018979849 0.020877868 0.71071458
0.019000648 0.019950718 0.71085817
0.019000648 0.019000649 0.71085817
0.019000586 0.018050581 0.71085775
0.019000586 0.017100543 0.71085775
0.019000586 0.016150504 0.71085775
0.019000586 0.015200496 0.71085775
0.019000586 0.014250457 0.71085775
0.019000648 0.013300449 0.71085817
0.019000648 0.01235047 0.71085823
0.019000648 0.011400372 0.71085817
0.019000648 0.010450363 0.71085817
0.019000648 0.0095003247 0.71085817
0.019000648 0.0085503161 0.71085817
0.019000648 0.0076003075 0.71085817
0.019000648 0.0066502392 0.71085817
0.019000648 0.0057002306 0.71085817
0.019000648 0.0047501922 0.71085823
0.019000648 0.0038001537 0.71085811
0.019000648 0.0028500855 0.71085823
0.019000648 0.0019000769 0.71085811
0.019000648 0.00095003843 0.71085817
0.019000648 -0 0.71085817
0.019000648 -0.00095000863 0.71085817
0.019000648 -0.0019000769 0.71085817
0.019000648 -0.0028500557 0.71085817
0.019000648 -0.0038000941 0.71085817
0.019000648 -0.0047501624 0.71085823
0.019000648 -0.0057002008 0.71085823
0.019000648 -0.0066502094 0.71085811
0.019000648 -0.0076002181 0.71085823
0.019000648 -0.0085502863 0.71085817
0.019000707 -0.0095003545 0.71085864
0.019000707 -0.010450363 0.71085858
0.019000648 -0.011400342 0.71085817
0.019000648 -0.01235038 0.71085817
0.019000648 -0.013300478 0.71085823
0.019000648 -0.014250487 0.71085817
0.019000648 -0.015200526 0.71085823
0.019000648 -0.016150504 0.71085817
0.019000648 -0.017100543 0.71085823
0.019000648 -0.018050611 0.71085823
0.019000586 -0.01900056 0.71085775
0.018979548 -0.019928485 0.71071243
0.018546522 -0.02040118 0.70772171
0.01854392 -0.021325469 0.70770371
0.018913643 -0.022696376 0.71025729
0.019682271 -0.02460283 0.71556592
0.019958468 -0.025945991 0.71747345
0.020249695 -0.027337074 0.71948493
0.020613497 -0.0288589 0.72199756
0.021105239 -0.030602574 0.72539383
0.022281228 0.031830341 0.72618794
0.021709932 0.029980391 0.72243011
0.021300539 0.028400749 0.71973723
0.020978423 0.026972324 0.71761841
0.020480756 0.025357127 0.71434492
0.019598268 0.023331314 0.70854008
0.019552005 0.022345155 0.70823574
0.019963177 0.021864474 0.71094036
0.02004944 0.0210042 0.71150786
0.02004944 0.020049483 0.7115078
0.020049376 0.019094646 0.71150732
0.020049376 0.018139929 0.71150738
0.020049376 0.017185181 0.71150738
0.020049376 0.016230464 0.71150732
0.020049376 0.015275747 0.71150738
0.020049376 0.014320999 0.71150738
0.02004944 0.013366312 0.7115078
0.02004944 0.012411565 0.7115078
0.02004944 0.011456847 0.7115078
0.02004944 0.0105021 0.7115078
0.02004944 0.0095473528 0.7115078
0.02004944 0.0085926354 0.7115078
0.02004944 0.007637918 0.7115078
0.02004944 0.0066831708 0.7115078
0.02004944 0.0057284534 0.7115078
0.02004944 0.0047736764 0.7115078
0.02004944 0.0038189888 0.7115078
0.02004944 0.0028642416 0.71150786
0.02004944 0.0019094646 0.7115078
0.02004944 0.0009547472 0.7115078
0.02004944 2.9802322e-08 0.7115078
0.02004944 -0.0009547472 0.7115078
0.02004944 -0.0019094646 0.7115078
0.02004944 -0.0028642118 0.7115078
0.02004944 -0.0038189292 0.7115078
0.02004944 -0.0047736466 0.7115078
0.02004944 -0.0057283938 0.7115078
0.02004944 -0.006683141 0.7115078
0.02004944 -0.0076378584 0.7115078
0.02004944 -0.0085926056 0.7115078
0.020049505 -0.0095473528 0.71150827
0.020049505 -0.01050213 0.71150821
0.02004944 -0.011456788 0.7115078
0.02004944 -0.012411505 0.7115078
0.02004944 -0.013366282 0.7115078
0.02004944 -0.014320999 0.7115078
0.02004944 -0.015275776 0.7115078
0.02004944 -0.016230524 0.7115078
0.02004944 -0.017185241 0.71150786
0.02004944 -0.018139958 0.7115078
0.02004944 -0.019094706 0.7115078
0.02004944 -0.020049423 0.7115078
0.019962989 -0.020913601 0.71093911
0.019551946 -0.021414012 0.70823538
0.019598514 -0.022398293 0.70854169
0.020484384 -0.024386138 0.71436876
0.020975465 -0.025969625 0.71759897
0.021300176 -0.02738595 0.71973491
0.021710536 -0.028947353 0.72243404
0.022281626 -0.030769825 0.72619057
0.023527913 0.032083571 0.72735369
0.022835502 0.030101359 0.72300625
0.022369096 0.028469771 0.72007781
0.022009557 0.027011722 0.71782041
0.02084564 0.024635762 0.7105124
0.020580862 0.023387343 0.70884991
0.020941652 0.022845477 0.71111524
0.021108668 0.022068202 0.71216387
0.021108668 0.021108687 0.71216387
0.021108601 0.020149142 0.71216351
0.021108601 0.019189626 0.71216351
0.021108601 0.0182302 0.71216345
0.021108601 0.017270654 0.71216351
0.021108601 0.016311198 0.71216345
0.021108601 0.015351713 0.71216345
0.021108601 0.014392257 0.71216345
0.021108668 0.013432801 0.71216387
0.021108668 0.012473315 0.71216387
0.021108668 0.011513829 0.71216393
0.021108668 0.010554343 0.71216393
0.021108668 0.0095948577 0.71216393
0.021108668 0.0086353421 0.71216393
0.021108668 0.007675916 0.71216387
0.021108668 0.0067164004 0.71216393
0.021108668 0.0057569444 0.71216387
0.021108668 0.0047974586 0.71216387
0.021108668 0.0038379729 0.71216387
0.021108668 0.0028784573 0.71216387
0.021108668 0.0019190013 0.71216387
0.021108668 0.00095951557 0.71216387
0.021108668 2.9802322e-08 0.71216387
0.021108668 -0.00095945597 0.71216387
0.021108668 -0.0019189417 0.71216393
0.021108668 -0.0028784275 0.71216393
0.021108668 -0.0038379133 0.71216393
0.021108668 -0.0047974288 0.71216393
0.021108668 -0.0057568848 0.71216393
0.021108668 -0.0067164004 0.71216393
0.021108668 -0.0076758564 0.71216393
0.021108668 -0.0086353421 0.71216393
0.021108739 -0.0095948577 0.71216428
0.021108739 -0.010554343 0.71216428
0.021108668 -0.011513829 0.71216393
0.021108668 -0.012473285 0.71216387
0.021108668 -0.013432771 0.71216381
0.021108668 -0.014392227 0.71216387
0.021108668 -0.015351743 0.71216381
0.021108668 -0.016311228 0.71216393
0.021108668 -0.017270714 0.71216393
0.021108668 -0.0182302 0.71216393
0.021108668 -0.019189686 0.71216393
0.021108668 -0.020149142 0.71216393
0.021108668 -0.021108657 0.71216393
0.020941384 -0.021893263 0.71111357
0.020580862 -0.022451848 0.70884991
0.020846769 -0.023689508 0.71051949
0.022004303 -0.02600503 0.71778738
0.02236772 -0.027451307 0.72006917
0.022835979 -0.02906397 0.72300929
0.023527913 -0.031014025 0.72735369
0.024926508 0.032512873 0.72933048
0.024002153 0.030263603 0.72377902
0.023463525 0.028564334 0.72054416
0.023050858 0.027059734 0.71806574
0.021652645 0.024476945 0.7096684
0.021655111 0.023538172 0.7096833
0.022104524 0.023065597 0.71238232
0.02217849 0.022178501 0.71282655
0.02217849 0.021214187 0.71282655
0.022178419 0.020249873 0.71282607
0.022178419 0.019285589 0.71282607
0.022178419 0.018321335 0.71282613
0.022178419 0.017357051 0.71282613
0.022178419 0.016392767 0.71282613
0.022178419 0.015428513 0.71282607
0.022178419 0.014464229 0.71282613
0.02217849 0.013499945 0.71282655
0.02217849 0.012535691 0.71282655
0.02217849 0.011571407 0.71282655
0.02217849 0.010607123 0.71282655
0.02217849 0.0096428394 0.71282655
0.02217849 0.0086785555 0.71282655
0.02217849 0.0077142715 0.71282649
0.02217849 0.0067500174 0.71282655
0.02217849 0.0057856739 0.71282655
0.02217849 0.0048214495 0.71282655
0.02217849 0.0038571656 0.71282655
0.02217849 0.0028928518 0.71282649
0.02217849 0.0019285679 0.71282655
0.02217849 0.00096431375 0.71282649
0.02217849 2.9802322e-08 0.71282655
0.02217849 -0.00096428394 0.71282661
0.02217849 -0.0019285679 0.71282649
0.02217849 -0.002892822 0.71282655
0.02217849 -0.003857106 0.71282649
0.02217849 -0.0048213899 0.71282661
0.02217849 -0.0057856739 0.71282655
0.02217849 -0.0067499578 0.71282649
0.02217849 -0.0077142417 0.71282655
0.02217849 -0.0086785257 0.71282661
0.022178562 -0.0096428394 0.71282697
0.022178562 -0.010607153 0.71282697
0.02217849 -0.011571348 0.71282649
0.02217849 -0.012535661 0.71282661
0.02217849 -0.013499945 0.71282649
0.02217849 -0.0144642 0.71282655
0.02217849 -0.015428483 0.71282649
0.02217849 -0.016392797 0.71282661
0.02217849 -0.017357081 0.71282649
0.02217849 -0.018321335 0.71282649
0.02217849 -0.019285589 0.71282655
0.02217849 -0.020249933 0.71282661
0.02217849 -0.021214187 0.71282649
0.022104239 -0.022104234 0.71238059
0.021654906 -0.022596389 0.70968199
0.02165278 -0.023535609 0.70966923
0.023038667 -0.026043713 0.71799254
0.023461031 -0.02754119 0.7205292
0.024002237 -0.029220104 0.72377956
0.024925234 -0.031427443 0.72932279
0.025230138 0.030486435 0.72484046
0.02458996 0.028688341 0.72115588
0.024088541 0.027099639 0.71826994
0.022676326 0.024566054 0.7101419
0.023058737 0.024019539 0.71234286
0.023258988 0.023258984 0.71349537
0.023259062 0.022289962 0.71349585
0.023259062 0.02132085 0.71349585
0.023258988 0.020351619 0.71349549
0.023258988 0.019382507 0.71349543
0.023258988 0.018413395 0.71349543
0.023258988 0.017444253 0.71349549
0.023258988 0.016475111 0.71349543
0.023258988 0.015505999 0.71349543
0.023258988 0.014536858 0.71349543
0.023259062 0.013567835 0.71349585
0.023259062 0.012598693 0.71349585
0.023259062 0.011629552 0.71349585
0.023259062 0.01066044 0.71349585
0.023259062 0.009691298 0.71349585
0.023259062 0.0087221861 0.71349585
0.023259062 0.0077530742 0.71349585
0.023259062 0.0067839324 0.71349585
0.023259062 0.0058147907 0.71349585
0.023259062 0.004845649 0.71349585
0.023259062 0.0038765371 0.71349585
0.023259062 0.0029073954 0.71349579
0.023259062 0.0019382834 0.71349585
0.023259062 0.00096914172 0.71349585
0.023259062 2.9802322e-08 0.71349585
0.023259062 -0.00096908212 0.71349585
0.023259062 -0.0019382238 0.71349585
0.023259062 -0.0029073358 0.71349585
0.023259062 -0.0038764775 0.71349585
0.023259062 -0.0048456192 0.71349585
0.023259062 -0.0058147311 0.71349585
0.023259062 -0.006783843 0.71349585
0.023259062 -0.0077530146 0.71349579
0.023259062 -0.0087221265 0.71349585
0.023259139 -0.009691298 0.71349633
0.023259139 -0.01066044 0.71349627
0.023259062 -0.011629492 0.71349585
0.023259062 -0.012598634 0.71349585
0.023259062 -0.013567746 0.71349585
0.023259062 -0.014536887 0.71349585
0.023259062 -0.015506029 0.71349585
0.023259062 -0.016475141 0.71349585
0.023259062 -0.017444283 0.71349585
0.023259062 -0.018413454 0.71349585
0.023259062 -0.019382507 0.71349585
0.023259062 -0.020351648 0.71349585
0.023259062 -0.02132079 0.71349585
0.023258988 -0.022289842 0.71349537
0.02305948 -0.023059458 0.71234715
0.022676397 -0.023621261 0.71014231
0.02406361 -0.026068866 0.71812648
0.024587078 -0.027660459 0.72113931
0.025229869 -0.02943483 0.72483897
0.026560236 0.030809879 0.72638112
0.025759283 0.028850436 0.72195566
0.023801293 0.025705427 0.71113712
0.023761131 0.024711609 0.71091527
0.024214698 0.024214745 0.71342123
0.024350548 0.023376554 0.71417189
0.024350548 0.022402525 0.71417189
0.024350548 0.021428496 0.71417189
0.02435047 0.020454407 0.71417153
0.02435047 0.019480407 0.71417153
0.02435047 0.018506378 0.71417153
0.02435047 0.017532349 0.71417153
0.02435047 0.016558319 0.71417147
0.02435047 0.01558432 0.71417153
0.02435047 0.014610291 0.71417147
0.024350548 0.013636321 0.71417195
0.024350548 0.012662292 0.71417189
0.024350548 0.011688262 0.71417189
0.024350548 0.010714263 0.71417189
0.024350548 0.0097402334 0.71417189
0.024350548 0.0087662339 0.71417189
0.024350548 0.0077921748 0.71417195
0.024350548 0.0068181753 0.71417195
0.024350548 0.0058441758 0.71417195
0.024350548 0.0048701465 0.71417195
0.024350548 0.0038961172 0.71417195
0.024350548 0.0029220879 0.71417195
0.024350548 0.0019480288 0.71417189
0.024350548 0.0009740293 0.71417189
0.024350548 2.9802322e-08 0.71417189
0.024350548 -0.0009739697 0.71417189
0.024350548 -0.001947999 0.71417189
0.024350548 -0.0029220581 0.71417195
0.024350548 -0.0038960874 0.71417195
0.024350548 -0.0048701167 0.71417195
0.024350548 -0.0058441162 0.71417195
0.024350548 -0.0068181157 0.71417195
0.024350548 -0.007792145 0.71417195
0.024350548 -0.0087661743 0.71417189
0.024350628 -0.0097402334 0.71417236
0.024350628 -0.010714293 0.71417236
0.024350548 -0.011688262 0.71417189
0.024350548 -0.012662262 0.71417189
0.024350548 -0.013636291 0.71417189
0.024350548 -0.01461032 0.71417195
0.024350548 -0.01558435 0.71417195
0.024350548 -0.016558349 0.71417195
0.024350548 -0.017532378 0.71417195
0.024350548 -0.018506408 0.71417195
0.024350548 -0.019480377 0.71417195
0.024350548 -0.020454437 0.71417189
0.024350548 -0.021428466 0.71417189
0.024350548 -0.022402495 0.71417189
0.024214381 -0.023245811 0.71341956
0.02376098 -0.023760974 0.71091437
0.023801675 -0.02475372 0.7111392
0.025757588 -0.027818173 0.72194624
0.026560236 -0.029747456 0.72638118
0.028217688 0.031473577 0.72954243
0.026993439 0.029069871 0.72303832
0.024827102 0.025782019 0.71152896
0.02500906 0.025009066 0.71249568
0.025361784 0.024386346 0.71436965
0.025453117 0.023495197 0.71485484
0.025453117 0.022516221 0.71485484
0.025453117 0.021537244 0.71485484
0.025453033 0.020558238 0.71485436
0.025453033 0.019579262 0.71485442
0.025453033 0.018600315 0.71485442
0.025453033 0.017621338 0.71485442
0.025453033 0.016642421 0.71485442
0.025453033 0.015663415 0.71485442
0.025453033 0.014684439 0.71485448
0.025453117 0.013705522 0.7148549
0.025453117 0.012726575 0.71485484
0.025453117 0.011747628 0.71485484
0.025453117 0.010768622 0.71485484
0.025453117 0.0097896755 0.7148549
0.025453117 0.008810699 0.7148549
0.025453117 0.0078317523 0.71485484
0.025453117 0.0068528056 0.71485484
0.025453117 0.0058738291 0.71485484
0.025453117 0.0048948228 0.7148549
0.025453117 0.0039158762 0.71485484
0.025453117 0.0029369295 0.7148549
0.025453117 0.001957953 0.71485484
0.025453117 0.00097897649 0.71485484
0.025453117 -0 0.71485484
0.025453117 -0.00097891688 0.71485484
0.025453117 -0.0019578934 0.7148549
0.025453117 -0.0029368997 0.71485484
0.025453117 -0.0039158463 0.71485484
0.025453117 -0.004894793 0.71485484
0.025453117 -0.0058737695 0.71485484
0.025453117 -0.006852746 0.7148549
0.025453117 -0.0078317523 0.71485484
0.025453201 -0.008810699 0.71485531
0.025453201 -0.0097896755 0.71485531
0.025453201 -0.010768652 0.71485531
0.025453117 -0.011747569 0.7148549
0.025453117 -0.012726545 0.7148549
0.025453117 -0.013705522 0.71485484
0.025453117 -0.014684439 0.7148549
0.025453117 -0.015663415 0.71485484
0.025453117 -0.016642421 0.7148549
0.025453117 -0.017621368 0.71485484
0.025453117 -0.018600345 0.71485484
0.025453117 -0.019579291 0.7148549
0.025453117 -0.020558268 0.71485484
0.025453117 -0.021537274 0.7148549
0.025453201 -0.022516251 0.71485531
0.025361534 -0.023410648 0.71436834
0.025005907 -0.024044156 0.71247888
0.024827102 -0.024827093 0.71152902
0.02699325 -0.028031409 0.72303724
0.028219953 -0.03039068 0.72955453
0.028344929 0.029394776 0.72464108
0.025901498 0.025901496 0.71214044
0.026295751 0.025321871 0.71415734
0.026513249 0.024549335 0.7152701
0.026566934 0.023615062 0.71554476
0.026566934 0.022631109 0.7155447
0.026566934 0.021647155 0.71554476
0.026566846 0.020663112 0.71554434
0.026566846 0.019679189 0.71554434
0.026566846 0.018695205 0.71554434
0.026566846 0.017711222 0.71554434
0.026566846 0.016727298 0.71554428
0.026566846 0.015743345 0.71554434
0.026566846 0.014759362 0.71554434
0.026566934 0.013775438 0.71554482
0.026566934 0.012791514 0.71554476
0.026566934 0.011807531 0.71554476
0.026566934 0.010823607 0.7155447
0.026566934 0.009839654 0.71554476
0.026566934 0.0088556409 0.71554476
0.026566934 0.0078717172 0.71554482
0.026566934 0.0068877339 0.71554476
0.026566934 0.0059037507 0.71554476
0.026566934 0.004919827 0.7155447
0.026566934 0.0039358735 0.71554476
0.026566934 0.00295192 0.71554482
0.026566934 0.0019679368 0.71554482
0.026566934 0.00098395348 0.71554476
0.026566934 5.9604645e-08 0.7155447
0.026566934 -0.00098395348 0.7155447
0.026566934 -0.001967907 0.71554476
0.026566934 -0.0029518604 0.71554482
0.026566934 -0.0039358139 0.71554482
0.026566934 -0.004919827 0.71554476
0.026566934 -0.0059037507 0.71554482
0.026566934 -0.0068877041 0.71554476
0.026566934 -0.0078716576 0.71554476
0.026567023 -0.0088556707 0.71554524
0.026567023 -0.0098396242 0.71554524
0.026567023 -0.010823578 0.71554518
0.026566934 -0.011807501 0.7155447
0.026566934 -0.012791485 0.71554476
0.026566934 -0.013775408 0.71554476
0.026566934 -0.014759421 0.71554482
0.026566934 -0.015743345 0.71554476
0.026566934 -0.016727328 0.71554476
0.026566934 -0.017711282 0.71554482
0.026566934 -0.018695205 0.71554476
0.026566934 -0.019679189 0.71554476
0.026566934 -0.020663172 0.71554482
0.026567023 -0.021647215 0.71554518
0.026567023 -0.022631139 0.71554524
0.026513161 -0.023567259 0.71526968
0.026295407 -0.024347544 0.71415561
0.025901666 -0.024942338 0.71214122
0.02834533 -0.028345317 0.72464305
0.029993258 0.029993296 0.72759372
0.027001126 0.026036799 0.71283257
0.027434528 0.025474936 0.71497071
0.027652908 0.024690092 0.71604806
0.027692083 0.02373606 0.7162413
0.027692175 0.022747159 0.71624178
0.027692175 0.021758169 0.71624178
0.027692083 0.02076906 0.71624136
0.027692083 0.01978004 0.7162413
0.027692083 0.01879108 0.71624124
0.027692083 0.01780206 0.7162413
0.027692083 0.01681307 0.71624136
0.027692083 0.01582408 0.7162413
0.027692083 0.014835089 0.71624124
0.027692175 0.013846099 0.71624172
0.027692175 0.012857109 0.71624172
0.027692175 0.011868089 0.71624172
0.027692175 0.01087907 0.71624178
0.027692175 0.0098900795 0.71624172
0.027692175 0.0089010894 0.71624172
0.027692175 0.0079120398 0.71624172
0.027692175 0.0069230497 0.71624172
0.027692175 0.0059340298 0.71624184
0.027692175 0.0049450099 0.71624178
0.027692175 0.0039560199 0.71624172
0.027692175 0.0029670298 0.71624178
0.027692268 0.0019780397 0.71624219
0.027692268 0.00098899007 0.71624219
0.027692268 -0 0.71624219
0.027692268 -0.00098899007 0.71624219
0.027692268 -0.0019780099 0.71624219
0.027692268 -0.002967 0.71624219
0.027692268 -0.0039560497 0.71624219
0.027692268 -0.0049450397 0.71624225
0.027692268 -0.0059340298 0.71624219
0.027692268 -0.0069230497 0.71624225
0.027692268 -0.0079120696 0.71624219
0.027692268 -0.0089010596 0.71624219
0.027692268 -0.0098900795 0.71624219
0.027692268 -0.010879099 0.71624219
0.027692175 -0.01186806 0.71624178
0.027692175 -0.01285705 0.71624178
0.027692175 -0.01384604 0.71624172
0.027692175 -0.014835089 0.71624172
0.027692175 -0.01582408 0.71624172
0.027692175 -0.01681307 0.71624178
0.027692175 -0.017802119 0.71624178
0.027692268 -0.018791169 0.71624219
0.027692268 -0.019780159 0.71624219
0.027692268 -0.020769179 0.71624213
0.027692268 -0.021758199 0.71624219
0.027692268 -0.022747219 0.71624225
0.027652632 -0.023702264 0.71604669
0.027434258 -0.024494857 0.71496934
0.027001038 -0.025072396 0.71283221
0.029995743 -0.028924435 0.72760594
0.028117802 0.026178658 0.71355826
0.02857068 0.025615096 0.71571541
0.028791673 0.024820447 0.71676803
0.028828919 0.023858458 0.71694547
0.028829016 0.022864401 0.71694589
0.028829016 0.021870345 0.71694589
0.028828919 0.020876139 0.71694547
0.028828919 0.019882053 0.71694541
0.028828919 0.018887937 0.71694547
0.028828919 0.017893791 0.71694541
0.028828919 0.016899735 0.71694547
0.028828919 0.015905648 0.71694541
0.028828919 0.014911503 0.71694541
0.028829016 0.013917476 0.71694589
0.028829016 0.01292336 0.71694589
0.028829016 0.011929274 0.71694589
0.028829016 0.010935158 0.71694595
0.028829016 0.0099410713 0.71694589
0.028829016 0.0089469552 0.71694589
0.028829016 0.0079528093 0.71694595
0.028829016 0.0069587529 0.71694595
0.028829016 0.0059646368 0.71694589
0.028829016 0.0049705207 0.71694589
0.028829016 0.0039764345 0.71694595
0.028829016 0.0029823184 0.71694589
0.028829113 0.0019882321 0.71694636
0.028829113 0.00099414587 0.71694636
0.028829113 -0 0.71694642
0.028829113 -0.00099408627 0.71694636
0.028829113 -0.0019881725 0.71694636
0.028829113 -0.0029822886 0.7169463
0.028829113 -0.0039764345 0.71694636
0.028829113 -0.0049705207 0.71694636
0.028829113 -0.0059646368 0.71694636
0.028829113 -0.0069587231 0.71694636
0.028829113 -0.0079528689 0.7169463
0.028829113 -0.0089469254 0.71694636
0.028829113 -0.0099410415 0.71694636
0.028829113 -0.010935158 0.71694636
0.028829016 -0.011929244 0.71694589
0.028829016 -0.01292333 0.71694595
0.028829016 -0.013917446 0.71694589
0.028829016 -0.014911562 0.71694595
0.028829016 -0.015905648 0.71694589
0.028829016 -0.016899735 0.71694595
0.028829113 -0.01789391 0.71694642
0.028829113 -0.018887997 0.71694636
0.028829113 -0.019882113 0.71694636
0.028829113 -0.020876229 0.7169463
0.028829113 -0.021870345 0.71694636
0.028829113 -0.022864431 0.71694636
0.02879129 -0.023827255 0.71676618
0.028570399 -0.024629653 0.7157141
0.028117895 -0.025209129 0.71355867
0.029243646 0.026319325 0.71427774
0.029698137 0.025738388 0.71637046
0.02992505 0.02493757 0.71741521
0.029977536 0.023982048 0.71765691
0.029977635 0.022982866 0.71765739
0.029977635 0.021983594 0.71765733
0.029977536 0.020984262 0.71765685
0.029977536 0.01998505 0.71765691
0.029977536 0.018985778 0.71765691
0.029977536 0.017986536 0.71765691
0.029977536 0.016987294 0.71765691
0.029977536 0.015988052 0.71765691
0.029977536 0.01498878 0.71765691
0.029977635 0.013989598 0.71765733
0.029977635 0.012990355 0.71765739
0.029977635 0.011991054 0.71765733
0.029977635 0.010991782 0.71765739
0.029977635 0.0099925995 0.71765739
0.029977635 0.0089932978 0.71765733
0.029977635 0.0079940557 0.71765739
0.029977635 0.0069947839 0.71765745
0.029977635 0.0059955716 0.71765733
0.029977635 0.0049962997 0.71765739
0.029977635 0.0039970279 0.71765745
0.029977635 0.0029977858 0.71765739
0.029977737 0.0019985139 0.71765786
0.029977737 0.00099924207 0.71765786
0.029977737 5.9604645e-08 0.7176578
0.029977737 -0.00099924207 0.7176578
0.029977737 -0.0019985139 0.71765786
0.029977737 -0.002997756 0.71765786
0.029977737 -0.0039970279 0.7176578
0.029977737 -0.0049962699 0.71765786
0.029977737 -0.0059955418 0.7176578
0.029977737 -0.0069947839 0.71765786
0.029977737 -0.0079940557 0.7176578
0.029977737 -0.0089932978 0.7176578
0.029977737 -0.0099925697 0.7176578
0.029977737 -0.010991842 0.71765786
0.029977635 -0.011991054 0.71765739
0.029977635 -0.012990266 0.71765733
0.029977635 -0.013989538 0.71765739
0.029977635 -0.01498881 0.71765739
0.029977635 -0.015988052 0.71765733
0.029977737 -0.016987354 0.7176578
0.029977737 -0.017986625 0.7176578
0.029977737 -0.018985897 0.71765786
0.029977737 -0.019985139 0.7176578
0.029977737 -0.020984381 0.7176578
0.029977737 -0.021983653 0.7176578
0.029977737 -0.022982955 0.71765786
0.029924748 -0.023939818 0.71741384
0.029700212 -0.024750173 0.71638
0.029243454 -0.025344282 0.71427691
0.030371942 0.026452988 0.71496177
0.030830208 0.025857598 0.71700376
0.031051071 0.025041193 0.7179879
0.031138116 0.02410695 0.71837574
0.031138116 0.023102522 0.71837574
0.031138116 0.022098064 0.7183758
0.031138012 0.021093488 0.71837533
0.031138116 0.02008912 0.7183758
0.031138116 0.019084662 0.71837574
0.031138116 0.018080175 0.7183758
0.031138116 0.017075747 0.71837574
0.031138116 0.01607129 0.7183758
0.031138116 0.015066862 0.7183758
0.031138223 0.014062434 0.71837628
0.031138325 0.013058037 0.71837664
0.031138325 0.012053579 0.7183767
0.031138325 0.011049122 0.7183767
0.031138325 0.010044634 0.7183767
0.031138223 0.0090401173 0.71837628
0.031138223 0.0080357194 0.71837628
0.031138223 0.0070312321 0.71837622
0.031138223 0.0060267746 0.71837622
0.031138223 0.0050223172 0.71837628
0.031138223 0.0040178299 0.71837628
0.031138223 0.0030134022 0.71837628
0.031138325 0.0020089746 0.71837676
0.031138325 0.0010044873 0.7183767
0.031138325 2.9802322e-08 0.71837676
0.031138325 -0.0010044277 0.7183767
0.031138325 -0.0020089149 0.71837676
0.031138325 -0.0030134022 0.71837676
0.031138325 -0.0040178299 0.71837664
0.031138325 -0.0050222874 0.7183767
0.031138325 -0.0060267746 0.71837676
0.031138325 -0.0070312023 0.7183767
0.031138325 -0.0080356896 0.71837676
0.031138325 -0.0090401471 0.7183767
0.031138325 -0.010044605 0.71837664
0.031138325 -0.011049062 0.7183767
0.031138223 -0.01205349 0.71837628
0.031138223 -0.013057947 0.71837628
0.031138223 -0.014062434 0.71837628
0.031138223 -0.015066862 0.71837628
0.031138223 -0.01607132 0.71837622
0.031138325 -0.017075837 0.7183767
0.031138325 -0.018080294 0.71837676
0.031138431 -0.019084811 0.71837717
0.031138431 -0.020089298 0.71837723
0.031138431 -0.021093756 0.71837717
0.031138431 -0.022098213 0.71837723
0.031138325 -0.023102611 0.7183767
0.031050861 -0.024039358 0.717987
0.030830106 -0.024862945 0.71700329
0.030371942 -0.025473237 0.71496177
0.031507485 0.026584446 0.71563435
0.031949308 0.025958806 0.71754158
0.032175284 0.025136948 0.71851695
0.032310955 0.024233222 0.71910262
0.032310847 0.02322343 0.71910214
0.032310847 0.022213757 0.71910214
0.032310955 0.021204054 0.71910268
0.032310955 0.020194352 0.71910268
0.032310955 0.019184649 0.71910268
0.032310955 0.018174887 0.71910268
0.032310955 0.017165214 0.71910268
0.032310955 0.016155511 0.71910262
0.032310955 0.015145749 0.71910262
0.032311067 0.014136106 0.7191031
0.032311067 0.013126403 0.7191031
0.032311067 0.012116671 0.7191031
0.032311067 0.011106938 0.7191031
0.032311067 0.010097235 0.7191031
0.032310955 0.0090874434 0.71910268
0.032310955 0.0080777705 0.71910268
0.032310955 0.007068038 0.71910268
0.032310955 0.0060583055 0.71910262
0.032310955 0.0050486028 0.71910262
0.032310955 0.0040389001 0.71910262
0.032310955 0.0030291677 0.71910262
0.032311067 0.0020194352 0.7191031
0.032311067 0.0010097325 0.71910316
0.032311067 -0 0.71910316
0.032311067 -0.0010097027 0.71910316
0.032311067 -0.0020194352 0.71910316
0.032311067 -0.0030291677 0.7191031
0.032311067 -0.0040388703 0.7191031
0.032311067 -0.005048573 0.7191031
0.032311067 -0.0060583055 0.7191031
0.032311067 -0.007068038 0.7191031
0.032311067 -0.0080777407 0.7191031
0.032311179 -0.009087503 0.71910357
0.032311179 -0.010097206 0.71910357
0.032311179 -0.011106968 0.71910357
0.032311067 -0.012116611 0.71910316
0.032311067 -0.013126343 0.7191031
0.032311067 -0.014136076 0.7191031
0.032311067 -0.015145779 0.7191031
0.032311067 -0.016155511 0.7191031
0.032311067 -0.017165244 0.7191031
0.032311067 -0.018174946 0.7191031
0.032311179 -0.019184738 0.71910363
0.032311179 -0.020194501 0.71910357
0.032311179 -0.021204174 0.71910357
0.032311179 -0.022213906 0.71910357
0.032311067 -0.023223579 0.7191031
0.032157563 -0.024118155 0.71844041
0.031949092 -0.02496022 0.71754062
0.031507272 -0.025599599 0.71563339
0.032656863 0.026719272 0.71632409
0.032961223 0.025969476 0.71759802
0.033290949 0.025220454 0.71897817
0.033496037 0.024360746 0.71983671
0.033495925 0.023345679 0.71983624
0.033495925 0.022330642 0.71983624
0.033496037 0.021315694 0.71983671
0.033496037 0.020300657 0.71983665
0.033496037 0.019285619 0.71983665
0.033496037 0.018270612 0.71983671
0.033496037 0.017255545 0.71983671
0.033496037 0.016240507 0.71983671
0.033496037 0.01522547 0.71983671
0.033496156 0.014210492 0.71983719
0.033496156 0.013195455 0.71983719
0.033496156 0.012180418 0.71983719
0.033496156 0.01116538 0.71983719
0.033496156 0.010150403 0.71983713
0.033496037 0.0091352761 0.71983671
0.033496037 0.0081202388 0.71983671
0.033496037 0.0071052313 0.71983671
0.033496037 0.006090194 0.71983671
0.033496037 0.0050751865 0.71983671
0.033496037 0.0040601492 0.71983671
0.033496037 0.0030451119 0.71983671
0.033496156 0.0020301044 0.71983713
0.033496156 0.0010150671 0.71983719
0.033496156 -0 0.71983719
0.033496156 -0.0010150373 0.71983719
0.033496156 -0.0020300448 0.71983719
0.033496156 -0.0030450821 0.71983713
0.033496156 -0.0040601194 0.71983719
0.033496156 -0.0050751567 0.71983719
0.033496156 -0.0060901642 0.71983719
0.033496156 -0.0071052015 0.71983713
0.033496156 -0.0081202388 0.71983719
0.033496268 -0.0091353059 0.71983767
0.033496268 -0.010150373 0.71983767
0.033496268 -0.01116538 0.71983767
0.033496156 -0.012180418 0.71983719
0.033496156 -0.013195425 0.71983719
0.033496156 -0.014210433 0.71983719
0.033496156 -0.0152255 0.71983719
0.033496156 -0.016240537 0.71983719
0.033496156 -0.017255545 0.71983713
0.033496268 -0.018270701 0.71983767
0.033496268 -0.019285709 0.71983767
0.033496268 -0.020300746 0.71983767
0.033496268 -0.021315783 0.71983761
0.033496268 -0.022330821 0.71983767
0.033496156 -0.023345798 0.71983719
0.033275146 -0.024200082 0.71891212
0.032960452 -0.024970025 0.71759486
0.032656863 -0.025729656 0.71632403
0.033838671 0.02687189 0.71710491
0.033956513 0.025966793 0.71758366
0.034406323 0.025298774 0.71941113
0.034629382 0.024444312 0.72031736
0.034693543 0.02346918 0.72057801
0.034693543 0.022448778 0.72057801
0.034693658 0.021428466 0.72057849
0.034693658 0.020408064 0.72057855
0.034693658 0.019387633 0.72057855
0.034693658 0.018367261 0.72057849
0.034693658 0.017346889 0.72057849
0.034693658 0.016326427 0.72057855
0.034693658 0.015306026 0.72057849
0.034693781 0.014285684 0.72057903
0.034693781 0.013265282 0.72057897
0.034693781 0.01224488 0.72057897
0.034693781 0.011224449 0.72057903
0.034693781 0.010204077 0.72057903
0.034693658 0.0091836452 0.72057849
0.034693658 0.0081632137 0.72057855
0.034693658 0.0071428418 0.72057849
0.034693658 0.0061224699 0.72057849
0.034693658 0.0051020384 0.72057849
0.034693658 0.0040816069 0.72057855
0.034693658 0.0030612051 0.72057855
0.034693781 0.0020408332 0.72057897
0.034693781 0.0010204315 0.72057897
0.034693781 -0 0.72057903
0.034693781 -0.0010204017 0.72057903
0.034693781 -0.0020408034 0.72057897
0.034693781 -0.0030612051 0.72057897
0.034693781 -0.0040816069 0.72057897
0.034693781 -0.0051020086 0.72057897
0.034693781 -0.0061224103 0.72057897
0.034693781 -0.007142812 0.72057897
0.034693781 -0.0081632137 0.72057903
0.0346939 -0.0091836751 0.72057945
0.0346939 -0.010204047 0.72057945
0.0346939 -0.011224478 0.7205795
0.034693781 -0.01224485 0.72057903
0.034693781 -0.013265222 0.72057903
0.034693781 -0.014285654 0.72057897
0.034693781 -0.015306056 0.72057897
0.034693781 -0.016326457 0.72057897
0.0346939 -0.017346948 0.7205795
0.0346939 -0.01836735 0.7205795
0.0346939 -0.019387752 0.7205795
0.0346939 -0.020408183 0.72057945
0.0346939 -0.021428555 0.72057945
0.0346939 -0.022448957 0.72057945
0.034629144 -0.023425579 0.72031641
0.034406088 -0.024286658 0.71941018
0.033956058 -0.0249677 0.71758181
0.033838782 -0.025876671 0.71710533
0.035045974 0.026034147 0.71794182
0.035514709 0.025367647 0.71979177
0.035731837 0.02450186 0.72064865
0.035903897 0.023593992 0.72132772
0.035903897 0.022568166 0.72132766
0.03590402 0.02154246 0.7213282
0.03590402 0.020516604 0.72132826
0.03590402 0.019490778 0.7213282
0.03590402 0.018464923 0.7213282
0.03590402 0.017439127 0.7213282
0.03590402 0.016413301 0.72132814
0.03590402 0.015387475 0.7213282
0.035904147 0.01436168 0.72132874
0.035904147 0.013335824 0.72132862
0.035904147 0.012309998 0.72132868
0.035904147 0.011284202 0.72132868
0.035904147 0.010258317 0.72132868
0.03590402 0.0092325211 0.7213282
0.03590402 0.0082066655 0.7213282
0.03590402 0.0071808696 0.72132826
0.03590402 0.006155014 0.72132814
0.03590402 0.0051291883 0.7213282
0.03590402 0.0041033626 0.7213282
0.03590402 0.003077507 0.7213282
0.035904147 0.0020516813 0.72132874
0.035904147 0.0010258257 0.72132868
0.035904147 2.9802322e-08 0.72132868
0.035904147 -0.0010258257 0.72132868
0.035904147 -0.0020516515 0.72132874
0.035904147 -0.0030774474 0.72132868
0.035904147 -0.0041033328 0.72132874
0.035904147 -0.0051291883 0.72132868
0.035904147 -0.0061549842 0.72132868
0.035904147 -0.00718081 0.72132874
0.035904147 -0.0082066357 0.72132862
0.03590427 -0.0092325211 0.72132921
0.03590427 -0.010258347 0.72132921
0.03590427 -0.011284202 0.72132915
0.035904147 -0.012309998 0.72132868
0.035904147 -0.013335824 0.72132874
0.035904147 -0.01436162 0.72132862
0.03590427 -0.015387535 0.72132921
0.03590427 -0.016413361 0.72132921
0.03590427 -0.017439216 0.72132915
0.03590427 -0.018465012 0.72132915
0.03590427 -0.019490898 0.72132921
0.03590427 -0.020516694 0.72132915
0.03590427 -0.021542519 0.72132921
0.03590427 -0.022568375 0.72132921
0.035731595 -0.023480743 0.72064769
0.035514466 -0.024352759 0.71979076
0.035045855 -0.025032729 0.71794134
0.036198046 0.026143074 0.71852022
0.036462232 0.025320977 0.71953398
0.036839753 0.024559855 0.72098249
0.037052292 0.023672312 0.72179794
0.037127197 0.022688866 0.72208548
0.037127331 0.021657616 0.72208595
0.037127331 0.020626307 0.72208595
0.037127331 0.019594997 0.72208595
0.037127331 0.018563688 0.72208595
0.037127331 0.017532378 0.72208595
0.037127331 0.016501069 0.72208595
0.037127331 0.01546973 0.72208595
0.037127458 0.01443848 0.72208643
0.037127458 0.013407171 0.72208643
0.037127458 0.012375832 0.72208643
0.037127458 0.011344552 0.72208643
0.037127458 0.010313183 0.72208643
0.037127458 0.0092818737 0.72208643
0.037127458 0.0082505643 0.72208649
0.037127458 0.007219255 0.72208643
0.037127458 0.0061879456 0.72208643
0.037127458 0.0051566064 0.72208643
0.037127458 0.0041252971 0.72208643
0.037127458 0.0030940175 0.72208643
0.037127584 0.0020626485 0.72208691
0.037127584 0.0010313094 0.72208697
0.037127584 2.9802322e-08 0.72208691
0.037127584 -0.0010313094 0.72208691
0.037127584 -0.0020625889 0.72208691
0.037127458 -0.0030939579 0.72208643
0.037127458 -0.0041252375 0.72208643
0.037127458 -0.0051565766 0.72208643
0.037127458 -0.0061879158 0.72208643
0.037127458 -0.0072192252 0.72208643
0.037127458 -0.0082505047 0.72208643
0.037127584 -0.0092818737 0.72208691
0.037127584 -0.010313183 0.72208691
0.037127584 -0.011344522 0.72208691
0.037127458 -0.012375772 0.72208637
0.037127458 -0.013407111 0.72208643
0.037127584 -0.01443851 0.72208691
0.037127584 -0.015469819 0.72208691
0.037127584 -0.016501129 0.72208691
0.037127584 -0.017532438 0.72208691
0.037127584 -0.018563777 0.72208691
0.037127584 -0.019595116 0.72208691
0.037127584 -0.020626396 0.72208691
0.037127584 -0.021657735 0.72208691
0.037052158 -0.02264297 0.72179753
0.036839373 -0.023536235 0.72098112
0.036461737 -0.024307817 0.71953207
0.036197804 -0.025137335 0.71851933
0.037470225 0.025317758 0.71951586
0.037932388 0.024604827 0.72124124
0.038148455 0.023713946 0.72204792
0.038363386 0.022810668 0.72285026
0.038363788 0.021774054 0.72285187
0.038363788 0.020737171 0.72285181
0.038363788 0.019700348 0.72285175
0.038363788 0.018663466 0.72285181
0.038363788 0.017626613 0.72285175
0.038363788 0.016589761 0.72285181
0.038363788 0.015552908 0.72285181
0.038363922 0.014516115 0.72285229
0.038363922 0.013479233 0.72285235
0.038363922 0.01244238 0.72285229
0.038363922 0.011405528 0.72285223
0.038363922 0.010368645 0.72285229
0.038363922 0.0093317926 0.72285223
0.038363922 0.0082949102 0.72285235
0.038363922 0.0072580576 0.72285229
0.038363922 0.006221205 0.72285235
0.038363922 0.0051843226 0.72285229
0.038363922 0.00414747 0.72285223
0.038363922 0.0031106174 0.72285229
0.038364053 0.0020737946 0.72285277
0.038364053 0.0010368824 0.72285277
0.038364053 2.9802322e-08 0.72285283
0.038364053 -0.0010368228 0.72285283
0.038364053 -0.0020737052 0.72285277
0.038364053 -0.0031105876 0.72285283
0.038363922 -0.0041474402 0.72285229
0.038363922 -0.0051843226 0.72285235
0.038363922 -0.0062211752 0.72285223
0.038363922 -0.0072580278 0.72285229
0.038363922 -0.0082948804 0.72285235
0.038364053 -0.0093318224 0.72285283
0.038364053 -0.010368645 0.72285283
0.038364053 -0.011405528 0.72285283
0.038363922 -0.012442321 0.72285229
0.038364053 -0.013479233 0.72285277
0.038364053 -0.014516115 0.72285277
0.038364053 -0.015552968 0.72285277
0.038364053 -0.01658982 0.72285283
0.038364053 -0.017626703 0.72285277
0.038364053 -0.018663555 0.72285283
0.038364053 -0.019700468 0.72285283
0.038364053 -0.02073732 0.72285277
0.038363252 -0.021773726 0.72284979
0.038148191 -0.022682667 0.72204685
0.037931867 -0.02357927 0.72123933
0.037469842 -0.024304748 0.71951437
0.038621284 0.025408745 0.72001874
0.038835097 0.024527431 0.72079599
0.039241396 0.023751378 0.72227287
0.039448645 0.022838712 0.72302628
0.039613612 0.021891743 0.72362602
0.039613612 0.020849288 0.7236259
0.039613612 0.019806802 0.72362596
0.039613612 0.018764377 0.7236259
0.039613612 0.017721921 0.72362596
0.039613612 0.016679406 0.72362596
0.039613612 0.015636951 0.72362596
0.03961375 0.014594585 0.72362643
0.03961375 0.013552129 0.72362643
0.03961375 0.012509614 0.72362649
0.03961375 0.011467159 0.72362643
0.03961375 0.010424674 0.72362643
0.03961375 0.0093822181 0.72362649
0.03961375 0.0083397329 0.72362643
0.03961375 0.0072972775 0.72362638
0.03961375 0.006254822 0.72362643
0.03961375 0.0052123666 0.72362643
0.03961375 0.0041699111 0.72362649
0.03961375 0.0031274259 0.72362643
0.039613891 0.0020849407 0.72362697
0.039613891 0.0010424852 0.72362697
0.039613891 2.9802322e-08 0.72362697
0.039613891 -0.0010424554 0.72362697
0.039613891 -0.0020849407 0.72362697
0.039613891 -0.0031273961 0.72362691
0.03961375 -0.0041698515 0.72362649
0.03961375 -0.0052123368 0.72362643
0.03961375 -0.0062547922 0.72362643
0.03961375 -0.0072972476 0.72362649
0.03961375 -0.0083397329 0.72362649
0.039613891 -0.0093822181 0.72362691
0.039613891 -0.010424674 0.72362697
0.039613891 -0.011467159 0.72362697
0.03961375 -0.012509555 0.72362649
0.039613891 -0.013552129 0.72362697
0.039613891 -0.014594585 0.72362691
0.039613891 -0.01563707 0.72362697
0.039613891 -0.016679496 0.72362697
0.039613891 -0.017721981 0.72362691
0.039613891 -0.018764466 0.72362697
0.039613891 -0.019806921 0.72362697
0.03961375 -0.020849317 0.72362649
0.039448231 -0.021800309 0.72302473
0.039241124 -0.022718519 0.72227192
0.038834162 -0.023504883 0.72079259
0.038621284 -0.024392366 0.7200188
0.039880369 0.024541795 0.72087848
0.040222108 0.023720741 0.72208887
0.040537424 0.022867292 0.72320569
0.040738899 0.021936357 0.72391927
0.040877163 0.020962685 0.72440898
0.040877022 0.019914448 0.72440851
0.040877022 0.01886633 0.72440851
0.040877022 0.017818213 0.72440851
0.040877022 0.016770065 0.72440851
0.040877022 0.015721917 0.72440851
0.040877163 0.014673889 0.72440904
0.040877163 0.013625741 0.72440904
0.040877163 0.012577593 0.72440898
0.040877163 0.011529475 0.72440898
0.040877163 0.010481328 0.72440904
0.040877163 0.0094331801 0.72440904
0.040877163 0.0083850622 0.72440898
0.040877163 0.0073369443 0.72440904
0.040877163 0.0062887967 0.72440898
0.040877163 0.0052406788 0.72440898
0.040877163 0.0041925311 0.72440898
0.040877163 0.003144443 0.72440898
0.040877312 0.0020962656 0.72440958
0.040877312 0.0010481477 0.72440958
0.040877312 2.9802322e-08 0.72440952
0.040877312 -0.0010480881 0.72440952
0.040877312 -0.0020962656 0.72440952
0.040877312 -0.0031443834 0.72440952
0.040877312 -0.0041925311 0.72440958
0.040877163 -0.005240649 0.72440904
0.040877163 -0.0062887669 0.72440898
0.040877163 -0.0073369145 0.72440904
0.040877163 -0.0083850622 0.72440904
0.040877312 -0.0094332099 0.72440952
0.040877312 -0.010481358 0.72440946
0.040877312 -0.011529475 0.72440958
0.040877312 -0.012577593 0.72440952
0.040877312 -0.013625741 0.72440952
0.040877312 -0.014673889 0.72440952
0.040877312 -0.015722036 0.72440958
0.040877312 -0.016770124 0.72440952
0.040877312 -0.017818302 0.72440946
0.040877312 -0.01886645 0.72440952
0.040877163 -0.019914508 0.72440898
0.040738616 -0.020891577 0.72391832
0.040537141 -0.021827668 0.72320467
0.040221553 -0.022689074 0.72208697
0.039879959 -0.02351892 0.72087699
0.041208286 0.02472499 0.72193301
0.041166648 0.023670822 0.72178912
0.041552592 0.022853941 0.72312188
0.041815799 0.021953315 0.72403091
0.042018443 0.021009207 0.72473073
0.042154387 0.020023316 0.72520012
0.042154238 0.018969417 0.72519958
0.042154238 0.017915577 0.7251997
0.042154238 0.016861707 0.72519958
0.042154238 0.015807867 0.72519958
0.042154387 0.014754087 0.72520012
0.042154387 0.013700187 0.72520018
0.042154387 0.012646347 0.72520006
0.042154387 0.011592478 0.72520006
0.042154387 0.010538638 0.72520018
0.042154387 0.0094847679 0.72520012
0.042154387 0.0084308982 0.72520012
0.042154387 0.0073770285 0.72520012
0.042154387 0.0063231885 0.72520012
0.042154387 0.0052693188 0.72520018
0.042154387 0.0042154789 0.72520012
0.042154387 0.0031615496 0.72520018
0.042154539 0.0021077394 0.72520065
0.042154539 0.0010538697 0.72520065
0.042154539 -0 0.72520065
0.042154539 -0.0010538101 0.72520065
0.042154539 -0.0021077096 0.72520071
0.042154539 -0.0031615496 0.72520065
0.042154539 -0.0042154193 0.72520059
0.042154539 -0.005269289 0.72520065
0.042154539 -0.0063231885 0.72520071
0.042154539 -0.0073770285 0.72520065
0.042154539 -0.0084308982 0.72520065
0.042154539 -0.0094847381 0.72520071
0.042154539 -0.010538638 0.72520065
0.042154539 -0.011592478 0.72520059
0.042154539 -0.012646347 0.72520065
0.042154539 -0.013700187 0.72520065
0.042154539 -0.014754057 0.72520065
0.042154539 -0.015807927 0.72520065
0.042154539 -0.016861796 0.72520065
0.042154539 -0.017915666 0.72520065
0.042154539 -0.018969536 0.72520065
0.042018149 -0.019958615 0.72472966
0.041816976 -0.020908505 0.72403497
0.04155216 -0.021814853 0.72312045
0.041166507 -0.02264154 0.72178864
0.041212853 -0.023697376 0.72194874
0.042375892 0.023771852 0.72239584
0.042453501 0.022779942 0.72265732
0.042831685 0.021938205 0.72393143
0.04308717 0.021018118 0.72479224
0.043273419 0.020053566 0.7254197
0.043445643 0.019073725 0.72599995
0.043445487 0.018013984 0.72599947
0.043445487 0.016954362 0.72599941
0.043445487 0.015894681 0.72599947
0.043445643 0.014835119 0.72599995
0.043445643 0.013775468 0.72599989
0.043445643 0.012715816 0.72599995
0.043445643 0.011656195 0.72599989
0.043445643 0.010596544 0.72599995
0.043445643 0.0095368922 0.72599995
0.043445643 0.008477211 0.72599995
0.043445643 0.0074175596 0.72599995
0.043445643 0.0063579082 0.72599995
0.043445643 0.0052982867 0.72599995
0.043445643 0.0042386353 0.72599989
0.043445643 0.0031789839 0.72599995
0.043445799 0.0021193027 0.72600049
0.043445799 0.001059711 0.72600043
0.043445799 -0 0.72600049
0.043445799 -0.0010596216 0.72600049
0.043445799 -0.0021193027 0.72600055
0.043445799 -0.0031789243 0.72600049
0.043445799 -0.0042386055 0.72600049
0.043445799 -0.0052982271 0.72600049
0.043445799 -0.0063578784 0.72600043
0.043445799 -0.0074175596 0.72600043
0.043445799 -0.008477211 0.72600049
0.043445799 -0.0095368326 0.72600043
0.043445799 -0.010596484 0.72600049
0.043445799 -0.011656165 0.72600049
0.043445956 -0.012715876 0.72600102
0.043445956 -0.013775557 0.72600102
0.043445956 -0.014835209 0.72600102
0.043445799 -0.0158948 0.72600049
0.043445799 -0.016954422 0.72600043
