# .PCD v0.7 - Point Cloud Data file format
VERSION 0.7
FIELDS x y z
SIZE 4 4 4
TYPE F F F
COUNT 1 1 1
WIDTH 1313
HEIGHT 1
VIEWPOINT 0 0 0 1 0 0 0
POINTS 1313
DATA ascii
-0.035861194 -0.035861164 0.76309448
-0.035865679 -0.037194043 0.76311743
-0.035875451 -0.038532883 0.7631675
-0.035888925 -0.03987658 0.7632364
-0.035902239 -0.041221082 0.76330447
-0.035921194 -0.042573273 0.76340145
-0.035942256 -0.043929428 0.76350915
-0.035963345 -0.045287162 0.7636171
-0.035988167 -0.046651304 0.76374406
-0.036015768 -0.048020989 0.76388532
-0.036159143 -0.049551427 0.76461881
-0.034575157 -0.0079788566 0.76331842
-0.034369681 -0.0092533529 0.76222682
-0.03424532 -0.010536969 0.7615661
-0.034144606 -0.011819273 0.76103103
-0.034081396 -0.013108224 0.76069522
-0.034025308 -0.014395297 0.76039726
-0.03398269 -0.015684307 0.76017082
-0.033950016 -0.016974986 0.75999713
-0.033928562 -0.018269181 0.75988322
-0.033910856 -0.019563943 0.75978911
-0.033900298 -0.020861715 0.75973308
-0.03389376 -0.022161305 0.75969833
-0.033892125 -0.023463756 0.75968963
-0.033893611 -0.024768412 0.75969756
-0.033897776 -0.026075184 0.75971967
-0.033902381 -0.027382702 0.75974411
-0.033913534 -0.02869606 0.75980341
-0.033925883 -0.030011326 0.75986898
-0.033938836 -0.031328142 0.75993776
-0.033957765 -0.032651663 0.76003832
-0.033977315 -0.0339773 0.76014227
-0.033996888 -0.035304457 0.76024622
-0.03402067 -0.036637634 0.76037252
-0.034046281 -0.037974685 0.76050866
-0.034071933 -0.039313734 0.76064491
-0.034099884 -0.04065752 0.76079345
-0.03413089 -0.042007267 0.76095819
-0.034162104 -0.043359607 0.76112401
-0.034193378 -0.044714391 0.76129007
-0.034228645 -0.046076983 0.76147747
-0.034264743 -0.047443449 0.76166928
-0.03430092 -0.048812807 0.76186144
-0.03437946 -0.050246894 0.7622788
-0.03279645 0.0026237369 0.76083815
-0.032528132 0.0013011694 0.7593556
-0.03237826 2.9802322e-08 0.75852752
-0.032279436 -0.0012911558 0.75798148
-0.032204773 -0.002576381 0.75756896
-0.032151435 -0.0038581789 0.75727433
-0.032103401 -0.0051365197 0.75700879
-0.032071136 -0.006414175 0.75683051
-0.032045286 -0.0076908469 0.7566877
-0.032025822 -0.0089672208 0.75658023
-0.032012586 -0.010244042 0.7565071
-0.032003216 -0.011521161 0.75645536
-0.031999771 -0.012799889 0.75643629
-0.031998396 -0.014079273 0.75642872
-0.032001425 -0.015360683 0.75644541
-0.032005142 -0.01664266 0.75646591
-0.032011207 -0.017926246 0.75649947
-0.032022096 -0.019213259 0.75655967
-0.032033551 -0.020501494 0.75662291
-0.032046944 -0.021791935 0.75669694
-0.032064911 -0.023086727 0.75679618
-0.032083038 -0.024383098 0.75689638
-0.032101322 -0.025681019 0.75699741
-0.03212421 -0.026984304 0.75712383
-0.032147963 -0.028290212 0.75725502
-0.032171749 -0.029597998 0.75738645
-0.032198079 -0.030910134 0.757532
-0.032226969 -0.03222695 0.75769162
-0.03225591 -0.03354615 0.75785148
-0.032285184 -0.034867972 0.75801325
-0.032317743 -0.036195844 0.75819319
-0.032351207 -0.037527382 0.75837809
-0.032384746 -0.038861692 0.7585634
-0.032418776 -0.04019925 0.75875139
-0.032456283 -0.04154402 0.75895864
-0.032494012 -0.042892069 0.75916708
-0.032531973 -0.044243485 0.75937688
-0.032570023 -0.04559803 0.75958717
-0.032611884 -0.046961099 0.75981838
-0.032653708 -0.048327476 0.76004946
-0.032695636 -0.049697369 0.76028115
-0.032783866 -0.051142812 0.76076865
-0.030750485 0.011531472 0.75661302
-0.030583018 0.010194361 0.75564915
-0.030479586 0.0088899136 0.75505382
-0.03039664 0.0075991452 0.75457644
-0.030341467 0.0063211918 0.75425881
-0.03029459 0.0050490797 0.7539891
-0.03025786 0.0037822425 0.75377762
-0.030229282 0.0025191307 0.75361323
-0.030209195 0.0012587309 0.7534976
-0.030193092 -2.9802322e-08 0.75340492
-0.030182751 -0.0012575984 0.75334537
-0.030175861 -0.0025146306 0.75330567
-0.030173182 -0.0037716329 0.7532903
-0.030173309 -0.0050288737 0.75329107
-0.030176243 -0.0062866807 0.75330794
-0.030179687 -0.0075449347 0.75332773
-0.030187091 -0.0088045299 0.75337034
-0.030197565 -0.010065794 0.7534306
-0.030208683 -0.01132822 0.75349462
-0.030222114 -0.012592554 0.75357199
-0.030238759 -0.013859421 0.75366771
-0.030255679 -0.015127808 0.75376511
-0.030273389 -0.016398042 0.75386703
-0.03029459 -0.017671853 0.7539891
-0.030316465 -0.01894775 0.75411493
-0.030338757 -0.020225793 0.75424325
-0.030363537 -0.021507472 0.75438589
-0.030390298 -0.022792697 0.75453991
-0.030417109 -0.024080217 0.75469422
-0.030444482 -0.025370419 0.75485182
-0.03047464 -0.02666527 0.75502539
-0.030505639 -0.027963519 0.75520378
-0.030536702 -0.029264331 0.75538254
-0.030568218 -0.030568212 0.75556397
-0.03060282 -0.031877935 0.75576311
-0.030637892 -0.033191055 0.75596499
-0.030672915 -0.034507006 0.75616658
-0.030708281 -0.035826296 0.75637007
-0.030746512 -0.037152052 0.75659013
-0.030785237 -0.038481534 0.75681299
-0.030824058 -0.039814383 0.75703639
-0.030863244 -0.041150987 0.75726199
-0.030904669 -0.04249391 0.75750041
-0.030947013 -0.0438416 0.75774413
-0.030989472 -0.045192957 0.75798851
-0.031032048 -0.046548069 0.75823355
-0.031075954 -0.047908753 0.75848621
-0.031121621 -0.049275875 0.75874913
-0.031167554 -0.050647259 0.75901341
-0.031290527 -0.052150875 0.75972122
-0.029056733 0.021476746 0.75413573
-0.028857531 0.020074844 0.75293934
-0.028740162 0.018743604 0.75223452
-0.028657081 0.017443448 0.75173551
-0.028594544 0.016162157 0.75136
-0.028547049 0.014894098 0.75107467
-0.028507311 0.013633966 0.75083601
-0.028478945 0.012382179 0.75066566
-0.028455842 0.011134893 0.75052691
-0.028438451 0.009891659 0.75042248
-0.028426042 0.0086514354 0.75034797
-0.028417066 0.0074131787 0.75029403
-0.028412463 0.0061766505 0.75026643
-0.028410457 0.0049409568 0.75025427
-0.02841199 0.0037059188 0.75026357
-0.028414706 0.0024708509 0.75027978
-0.028419191 0.0012356341 0.75030684
-0.028426751 5.9604645e-08 0.75035214
-0.028436558 -0.0012363493 0.75041109
-0.028447557 -0.0024736822 0.75047719
-0.028460696 -0.0037122071 0.75055599
-0.028476099 -0.0049523711 0.75064862
-0.028491639 -0.0061938167 0.7507419
-0.028508974 -0.0074371099 0.75084603
-0.028528476 -0.008682549 0.75096309
-0.028548837 -0.0099299848 0.7510854
-0.028569942 -0.011179537 0.75121212
-0.028592754 -0.012431622 0.75134921
-0.028617514 -0.013686627 0.75149792
-0.028642319 -0.014943808 0.75164682
-0.028668011 -0.016203642 0.75180113
-0.02869579 -0.017466962 0.75196797
-0.028724471 -0.018733323 0.75214022
-0.028753329 -0.020002306 0.75231355
-0.028782489 -0.021273971 0.75248861
-0.028814254 -0.022550255 0.75267941
-0.028846581 -0.023829728 0.75287354
-0.028878974 -0.025112122 0.75306815
-0.028912054 -0.026397943 0.75326687
-0.028946927 -0.027688354 0.7534762
-0.02898274 -0.028982729 0.75369138
-0.029018644 -0.030280292 0.75390697
-0.029054882 -0.031581342 0.75412458
-0.029092697 -0.032887399 0.75435174
-0.02913185 -0.034198284 0.75458688
-0.029171109 -0.035512626 0.75482267
-0.029210474 -0.036830574 0.75505912
-0.029250572 -0.038152903 0.75529987
-0.02929266 -0.039481401 0.75555265
-0.029334998 -0.040813893 0.75580692
-0.029377582 -0.042150438 0.75606275
-0.02942029 -0.043490827 0.75631917
-0.029464772 -0.044837683 0.75658631
-0.029510282 -0.046189994 0.75685966
-0.029555803 -0.047546268 0.75713301
-0.029601594 -0.048906952 0.75740802
-0.029647397 -0.05027169 0.75768316
-0.029696051 -0.051645309 0.75797534
-0.029955762 -0.053399384 0.75953507
-0.027466815 0.0312123 0.75208515
-0.027195211 0.029667556 0.75037986
-0.027060799 0.028290898 0.74953592
-0.026974002 0.026974022 0.74899095
-0.026906889 0.02568388 0.74856955
-0.026858069 0.024416447 0.748263
-0.026819427 0.023162246 0.74802041
-0.026787804 0.021917313 0.74782181
-0.026762819 0.020680368 0.74766493
-0.026744988 0.019450903 0.74755299
-0.0267298 0.018224895 0.74745762
-0.026720304 0.017003834 0.74739802
-0.026713211 0.015785098 0.74735343
-0.02670983 0.014569044 0.74733222
-0.026708849 0.01335445 0.74732614
-0.026710922 0.012141377 0.74733913
-0.026713649 0.010928333 0.74735618
-0.026719321 0.0097161233 0.74739188
-0.026726415 0.0085038841 0.7474364
-0.026735807 0.0072915852 0.74749541
-0.026746409 0.0060787499 0.74756193
-0.026759207 0.0048653483 0.74764228
-0.026773551 0.0036509335 0.7477324
-0.026788022 0.002435267 0.74782324
-0.026804814 0.0012184381 0.74792862
-0.026822725 2.9802322e-08 0.74804115
-0.026841432 -0.0012200475 0.74815857
-0.026861379 -0.0024419427 0.7482838
-0.026882458 -0.0036658049 0.74841619
-0.026905341 -0.0048918724 0.74855977
-0.026928375 -0.0061200857 0.74870443
-0.026952112 -0.0073505342 0.7488535
-0.026978007 -0.0085839033 0.74901605
-0.027004506 -0.0098198056 0.74918246
-0.027030949 -0.011058092 0.74934852
-0.027058002 -0.012299091 0.74951839
-0.027087126 -0.013543546 0.7497012
-0.027117101 -0.014791101 0.74988937
-0.02714703 -0.016041398 0.75007737
-0.027177589 -0.017294824 0.75026917
-0.027209463 -0.018551886 0.75046933
-0.027242545 -0.019812733 0.75067699
-0.027275821 -0.021076769 0.75088596
-0.027309293 -0.022343934 0.75109613
-0.027343875 -0.023615181 0.75131327
-0.027380034 -0.0248909 0.7515403
-0.027416289 -0.026170075 0.75176799
-0.027452525 -0.027452499 0.75199544
-0.027489202 -0.028738707 0.75222582
-0.027527833 -0.03003037 0.75246835
-0.027567036 -0.031326175 0.75271446
-0.027606349 -0.032625675 0.75296128
-0.027645661 -0.033928752 0.7532081
-0.02768602 -0.035236716 0.75346148
-0.027728025 -0.036550581 0.75372529
-0.027770041 -0.037868202 0.7539891
-0.0278123 -0.039190054 0.7542544
-0.027854571 -0.040515721 0.75451982
-0.027898636 -0.041847914 0.7547965
-0.027943557 -0.043185472 0.75507855
-0.027988622 -0.044527352 0.7553615
-0.028033953 -0.045873731 0.75564617
-0.028079312 -0.047224253 0.7559309
-0.028126508 -0.048582107 0.75622725
-0.028174471 -0.049945593 0.75652838
-0.028222477 -0.051313579 0.75682986
-0.028283356 -0.052709877 0.7572121
-0.025594801 0.039001614 0.74798381
-0.025445575 0.037562549 0.7470023
-0.02534942 0.036213487 0.74636978
-0.025280362 0.034911007 0.74591553
-0.02522777 0.033637047 0.74556953
-0.025186261 0.032382339 0.74529648
-0.025153194 0.031142056 0.74507904
-0.025128601 0.029915005 0.74491727
-0.02510789 0.028694749 0.74478102
-0.025092557 0.027482331 0.74468017
-0.02508107 0.026275456 0.74460459
-0.025072409 0.025072426 0.74454761
-0.025067883 0.023874193 0.74451786
-0.025064763 0.02267766 0.74449736
-0.025065366 0.021484613 0.74450135
-0.025067177 0.020292491 0.74451327
-0.025070297 0.019101202 0.74453378
-0.025076335 0.017911702 0.74457347
-0.025083387 0.016722262 0.74461991
-0.025092658 0.015533566 0.74468088
-0.025102442 0.014344305 0.74474519
-0.025114859 0.013155431 0.74482691
-0.025128195 0.011965841 0.74491465
-0.025141448 0.01077491 0.74500179
-0.025157651 0.0095838904 0.74510837
-0.025173979 0.0083913803 0.74521571
-0.025191342 0.0071975589 0.74532998
-0.025210256 0.0060024559 0.74545443
-0.025229605 0.0048056841 0.74558163
-0.02525072 0.0036072731 0.74572057
-0.02527228 0.0024068952 0.74586236
-0.025294185 0.0012044907 0.74600649
-0.025317872 5.9604645e-08 0.74616224
-0.025342321 -0.0012067556 0.74632305
-0.02536682 -0.0024158657 0.74648416
-0.025391882 -0.0036273897 0.74664909
-0.025418751 -0.0048416257 0.74682581
-0.025446197 -0.0060586035 0.74700636
-0.025473805 -0.007278204 0.74718797
-0.025502099 -0.0085006654 0.74737406
-0.02553129 -0.0097261667 0.74756604
-0.025561698 -0.010955006 0.74776602
-0.025592284 -0.012186795 0.74796724
-0.025623364 -0.013421744 0.74817169
-0.025654836 -0.014659882 0.74837875
-0.025688181 -0.015902162 0.74859804
-0.025721507 -0.01714766 0.74881721
-0.025755025 -0.018396437 0.74903774
-0.025788739 -0.019648552 0.74925947
-0.025824035 -0.020905167 0.74949163
-0.025859963 -0.022165656 0.74972796
-0.025896098 -0.023429781 0.74996567
-0.025932442 -0.024697572 0.75020468
-0.025969429 -0.025969416 0.75044799
-0.026007712 -0.027246177 0.75069988
-0.026046434 -0.028527051 0.75095451
-0.02608538 -0.029811859 0.75121075
-0.026124336 -0.031100392 0.75146693
-0.026164172 -0.032393724 0.75172901
-0.026205564 -0.033692837 0.75200129
-0.026247192 -0.034996241 0.75227511
-0.026288845 -0.036303639 0.75254905
-0.026330629 -0.03761518 0.75282389
-0.026373327 -0.038932025 0.75310475
-0.026417281 -0.040254921 0.75339389
-0.026461493 -0.041582346 0.7536847
-0.026505966 -0.042914391 0.75397724
-0.026550476 -0.044250786 0.75427002
-0.026595928 -0.045593023 0.75456893
-0.026642671 -0.046941847 0.75487643
-0.026689582 -0.048295438 0.75518501
-0.026736656 -0.049653769 0.75549465
-0.026783898 -0.051016927 0.75580537
-0.026832113 -0.052386463 0.75612253
-0.026929414 -0.053858817 0.75676256
-0.024325756 0.046218961 0.74763674
-0.023765713 0.043966621 0.74376875
-0.023649108 0.042568415 0.74296337
-0.023607245 0.041312695 0.74267429
-0.023574498 0.040076673 0.74244809
-0.023547245 0.03885299 0.74225992
-0.02352573 0.037641168 0.74211133
-0.02350983 0.036440253 0.74200147
-0.0234959 0.035243869 0.74190521
-0.023487642 0.034057111 0.74184823
-0.023480039 0.032872081 0.74179572
-0.023477165 0.031694204 0.74177587
-0.023474663 0.030517071 0.74175858
-0.023476241 0.029345334 0.74176943
-0.023477908 0.028173506 0.741781
-0.023482172 0.02700454 0.7418105
-0.023487736 0.025836527 0.74184883
-0.023494601 0.024669349 0.74189627
-0.023503698 0.023503691 0.74195915
-0.02351271 0.022337109 0.74202144
-0.023524707 0.021172285 0.74210423
-0.023536995 0.020006448 0.74218911
-0.023549575 0.018839687 0.74227601
-0.023564691 0.017673522 0.74238038
-0.023579825 0.016505897 0.74248487
-0.023595914 0.015337378 0.74259603
-0.023613619 0.014168173 0.74271834
-0.023631349 0.01299727 0.74284077
-0.023650801 0.011825383 0.74297518
-0.02367085 0.010651886 0.74311364
-0.023691025 0.0094764531 0.74325293
-0.023712844 0.0082994998 0.74340367
-0.02373546 0.0071206689 0.74355978
-0.023758022 0.0059395134 0.7437157
-0.023781106 0.0047562122 0.74387509
-0.023805853 0.0035709143 0.74404597
-0.023830937 0.0023831427 0.74421918
-0.023856362 0.0011928082 0.74439484
-0.023882415 2.9802322e-08 0.74457479
-0.023909297 -0.0011954308 0.74476045
-0.023937009 -0.0023936629 0.74495178
-0.023965171 -0.0035947561 0.74514639
-0.023993883 -0.00479877 0.74534464
-0.024022859 -0.0060057044 0.74554479
-0.024053073 -0.0072158873 0.74575353
-0.024083847 -0.0084293187 0.74596596
-0.024114799 -0.0096458793 0.74617982
-0.024145832 -0.010865599 0.74639416
-0.024178026 -0.012088984 0.74661648
-0.024210799 -0.013315916 0.7468428
-0.024244154 -0.014546484 0.74707323
-0.024277501 -0.01578036 0.74730355
-0.024311438 -0.01701799 0.74753791
-0.024346169 -0.018259615 0.74777776
-0.024381798 -0.019505411 0.74802381
-0.024417631 -0.020754963 0.74827135
-0.024453567 -0.022008181 0.74851954
-0.024489915 -0.023265362 0.74877059
-0.024527585 -0.02452755 0.74903071
-0.024565775 -0.025794059 0.74929458
-0.024604086 -0.027064472 0.7495591
-0.024642514 -0.028338879 0.74982452
-0.024681166 -0.029617399 0.75009149
-0.02472138 -0.03090173 0.75036919
-0.024762031 -0.032190651 0.75064999
-0.024802921 -0.033483952 0.75093246
-0.024843842 -0.034781367 0.75121498
-0.024885004 -0.036083251 0.7514993
-0.024927555 -0.037391335 0.75179321
-0.024970671 -0.038704544 0.75209099
-0.025013937 -0.040022284 0.75238979
-0.025057351 -0.041344613 0.7526896
-0.025101025 -0.04267171 0.75299126
-0.025146125 -0.044005692 0.75330281
-0.025191816 -0.045345217 0.7536183
-0.02523767 -0.046689689 0.7539351
-0.025283802 -0.048039168 0.75425363
-0.025329994 -0.049393475 0.75457269
-0.025377329 -0.050754637 0.75489962
-0.025425604 -0.052122474 0.75523305
-0.025477443 -0.053502619 0.75559103
-0.027381709 -0.058870673 0.76874316
-0.022659726 0.046512097 0.74436712
-0.022297235 0.044594526 0.74173176
-0.02205951 0.042958021 0.74000347
-0.021950591 0.041590601 0.73921156
-0.021941217 0.040418029 0.73914343
-0.021938575 0.03925851 0.73912418
-0.021937212 0.038101494 0.73911428
-0.021938831 0.036949605 0.73912609
-0.021940621 0.035797894 0.73913908
-0.021945648 0.034651071 0.73917562
-0.021950761 0.03350383 0.73921287
-0.021957928 0.032359064 0.73926491
-0.021966292 0.03121528 0.7393257
-0.021975007 0.03007108 0.73938906
-0.021986209 0.028929234 0.73947048
-0.02199742 0.027786195 0.73955202
-0.022009587 0.026643187 0.73964047
-0.022023484 0.025500894 0.7397415
-0.022037398 0.02435714 0.73984265
-0.022052536 0.023213238 0.73995268
-0.022068813 0.022068858 0.74007106
-0.022085115 0.02092272 0.74018961
-0.022102911 0.019776314 0.74031901
-0.022121517 0.018628657 0.74045426
-0.022140065 0.017479002 0.74058908
-0.022160122 0.016328543 0.74073493
-0.022180913 0.015176415 0.74088609
-0.022201655 0.014022112 0.74103689
-0.022222959 0.012865931 0.74119174
-0.022245707 0.011708289 0.74135709
-0.022268502 0.010548264 0.74152285
-0.022291869 0.0093860626 0.74169278
-0.022315992 0.0082216859 0.74186814
-0.022340696 0.0070549548 0.74204773
-0.022365898 0.0058858097 0.74223095
-0.022391777 0.0047141016 0.74241906
-0.022418164 0.003539741 0.74261087
-0.022444788 0.0023626089 0.74280447
-0.022472281 0.0011827648 0.74300438
-0.022500558 2.9802322e-08 0.74320996
-0.022528999 -0.0011856854 0.74341667
-0.022557508 -0.0023744702 0.74362397
-0.022586722 -0.0035663247 0.74383628
-0.022616828 -0.0047614276 0.74405521
-0.022647193 -0.005959779 0.74427599
-0.022677915 -0.0071614385 0.74449933
-0.022708902 -0.0083664358 0.74472463
-0.0227408 -0.009575069 0.74495649
-0.022773243 -0.010787308 0.74519241
-0.022806058 -0.012003124 0.74543095
-0.022839056 -0.013222575 0.74567086
-0.022872431 -0.014445722 0.74591351
-0.022906367 -0.015672773 0.74616021
-0.022941429 -0.016904175 0.74641508
-0.022976596 -0.018139362 0.74667078
-0.023011968 -0.019378483 0.74692786
-0.023047352 -0.0206213 0.74718523
-0.023083696 -0.021868736 0.7474494
-0.023120722 -0.023120701 0.74771857
-0.023158245 -0.024377108 0.74799144
-0.023195798 -0.025637448 0.74826443
-0.023233565 -0.02690199 0.74853897
-0.023272032 -0.02817139 0.74881864
-0.023311298 -0.029445857 0.74910414
-0.023350988 -0.030724943 0.74939263
-0.023390813 -0.032008439 0.74968219
-0.023430774 -0.033296347 0.7499727
-0.023471361 -0.03458935 0.7502678
-0.023513163 -0.035888493 0.75057173
-0.023555212 -0.037192434 0.75087744
-0.023597414 -0.038501054 0.75118423
-0.023639863 -0.039814532 0.75149286
-0.023682369 -0.04113251 0.75180185
-0.023726322 -0.04245761 0.75212145
-0.023770737 -0.043788195 0.75244433
-0.02381542 -0.045123965 0.75276917
-0.023860272 -0.046464711 0.75309521
-0.02390519 -0.047810376 0.75342184
-0.023951195 -0.049162924 0.75375628
-0.023997884 -0.050521821 0.75409567
-0.024044858 -0.051886261 0.75443721
-0.024092017 -0.053256035 0.75478011
-0.024174577 -0.054710865 0.75538027
-0.021823563 0.049709231 0.7471025
-0.021235565 0.04719013 0.74259019
-0.020949762 0.045391172 0.74039698
-0.020752892 0.043811679 0.73888618
-0.020592036 0.042328119 0.73765171
-0.02048526 0.040970534 0.73683238
-0.020470299 0.039803386 0.73671752
-0.020477893 0.038680494 0.73677576
-0.020486357 0.037558317 0.73684078
-0.020496633 0.036438495 0.73691964
-0.020506999 0.03531763 0.73699915
-0.020518709 0.034197867 0.73708904
-0.020531459 0.033078462 0.73718691
-0.020544223 0.031957716 0.73728484
-0.020558346 0.030837566 0.7373932
-0.020573279 0.029716998 0.73750782
-0.020588232 0.028594792 0.73762256
-0.020604797 0.027473092 0.73774964
-0.020621782 0.026350051 0.73788005
-0.020638876 0.025225312 0.73801118
-0.020657195 0.024100035 0.73815179
-0.020676263 0.022973657 0.73829812
-0.020695288 0.021845043 0.73844409
-0.020714909 0.020714968 0.73859465
-0.020735769 0.019583821 0.73875475
-0.020756675 0.018450379 0.73891521
-0.020778025 0.01731506 0.739079
-0.020800145 0.016177893 0.73924881
-0.020822801 0.015038729 0.73942262
-0.020845586 0.013897061 0.7395975
-0.020869397 0.012753546 0.73978019
-0.020893669 0.011607617 0.73996651
-0.020918081 0.010459065 0.74015379
-0.020942878 0.0093079507 0.74034411
-0.0209688 0.0081545413 0.74054313
-0.020994954 0.0069983304 0.74074376
-0.021021087 0.0058392286 0.74094433
-0.021047618 0.0046772957 0.74114788
-0.021075213 0.0035125315 0.74135971
-0.021102879 0.0023447871 0.74157196
-0.021131033 0.0011739731 0.74178803
-0.021159265 2.9802322e-08 0.74200463
-0.021188494 -0.0011771321 0.74222904
-0.021217806 -0.0023575127 0.74245393
-0.021247869 -0.0035412908 0.7426846
-0.021278106 -0.0047284663 0.7429167
-0.021308683 -0.0059190691 0.74315131
-0.021339603 -0.0071131885 0.74338859
-0.021371294 -0.0083110332 0.74363178
-0.021403594 -0.0095126927 0.74387974
-0.021435907 -0.010717958 0.74412763
-0.021468315 -0.0119268 0.7443763
-0.021501081 -0.013139486 0.74462783
-0.021534989 -0.014356613 0.74488801
-0.021569088 -0.015577644 0.74514967
-0.021603473 -0.016802669 0.74541354
-0.021638053 -0.018031716 0.74567896
-0.021672918 -0.019264787 0.74594653
-0.021708513 -0.020502478 0.74621964
-0.021744756 -0.021744728 0.74649775
-0.021781208 -0.02299124 0.74677753
-0.021817781 -0.024241984 0.74705821
-0.021854658 -0.025497049 0.74734116
-0.021892196 -0.026757121 0.74762928
-0.021930762 -0.028022647 0.74792522
-0.021969374 -0.029292494 0.74822146
-0.022008123 -0.030566812 0.74851882
-0.022047097 -0.031845778 0.74881798
-0.022086393 -0.033129573 0.74911952
-0.022126837 -0.034419537 0.74942982
-0.02216761 -0.035714477 0.74974275
-0.022208627 -0.037014365 0.75005758
-0.022249797 -0.038319081 0.75037348
-0.022291025 -0.039628446 0.75068986
-0.022333432 -0.040944606 0.75101531
-0.022376375 -0.042266458 0.75134486
-0.022419484 -0.043593407 0.75167567
-0.022462666 -0.044925302 0.75200707
-0.022506485 -0.046263337 0.7523433
-0.022551332 -0.047608376 0.75268745
-0.022596357 -0.048958749 0.75303304
-0.022641467 -0.050314367 0.75337917
-0.022686854 -0.051675618 0.7537275
-0.022733388 -0.053044558 0.75408459
-0.022783702 -0.054427743 0.75447071
-0.024237065 -0.059246123 0.76562387
-0.020274248 0.050089329 0.7443651
-0.019892307 0.04797557 0.74126166
-0.019663529 0.046267152 0.73940277
-0.019483408 0.044697255 0.73793918
-0.019343933 0.043239385 0.73680592
-0.019224478 0.041841537 0.73583519
-0.019126371 0.040502936 0.73503804
-0.019097975 0.039319366 0.73480737
-0.019111259 0.038222551 0.73491532
-0.019124851 0.037124723 0.7350257
-0.019138534 0.036025494 0.73513687
-0.019153759 0.034927428 0.73526061
-0.019169301 0.033828229 0.73538697
-0.01918494 0.032727271 0.73551399
-0.019201698 0.031626344 0.73565018
-0.019219143 0.030524582 0.73579192
-0.019236548 0.029420644 0.7359333
-0.019254498 0.028315425 0.73607916
-0.019273581 0.027209789 0.73623419
-0.019292705 0.026101917 0.73638964
-0.019312086 0.024992138 0.73654705
-0.019332467 0.023881286 0.73671269
-0.019353189 0.022768468 0.73688108
-0.019373953 0.021653265 0.73704982
-0.019395508 0.020536423 0.73722494
-0.019417781 0.019417793 0.7374059
-0.019440105 0.018296599 0.73758733
-0.019462558 0.017172873 0.73776978
-0.019486262 0.016047508 0.73796237
-0.0195101 0.014919519 0.73815602
-0.019533994 0.01378873 0.73835021
-0.0195581 0.012655258 0.73854607
-0.019583328 0.011519611 0.73875105
-0.019608619 0.010381043 0.73895657
-0.019634055 0.0092395544 0.73916322
-0.01965986 0.0080952644 0.73937297
-0.0196865 0.006948173 0.73958939
-0.019713366 0.0057980716 0.73980772
-0.01974046 0.0046448112 0.74002784
-0.019768095 0.0034885108 0.74025238
-0.019795958 0.0023289323 0.74047881
-0.019824212 0.0011661649 0.74070835
-0.019852782 2.9802322e-08 0.74094051
-0.019882215 -0.0011695325 0.74117965
-0.019911736 -0.0023425221 0.74141955
-0.019941345 -0.0035190582 0.74166012
-0.019971121 -0.0046990514 0.74190205
-0.020001777 -0.005882889 0.7421512
-0.020032845 -0.0070703924 0.74240357
-0.020064088 -0.0082616806 0.74265754
-0.020095669 -0.0094567835 0.74291408
-0.02012727 -0.010655642 0.74317086
-0.020159774 -0.011858672 0.74343491
-0.020192383 -0.013065666 0.74369997
-0.020225665 -0.014276952 0.74397039
-0.020259136 -0.015492231 0.74424237
-0.020292638 -0.016711593 0.74451458
-0.020326743 -0.017935336 0.74479163
-0.020361289 -0.019163549 0.74507236
-0.020396611 -0.02039662 0.74535936
-0.020431973 -0.021633804 0.74564672
-0.020467458 -0.022875398 0.74593502
-0.020503148 -0.024121344 0.74622512
-0.020539466 -0.025372237 0.74652016
-0.020576416 -0.026628286 0.74682033
-0.020613749 -0.027889192 0.74712372
-0.020651301 -0.029154748 0.74742883
-0.020688992 -0.030424982 0.74773508
-0.020727076 -0.031700224 0.74804461
-0.020765899 -0.032981098 0.74835998
-0.02080512 -0.034267247 0.74867874
-0.020844579 -0.035558373 0.7489993
-0.020884186 -0.036854446 0.74932116
-0.020924378 -0.038156211 0.74964774
-0.02096542 -0.039464295 0.74998116
-0.021006623 -0.040777564 0.75031602
-0.021047991 -0.042095959 0.75065213
-0.021089518 -0.0434196 0.75098956
-0.021132007 -0.044750124 0.75133479
-0.021174932 -0.046086639 0.75168359
-0.021217944 -0.04742834 0.75203311
-0.021261221 -0.048775703 0.75238472
-0.021305213 -0.05012989 0.75274217
-0.021349926 -0.051490992 0.75310552
-0.02139483 -0.052857786 0.75347036
-0.021439921 -0.054230392 0.75383675
-0.021523254 -0.055707216 0.75451386
-0.022948017 -0.060744733 0.76609075
-0.018908836 0.050817519 0.74287319
-0.018610286 0.048851997 0.74029577
-0.018404065 0.047160447 0.73851532
-0.018252006 0.045630038 0.73720258
-0.018122362 0.0441733 0.73608333
-0.018012874 0.042780578 0.73513806
-0.017919263 0.041438311 0.73432994
-0.017834637 0.040127963 0.73359931
-0.017794954 0.038926482 0.7332567
-0.017807273 0.037840486 0.73336309
-0.017823216 0.03676039 0.73350072
-0.017839584 0.035679162 0.73364204
-0.017856993 0.034597933 0.7337923
-0.017874433 0.033514559 0.73394293
-0.017892042 0.032429367 0.73409486
-0.017910697 0.031343758 0.73425597
-0.017929593 0.030256182 0.73441911
-0.017948531 0.029166371 0.7345826
-0.01796798 0.02807501 0.73475051
-0.017988291 0.026982456 0.73492593
-0.018008647 0.02588746 0.73510164
-0.018029047 0.024789929 0.73527771
-0.018050455 0.023691237 0.73546249
-0.018072188 0.02259025 0.73565018
-0.018093972 0.02148658 0.73583823
-0.018115809 0.020380318 0.73602676
-0.018138735 0.019272417 0.73622477
-0.018161789 0.018161803 0.73642373
-0.018184904 0.017048359 0.73662323
-0.018208353 0.015932322 0.7368257
-0.018232493 0.01481393 0.73703408
-0.018256906 0.013692677 0.73724496
-0.018281385 0.012568474 0.73745626
-0.018306565 0.011441648 0.73767364
-0.018331885 0.010311693 0.73789227
-0.018357627 0.0091788471 0.73811448
-0.018383443 0.0080427825 0.73833734
-0.018409973 0.0069037378 0.7385664
-0.018436866 0.0057615042 0.73879856
-0.01846391 0.0046159923 0.73903203
-0.01849103 0.003467083 0.73926616
-0.018518521 0.0023148358 0.7395035
-0.018546816 0.0011592209 0.73974776
-0.018575195 2.9802322e-08 0.73999286
-0.018603809 -0.0011627078 0.7402398
-0.018632583 -0.0023290515 0.74048823
-0.018661961 -0.0034990609 0.74074185
-0.018691577 -0.0046728849 0.74099755
-0.018721508 -0.0058504343 0.74125594
-0.018751904 -0.0070319176 0.74151838
-0.0187824 -0.0082172751 0.74178159
-0.018813366 -0.009406656 0.74204898
-0.018844511 -0.01060003 0.74231786
-0.018876282 -0.011797637 0.74259216
-0.018908536 -0.012999564 0.74287057
-0.018940825 -0.014205635 0.74314934
-0.018973224 -0.015415728 0.74342912
-0.019005813 -0.016630054 0.7437104
-0.019039195 -0.017849237 0.74399865
-0.019073004 -0.01907298 0.74429047
-0.019107083 -0.020301253 0.74458468
-0.019141365 -0.021534026 0.74488068
-0.019175768 -0.022771209 0.74517775
-0.019210683 -0.02401334 0.74547917
-0.019246114 -0.025260508 0.74578506
-0.019281991 -0.026512712 0.7460947
-0.019317998 -0.027769625 0.74640566
-0.019354144 -0.029031187 0.74671769
-0.019390896 -0.030298263 0.74703497
-0.019428346 -0.03157106 0.74735826
-0.01946586 -0.032848626 0.74768215
-0.019503599 -0.034131259 0.74800789
-0.019541645 -0.035419196 0.74833643
-0.019580323 -0.036713094 0.7486704
-0.019619478 -0.038012713 0.74900836
-0.019658711 -0.039317399 0.74934709
-0.019698178 -0.04062748 0.74968779
-0.019738218 -0.041943669 0.7500335
-0.019778995 -0.043266505 0.75038552
-0.01981994 -0.044594884 0.7507391
-0.019861054 -0.045928687 0.75109398
-0.019902425 -0.047268242 0.75145113
-0.019944552 -0.04861483 0.75181484
-0.019987194 -0.049967974 0.75218302
-0.020030018 -0.051326901 0.75255275
-0.020072941 -0.05269146 0.75292325
-0.02011656 -0.054063231 0.75329983
-0.020169171 -0.055465192 0.75375402
-0.021376716 -0.060122013 0.76417917
-0.017616984 0.051676512 0.74185979
-0.017358612 0.049761325 0.73948044
-0.017182434 0.048110843 0.73785806
-0.017038383 0.046571553 0.73653156
-0.016923007 0.045128047 0.73546904
-0.016824208 0.043742955 0.73455918
-0.016735969 0.042397797 0.73374665
-0.016660029 0.04109475 0.73304737
-0.016591128 0.039818734 0.73241276
-0.016543873 0.038602412 0.73197764
-0.016549826 0.037512958 0.73203248
-0.016567037 0.036447495 0.73219097
-0.016584652 0.035380602 0.73235315
-0.016603107 0.034313112 0.73252314
-0.016621603 0.033243209 0.73269343
-0.016640142 0.032170951 0.7328642
-0.016659344 0.031097442 0.73304099
-0.01667909 0.030022383 0.73322284
-0.01669888 0.028944761 0.73340511
-0.016718721 0.027864546 0.73358786
-0.016739298 0.0267829 0.73377728
-0.016760303 0.025699168 0.7339707
-0.016781298 0.024612606 0.73416406
-0.01680241 0.02352339 0.73435843
-0.016824272 0.022432387 0.73455977
-0.016846446 0.02133882 0.73476398
-0.016868677 0.020242453 0.73496872
-0.016891224 0.019143432 0.73517632
-0.016914152 0.01804179 0.73538744
-0.01693753 0.016937554 0.7356028
-0.016960969 0.015830249 0.73581862
-0.016984733 0.014720082 0.73603749
-0.017009148 0.013607353 0.73626232
-0.0170337 0.012491405 0.7364884
-0.01705832 0.011372238 0.73671508
-0.017083013 0.010249823 0.73694247
-0.017108498 0.0091245472 0.73717725
-0.017134259 0.0079960227 0.73741436
-0.017160093 0.0068640709 0.7376523
-0.01718621 0.0057287514 0.73789287
-0.017212534 0.0045900643 0.73813522
-0.017239474 0.0034479201 0.73838335
-0.017266499 0.0023021996 0.7386322
-0.017293809 0.0011529624 0.73888367
-0.017321475 -0 0.73913848
-0.017349364 -0.0011565983 0.73939532
-0.017377615 -0.0023169816 0.73965544
-0.017405955 -0.0034811497 0.73991644
-0.017435141 -0.0046493411 0.7401852
-0.017464492 -0.0058214664 0.74045545
-0.017493874 -0.0069975257 0.74072605
-0.017523421 -0.0081775784 0.74099815
-0.017553139 -0.0093616247 0.74127179
-0.01758372 -0.010550201 0.74155343
-0.017614409 -0.01174292 0.74183607
-0.017645415 -0.01293996 0.74212158
-0.017676599 -0.014141262 0.74240881
-0.017707964 -0.015346885 0.7426976
-0.017739864 -0.016557217 0.74299133
-0.017772019 -0.017772019 0.7432875
-0.017804649 -0.01899159 0.74358797
-0.017837398 -0.02021569 0.74388957
-0.017870411 -0.02144447 0.74419355
-0.017903762 -0.022678107 0.74450064
-0.017937815 -0.023917049 0.74481422
-0.017971996 -0.025160789 0.74512911
-0.018006235 -0.026409119 0.7454443
-0.01804097 -0.027662784 0.7457642
-0.01807606 -0.028921664 0.74608731
-0.018111654 -0.030186087 0.74641514
-0.018147316 -0.031455338 0.74674356
-0.018183263 -0.032729864 0.74707454
-0.018219505 -0.034009755 0.74740833
-0.018256562 -0.035295963 0.74774957
-0.018293772 -0.036587507 0.74809217
-0.018331207 -0.037884474 0.74843699
-0.018368797 -0.039186716 0.74878311
-0.018407075 -0.040495545 0.74913561
-0.01844574 -0.041810304 0.74949163
-0.018484643 -0.043130815 0.74984986
-0.018523712 -0.044456869 0.75020969
-0.018563101 -0.045788944 0.75057244
-0.018603355 -0.047128528 0.75094312
-0.018643785 -0.048473805 0.75131536
-0.018684469 -0.049825221 0.75169003
-0.018725252 -0.05118233 0.75206566
-0.018766766 -0.052546918 0.75244796
-0.018808862 -0.053918719 0.75283563
-0.018851146 -0.055296659 0.75322503
-0.018970434 -0.05691129 0.75432348
-0.020150296 -0.061794221 0.76518869
-0.01663447 0.054656118 0.74375367
-0.016360786 0.052588254 0.74105334
-0.016140826 0.050728321 0.73888308
-0.015977981 0.049075216 0.73727638
-0.015851391 0.047554225 0.7360273
-0.015743563 0.04610616 0.73496342
-0.015650298 0.044715166 0.73404324
-0.01557105 0.043376535 0.73326135
-0.015498945 0.042068571 0.73254985
-0.01543631 0.040795982 0.73193187
-0.015379407 0.039547056 0.73137039
-0.015331834 0.038329601 0.73090106
-0.015328674 0.037226796 0.73086989
-0.015346583 0.036174089 0.73104656
-0.015364479 0.035118848 0.73122317
-0.015382986 0.034062356 0.73140574
-0.015401934 0.033004165 0.73159266
-0.015420988 0.0319435 0.73178071
-0.015440032 0.030880094 0.73196852
-0.015459581 0.029814929 0.73216146
-0.015479639 0.028747946 0.73235941
-0.015499809 0.027678251 0.73255837
-0.015519974 0.026605695 0.73275733
-0.015540713 0.025531232 0.73296195
-0.015561854 0.024454355 0.73317063
-0.015583055 0.023374587 0.73337972
-0.015604255 0.022291839 0.73358893
-0.015626159 0.021206945 0.73380506
-0.0156483 0.02011922 0.73402351
-0.015670562 0.019028574 0.73424315
-0.015692888 0.01793474 0.73446345
-0.015715633 0.016838223 0.73468786
-0.015738921 0.015738904 0.7349177
-0.015762277 0.014636427 0.73514807
-0.015785705 0.013530612 0.73537922
-0.015809381 0.012421668 0.73561281
-0.015833611 0.011309743 0.73585194
-0.015858034 0.01019448 0.73609287
-0.015882533 0.0090757608 0.73633456
-0.015907412 0.0079537332 0.73658007
-0.015932553 0.0068282485 0.73682815
-0.015958078 0.0056993067 0.73707998
-0.015983686 0.0045668185 0.73733258
-0.016009498 0.0034306347 0.73758733
-0.016035952 0.0022908747 0.73784828
-0.016062491 0.0011473298 0.73811018
-0.01608918 2.9802322e-08 0.73837352
-0.01611596 -0.0011510849 0.73863775
-0.016143205 -0.0023061335 0.7389065
-0.016170854 -0.0034652054 0.73917937
-0.016198661 -0.0046281815 0.73945367
-0.016226755 -0.0057952404 0.73973089
-0.01625501 -0.0069664419 0.74000973
-0.016283553 -0.0081417263 0.7402913
-0.016312454 -0.0093213916 0.74057651
-0.016341651 -0.010505319 0.74086452
-0.016371207 -0.011693686 0.74115616
-0.016400807 -0.012886316 0.74144816
-0.016430903 -0.014083624 0.74174517
-0.01646111 -0.015285313 0.74204326
-0.016491886 -0.01649189 0.74234688
-0.016522842 -0.017703027 0.7426523
-0.016553914 -0.018918753 0.7429589
-0.016585302 -0.020139247 0.74326861
-0.016617142 -0.021364838 0.74358273
-0.016649371 -0.022595584 0.74390078
-0.016681723 -0.02383101 0.7442199
-0.016714202 -0.025071263 0.74454033
-0.016746942 -0.026316643 0.74486339
-0.016780555 -0.027568042 0.74519509
-0.016814234 -0.028824389 0.74552739
-0.01684805 -0.030085742 0.74586105
-0.016882071 -0.031352401 0.74619675
-0.016916573 -0.032624811 0.74653709
-0.01695163 -0.033903241 0.74688298
-0.016986763 -0.035186857 0.7472297
-0.017022112 -0.036475927 0.74757838
-0.01705768 -0.03777054 0.74792933
-0.017093955 -0.039071888 0.74828732
-0.017130597 -0.040379256 0.74864882
-0.017167328 -0.041692078 0.74901116
-0.017204285 -0.043010682 0.74937582
-0.017241688 -0.044335753 0.74974489
-0.017279757 -0.045667946 0.75012046
-0.017317992 -0.047005981 0.75049776
-0.017356399 -0.048349977 0.75087667
-0.017394977 -0.049699932 0.75125736
-0.01743431 -0.051057577 0.75164539
-0.017474115 -0.052422345 0.75203812
-0.017514028 -0.053793073 0.75243199
-0.017554197 -0.055170327 0.75282824
-0.01761711 -0.056626409 0.75344908
-0.018660782 -0.061313987 0.76374662
-0.015270947 0.059909135 0.74189055
-0.015114945 0.058134407 0.74023288
-0.015096354 0.056901664 0.74003541
-0.01513299 0.055875659 0.74042463
-0.015080749 0.054522723 0.73986953
-0.01503705 0.053208023 0.73940527
-0.014937645 0.051707238 0.73834896
-0.014795985 0.05007872 0.73684382
-0.014677352 0.048548192 0.73558325
-0.014578946 0.047101229 0.7345376
-0.014494718 0.04571414 0.73364264
-0.014418337 0.044364125 0.732831
-0.014353193 0.043059587 0.73213887
-0.014294446 0.04178378 0.73151463
-0.014241108 0.04053238 0.73094791
-0.014194418 0.039307654 0.7304517
-0.014150725 0.038098097 0.7299875
-0.014137942 0.036976188 0.72985166
-0.014154609 0.035930932 0.73002875
-0.014172719 0.034886688 0.73022121
-0.014190874 0.033839792 0.73041409
-0.014209285 0.032790661 0.73060966
-0.014228321 0.031740129 0.73081195
-0.014247405 0.030686766 0.73101479
-0.014266543 0.029630512 0.73121816
-0.014285889 0.028571814 0.73142374
-0.014305819 0.027511239 0.73163545
-0.014325909 0.026447833 0.73184896
-0.014346003 0.025381386 0.73206246
-0.014366153 0.02431199 0.73227656
-0.014387056 0.023240656 0.73249865
-0.014408074 0.022166252 0.73272198
-0.014429153 0.021088779 0.73294592
-0.014450293 0.020008087 0.73317063
-0.01447193 0.018924832 0.73340046
-0.014493903 0.017838657 0.733634
-0.014515888 0.016749144 0.73386759
-0.014537995 0.015656322 0.73410249
-0.014560552 0.01456058 0.73434216
-0.014583456 0.013461649 0.73458552
-0.014606486 0.012359381 0.7348302
-0.014629589 0.011253536 0.73507571
-0.014652988 0.010144383 0.73532426
-0.014676851 0.0090319216 0.73557794
-0.014700904 0.0079158843 0.73583353
-0.01472498 0.0067961812 0.73608929
-0.014749136 0.0056727231 0.73634595
-0.014773821 0.0045458078 0.73660827
-0.01479876 0.0034151077 0.73687327
-0.014823841 0.0022806227 0.73713976
-0.014849177 0.0011422634 0.737409
-0.014874658 2.9802322e-08 0.73767966
-0.014900627 -0.0011461675 0.73795563
-0.014926746 -0.0022963881 0.73823315
-0.014952955 -0.0034506619 0.73851168
-0.014979606 -0.0046090782 0.7387948
-0.015006351 -0.0057716668 0.739079
-0.015033484 -0.0069385171 0.73936737
-0.015060716 -0.0081095695 0.73965669
-0.015088459 -0.009285152 0.73995143
-0.015116364 -0.010465175 0.74024802
-0.01514443 -0.011649549 0.74054623
-0.015172781 -0.012838453 0.74084747
-0.015201417 -0.014032066 0.74115175
-0.01523046 -0.015230447 0.74146032
-0.015259616 -0.016433418 0.74177009
-0.015288884 -0.017640978 0.74208105
-0.015318445 -0.018853456 0.74239522
-0.015348608 -0.020071268 0.74271572
-0.015378952 -0.021293908 0.74303818
-0.015409417 -0.022521406 0.74336183
-0.015440125 -0.023754001 0.74368817
-0.01547108 -0.024991751 0.744017
-0.015502655 -0.026235282 0.74435258
-0.015534362 -0.027483851 0.7446894
-0.015566196 -0.028737545 0.74502772
-0.015598164 -0.029996455 0.74536741
-0.01563083 -0.031261653 0.74571455
-0.015663762 -0.032532394 0.74606442
-0.015696831 -0.033808559 0.74641579
-0.015730103 -0.035090208 0.74676931
-0.015763648 -0.036377609 0.74712574
-0.015797786 -0.037671655 0.74748856
-0.015832203 -0.038971603 0.74785423
-0.015866769 -0.040277183 0.74822146
-0.015901487 -0.041588485 0.74859041
-0.015936686 -0.042906463 0.74896443
-0.015972437 -0.044231325 0.74934423
-0.016008416 -0.045562387 0.74972653
-0.016044488 -0.046899259 0.75010985
-0.016080728 -0.048242152 0.7504949
-0.016117867 -0.049593389 0.75088954
-0.016155245 -0.050951153 0.75128675
-0.016192799 -0.052315146 0.75168574
-0.016230527 -0.053685576 0.75208664
-0.016268637 -0.055063069 0.75249159
-0.016314084 -0.056471825 0.75297445
-0.017174078 -0.060769796 0.76211244
-0.013663898 0.056932956 0.73691356
-0.013663062 0.055790871 0.73690397
-0.013702932 0.054811746 0.73736292
-0.013679349 0.053577453 0.73709142
-0.013661806 0.05237028 0.73688954
-0.013618068 0.05106777 0.73638606
-0.01351856 0.049568087 0.73524058
-0.013427716 0.048116028 0.73419487
-0.013347763 0.046717227 0.73327452
-0.013280855 0.045376271 0.73250437
-0.013218284 0.044060975 0.73178411
-0.013163822 0.042782426 0.73115718
-0.013115396 0.041532099 0.73059976
-0.013069575 0.040297866 0.73007232
-0.013030968 0.039092928 0.72962785
-0.012993108 0.037896574 0.72919208
-0.012974543 0.036761224 0.7289784
-0.012986535 0.035712987 0.72911644
-0.013004282 0.034678131 0.72932065
-0.013022218 0.033640742 0.72952724
-0.013040204 0.032600552 0.72973418
-0.01305824 0.031557411 0.72994179
-0.013076662 0.030512244 0.73015392
-0.013095472 0.029464871 0.73037034
-0.013114336 0.028414428 0.73058748
-0.013133254 0.027360976 0.73080528
-0.013152275 0.026304573 0.73102427
-0.013171936 0.025246203 0.73125058
-0.013191655 0.024184734 0.73147762
-0.013211433 0.023120016 0.73170519
-0.013231319 0.022052228 0.73193419
-0.013251659 0.020981789 0.73216832
-0.01327226 0.019908398 0.73240542
-0.013292924 0.01883167 0.73264331
-0.013313653 0.017751545 0.73288184
-0.013334845 0.016668558 0.73312587
-0.013356306 0.015582383 0.73337281
-0.013377884 0.01449272 0.7336213
-0.013399483 0.013399512 0.73386985
-0.013421151 0.012302756 0.7341193
-0.013443447 0.011202872 0.73437595
-0.013465867 0.010099441 0.73463404
-0.013488312 0.0089922249 0.73489237
-0.013511036 0.0078814328 0.73515403
-0.01353394 0.0067670047 0.7354176
-0.013557281 0.0056488812 0.7356863
-0.013580704 0.004526943 0.73595595
-0.013604258 0.0034010708 0.73622704
-0.013628156 0.0022714138 0.73650217
-0.013652243 0.0011377037 0.73677939
-0.013676571 2.9802322e-08 0.73705941
-0.013700985 -0.0011416972 0.73734051
-0.013725805 -0.0022876263 0.73762619
-0.01375082 -0.0034376681 0.7379142
-0.013776034 -0.0045920014 0.73820442
-0.013801446 -0.0057505965 0.73849696
-0.013827059 -0.0069134831 0.7387917
-0.013853092 -0.0080809295 0.7390914
-0.013879222 -0.0092527866 0.73939222
-0.013905559 -0.010429174 0.73969537
-0.013931995 -0.011609972 0.73999971
-0.01395897 -0.012795717 0.74031019
-0.013986158 -0.01398617 0.74062312
-0.014013453 -0.015181214 0.74093735
-0.014040966 -0.016381085 0.74125397
-0.014068642 -0.017585784 0.74157262
-0.014096928 -0.018795878 0.74189818
-0.014125272 -0.020010769 0.74222451
-0.014153843 -0.021230757 0.74255341
-0.014182473 -0.022455573 0.74288297
-0.014211559 -0.023685902 0.74321771
-0.014241048 -0.024921805 0.74355727
-0.014270717 -0.026162952 0.74389875
-0.014300453 -0.027409196 0.74424106
-0.014330371 -0.028660744 0.74458539
-0.014360934 -0.029918611 0.74493724
-0.014391686 -0.031181961 0.74529117
-0.014422628 -0.032450885 0.74564737
-0.014453704 -0.033725291 0.74600506
-0.014485089 -0.035005629 0.74636638
-0.014517024 -0.036292553 0.74673396
-0.01454922 -0.037585467 0.74710464
-0.0145815 -0.038883984 0.74747616
-0.014613982 -0.040188432 0.74785012
-0.014646851 -0.041499406 0.74822843
-0.014680289 -0.042817503 0.74861336
-0.014713881 -0.04414165 0.74900001
-0.014747627 -0.045471847 0.74938846
-0.01478159 -0.046808332 0.7497794
-0.01481614 -0.048152447 0.75017715
-0.014851036 -0.049503446 0.75057876
-0.014886099 -0.050860852 0.75098246
-0.014921326 -0.052224636 0.75138795
-0.014956972 -0.053595811 0.75179827
-0.014993292 -0.05497539 0.75221634
-0.015030169 -0.056363106 0.75264084
-0.015151797 -0.058081895 0.7540409
-0.016025914 -0.062768131 0.76410288
-0.012350609 0.056139141 0.73472065
-0.012354014 0.055031538 0.73476344
-0.012392999 0.054078549 0.73525298
-0.01238146 0.052902639 0.73510808
-0.012374201 0.051746696 0.73501694
-0.0123556 0.050545633 0.73478329
-0.012287057 0.049148262 0.7339226
-0.012215757 0.047752529 0.73302722
-0.012149971 0.046390831 0.73220116
-0.012095032 0.045081496 0.73151129
-0.012043869 0.043795884 0.73086876
-0.011997798 0.042537659 0.73029017
-0.011957496 0.041307718 0.72978413
-0.011918506 0.040089518 0.72929454
-0.011885899 0.038899332 0.72888499
-0.011854542 0.037719041 0.72849131
-0.011832803 0.036574125 0.72821832
-0.011839355 0.03551808 0.72830057
-0.011856176 0.034490705 0.72851181
-0.011873043 0.033460438 0.72872359
-0.011890262 0.032428026 0.72893983
-0.011907791 0.03139329 0.72915995
-0.011925371 0.030355513 0.72938067
-0.011943003 0.029314667 0.7296021
-0.011960819 0.028271049 0.72982585
-0.011979126 0.027225286 0.73005581
-0.011997491 0.026176363 0.73028642
-0.012015911 0.025124192 0.73051769
-0.012034387 0.024068803 0.73074967
-0.012053453 0.023011178 0.7309891
-0.012072581 0.021950185 0.73122931
-0.012091769 0.020885825 0.73147029
-0.012111018 0.019818008 0.73171198
-0.012130508 0.018747211 0.73195672
-0.012150423 0.017673314 0.73220682
-0.012170357 0.016595989 0.7324571
-0.012190357 0.015515 0.73270833
-0.01221065 0.014430761 0.73296314
-0.012231103 0.013343036 0.73321998
-0.012251901 0.012251943 0.73348105
-0.012272768 0.011157095 0.73374319
-0.012293752 0.010058522 0.73400676
-0.01231504 0.0089563727 0.73427403
-0.012336589 0.0078505874 0.73454463
-0.012358261 0.0067408681 0.73481673
-0.012380008 0.0056273043 0.73508978
-0.012402113 0.004509896 0.73536742
-0.012424345 0.0033884645 0.73564661
-0.012446894 0.002263099 0.73592979
-0.012469478 0.0011336207 0.73621333
-0.012492285 -0 0.73649979
-0.012515465 -0.0011377335 0.73679084
-0.012538683 -0.0022797287 0.73708236
-0.01256218 -0.0034260154 0.73737752
-0.012585716 -0.0045766234 0.73767298
-0.01260973 -0.005731672 0.73797458
-0.012633933 -0.0068912208 0.73827851
-0.012658278 -0.0080552697 0.73858422
-0.012682716 -0.0092238188 0.73889112
-0.01270725 -0.010396808 0.73919916
-0.012732424 -0.011574924 0.7395153
-0.012757698 -0.012757689 0.7398327
-0.012783073 -0.013945132 0.74015135
-0.012808547 -0.015137345 0.74047118
-0.012834427 -0.016334713 0.74079621
-0.012860663 -0.017537266 0.7411257
-0.012886957 -0.018744648 0.74145591
-0.012913461 -0.019957155 0.74178869
-0.012940022 -0.02117455 0.74212223
-0.012967155 -0.022397786 0.74246293
-0.012994454 -0.023626238 0.74280578
-0.013021973 -0.024860114 0.74315131
-0.013049607 -0.026099175 0.74349833
-0.013077412 -0.027343661 0.74384755
-0.013105756 -0.028594345 0.74420339
-0.013134275 -0.029850602 0.74456155
-0.013163025 -0.031112581 0.74492258
-0.013191846 -0.032379955 0.7452845
-0.01322101 -0.033653438 0.74565071
-0.013250623 -0.034933418 0.74602258
-0.013280477 -0.036219478 0.7463975
-0.013310467 -0.037511289 0.74677414
-0.013340592 -0.038809001 0.74715245
-0.013371073 -0.040113181 0.74753517
-0.013402077 -0.041424602 0.74792451
-0.013433225 -0.042742074 0.74831569
-0.01346452 -0.044065684 0.74870861
-0.013495959 -0.045395494 0.74910343
-0.01352805 -0.04673326 0.74950647
-0.013560406 -0.048077792 0.74991274
-0.013592973 -0.049428999 0.75032169
-0.01362564 -0.050786465 0.75073189
-0.013658694 -0.052151352 0.75114697
-0.013692366 -0.053524673 0.75156975
-0.013726205 -0.054904848 0.75199479
-0.013760211 -0.056291729 0.7524218
-0.013823005 -0.0578053 0.75321031
-0.014632727 -0.062521636 0.76337838
-0.011104653 0.055523306 0.73301923
-0.011111956 0.054448575 0.73312014
-0.011148738 0.053513974 0.73362821
-0.011142974 0.052372009 0.73354858
-0.011140093 0.051244467 0.73350877
-0.011133838 0.050102323 0.73342234
-0.011088754 0.048790544 0.73279959
-0.011031744 0.047436506 0.73201209
-0.010978437 0.046109468 0.7312758
-0.010932349 0.044822633 0.73063916
-0.010890195 0.043560803 0.73005682
-0.010851334 0.042320222 0.72952002
-0.010817586 0.04110685 0.72905391
-0.010785026 0.039904624 0.72860408
-0.010756822 0.038724571 0.7282145
-0.010730817 0.03755784 0.72785532
-0.010708484 0.036408842 0.72754687
-0.010709217 0.035340428 0.72755694
-0.010725206 0.034320682 0.72777778
-0.010741398 0.033298314 0.72800148
-0.010757638 0.032272935 0.72822583
-0.010773891 0.031244308 0.7284503
-0.010790308 0.030212909 0.72867703
-0.010807208 0.029179484 0.72891057
-0.010824122 0.02814272 0.72914416
-0.010841088 0.027102739 0.72937858
-0.010858108 0.026059479 0.7296136
-0.0108755 0.025013626 0.72985387
-0.010893106 0.023964852 0.73009712
-0.010910731 0.022912532 0.7303406
-0.010928452 0.021856904 0.73058528
-0.010946312 0.020797968 0.73083204
-0.010964594 0.01973626 0.73108459
-0.010982937 0.018670976 0.7313379
-0.011001382 0.017602205 0.73159271
-0.01101993 0.016529888 0.73184896
-0.011038746 0.015454262 0.73210883
-0.011057831 0.01437521 0.7323724
-0.011076983 0.013292372 0.73263705
-0.011096201 0.012205869 0.73290253
-0.011115693 0.0111157 0.73317176
-0.011135422 0.010021895 0.73344421
-0.011155345 0.0089242756 0.73371947
-0.011175341 0.007822752 0.73399562
-0.011195407 0.0067172647 0.73427284
-0.011215885 0.0056079924 0.73455572
-0.01123648 0.0044946074 0.73484015
-0.011257193 0.0033771694 0.73512632
-0.011278026 0.0022556484 0.73541403
-0.011299108 0.0011299551 0.73570532
-0.011320484 5.9604645e-08 0.73600054
-0.011342028 -0.001134187 0.73629814
-0.01136361 -0.0022726953 0.73659623
-0.011385274 -0.0034155846 0.73689556
-0.011407416 -0.004562974 0.73720145
-0.011429731 -0.0057148337 0.73750961
-0.011452178 -0.0068712533 0.73781967
-0.011474669 -0.0080322623 0.73813033
-0.011497381 -0.0091978908 0.73844409
-0.011520542 -0.010368437 0.73876399
-0.011543795 -0.011543751 0.7390852
-0.011567187 -0.012723893 0.73940837
-0.01159063 -0.013908744 0.73973215
-0.01161444 -0.01509878 0.74006104
-0.011638529 -0.016293943 0.74039376
-0.011662764 -0.017494082 0.74072856
-0.011687147 -0.018699437 0.74106538
-0.011711633 -0.019909769 0.74140364
-0.011736591 -0.021125853 0.74174839
-0.011761749 -0.022347301 0.74209589
