# .PCD v0.7 - Point Cloud Data file format
VERSION 0.7
FIELDS x y z
SIZE 4 4 4
TYPE F F F
COUNT 1 1 1
WIDTH 1349
HEIGHT 1
VIEWPOINT 0 0 0 1 0 0 0
POINTS 1349
DATA ascii
0.0085184742 0.043809354 0.74772483
0.0084971944 0.042485952 0.74730492
0.0084764017 0.041171104 0.7468946
0.0084558809 0.039863467 0.74648958
0.0084354607 0.038562119 0.74608666
0.0084151374 0.037267059 0.7456857
0.0083949128 0.035978228 0.74528658
0.0083747851 0.034695536 0.74488938
0.0083550885 0.033420384 0.74450064
0.0083356174 0.032151669 0.74411643
0.0083163045 0.030889153 0.74373531
0.0082970466 0.02963233 0.74335527
0.0082779117 0.028381437 0.74297762
0.0082589304 0.027136505 0.74260312
0.0082401987 0.025897801 0.74223351
0.0082217138 0.024665177 0.74186873
0.0082033761 0.023438245 0.74150693
0.0081851203 0.022216797 0.74114668
0.0081669455 0.021000713 0.74078798
0.0081489477 0.019790351 0.74043286
0.0081310924 0.018585384 0.74008048
0.0081135668 0.017386228 0.73973465
0.0080961492 0.016192287 0.73939097
0.0080788378 0.015003592 0.73904932
0.0080615683 0.013819873 0.7387085
0.008044404 0.012641251 0.73836982
0.0080275293 0.011467904 0.73803681
0.0080107553 0.010299593 0.73770583
0.0079942066 0.0091362596 0.73737919
0.0079777548 0.0079777539 0.73705465
0.0079614017 0.0068240762 0.73673189
0.0079451762 0.0056751668 0.73641169
0.0079290476 0.0045308769 0.73609346
0.007913013 0.0033912957 0.73577714
0.0078973435 0.0022563636 0.73546791
0.0078817653 0.0011259615 0.73516047
0.0078661907 5.9604645e-08 0.73485309
0.0078507047 -0.001121521 0.7345475
0.0078352811 -0.0022386014 0.73424315
0.0078201815 -0.0033515096 0.73394525
0.0078051696 -0.0044600666 0.73364902
0.0077902158 -0.0055644214 0.73335385
0.0077754352 -0.0066646338 0.73306221
0.0077607385 -0.0077607334 0.73277223
0.0077462131 -0.0088527799 0.73248553
0.0077318 -0.0099408627 0.7322011
0.0077174399 -0.011024922 0.7319178
0.0077031902 -0.012105018 0.73163658
0.0076891915 -0.013181448 0.73136032
0.0076753292 -0.014254153 0.73108679
0.00766146 -0.015322894 0.73081315
0.0076476685 -0.01638785 0.73054093
0.0076339827 -0.017449081 0.73027086
0.0076205693 -0.018507093 0.73000622
0.0076072305 -0.01956141 0.729743
0.0075939386 -0.020612121 0.72948068
0.0075807204 -0.021659166 0.72921985
0.007567713 -0.022703111 0.72896314
0.0075548603 -0.023743838 0.72870952
0.0075420509 -0.024781018 0.7284568
0.0075292853 -0.025814682 0.72820485
0.0075165625 -0.026844829 0.72795379
0.0075041801 -0.027872622 0.72770947
0.0074918652 -0.028897196 0.72746646
0.0074795638 -0.029918224 0.72722369
0.007467303 -0.030935943 0.72698176
0.0074552163 -0.031950921 0.72674322
0.007443354 -0.032963425 0.72650915
0.007434343 -0.033985555 0.72633135
0.0074407733 -0.035077929 0.72645825
0.0074560437 -0.036215037 0.72675955
0.0074720471 -0.037360221 0.7270754
0.0074899783 -0.038519859 0.72742921
0.0075090248 -0.039690554 0.72780502
0.0075299656 -0.040876955 0.72821832
0.0075535993 -0.042084306 0.72868466
0.0075787888 -0.043307364 0.72918171
0.007606647 -0.04455319 0.7297315
0.0076373718 -0.0458242 0.73033774
0.007669278 -0.047111273 0.7309674
0.0076801144 -0.048274964 0.7311812
0.0076787262 -0.049363226 0.73115385
0.0076771118 -0.05044958 0.73112196
0.00765712 -0.051412106 0.73072749
0.0076488764 -0.052449435 0.73056483
0.0076448037 -0.053513616 0.73048437
0.010569367 0.063416213 0.76212454
0.010023532 0.058888257 0.75269985
0.0099917501 0.057452589 0.75215113
0.0099659264 0.056058347 0.75170523
0.0099404436 0.05467245 0.75126517
0.0099150911 0.053293645 0.75082743
0.0098899081 0.051922023 0.75039268
0.0098648127 0.050557196 0.74995935
0.009839884 0.049199432 0.74952894
0.0098156082 0.047851115 0.74910975
0.0097915316 0.046509802 0.748694
0.0097675333 0.045174867 0.74827963
0.0097436924 0.043846637 0.74786794
0.0097199669 0.042524874 0.74745834
0.0096964762 0.041210055 0.74705273
0.0096734911 0.039903164 0.74665582
0.0096507324 0.038602948 0.74626285
0.0096280426 0.037308663 0.74587113
0.0096054962 0.036020637 0.74548185
0.0095830178 0.034738481 0.7450937
0.0095608365 0.033462942 0.74471068
0.0095390249 0.032194227 0.7443341
0.0095174266 0.030931652 0.74396116
0.009495927 0.029674768 0.74358988
0.0094745234 0.028423578 0.74322039
0.0094532538 0.027178138 0.74285316
0.0094321547 0.025938421 0.7424888
0.009411484 0.024705172 0.74213183
0.0093909036 0.023477256 0.74177653
0.0093705244 0.022255003 0.74142462
0.0093502328 0.021038055 0.74107426
0.0093300287 0.019826323 0.74072546
0.009310022 0.018620044 0.74037999
0.0092902817 0.017419279 0.74003911
0.0092707695 0.016223878 0.73970228
0.0092514111 0.015033573 0.73936796
0.009232169 0.013848305 0.73903573
0.0092130071 0.012667924 0.7387048
0.0091940304 0.01149258 0.73837721
0.0091751684 0.010322064 0.73805153
0.0091566993 0.0091567039 0.73773265
0.0091383411 0.0079960525 0.73741561
0.0091200899 0.00684008 0.73710054
0.0091018779 0.0056886971 0.73678601
0.0090837376 0.0045418739 0.73647285
0.0090658432 0.0033996999 0.73616379
0.00904819 0.0022620559 0.73585904
0.0090306057 0.0011288226 0.73555541
0.0090132263 -0 0.7352553
0.0089959484 -0.0011244416 0.73495698
0.0089788372 -0.0022447109 0.73466158
0.0089618582 -0.0033606887 0.73436838
0.008944978 -0.0044724941 0.73407692
0.0089282617 -0.0055801272 0.73378825
0.0089118415 -0.0066838562 0.73350477
0.008895481 -0.0077835321 0.73322225
0.008879181 -0.0088791549 0.73294079
0.0088629723 -0.009970814 0.73266095
0.0088469228 -0.011058629 0.73238385
0.0088311611 -0.012142867 0.73211169
0.0088154869 -0.013223171 0.73184103
0.0087998686 -0.01429978 0.73157132
0.0087843705 -0.015372604 0.73130369
0.0087690568 -0.016441941 0.73103929
0.0087539563 -0.017507881 0.73077857
0.0087389089 -0.018570155 0.73051882
0.0087239118 -0.019628793 0.7302599
0.0087090628 -0.020684034 0.73000348
0.0086944858 -0.021736175 0.72975177
0.0086799897 -0.022784948 0.72950143
0.0086655738 -0.023830295 0.72925252
0.0086511737 -0.024872124 0.72900391
0.0086370725 -0.025911212 0.72876042
0.0086231418 -0.02694729 0.72851992
0.0086092567 -0.027980059 0.72828013
0.0085954154 -0.029009521 0.72804117
0.0085816188 -0.030035645 0.72780293
0.0085682683 -0.031059921 0.72757244
0.0085549271 -0.032080978 0.72734207
0.0085416287 -0.033098787 0.72711241
0.00852938 -0.03411752 0.72690094
0.0085329283 -0.035198301 0.72696221
0.0085513294 -0.036343127 0.7272799
0.0085705211 -0.037496001 0.7276113
0.0085922489 -0.038665086 0.72798651
0.0086159287 -0.039848655 0.72839534
0.0086410558 -0.04104501 0.72882921
0.0086701838 -0.042267144 0.72933209
0.0087011633 -0.043505788 0.7298671
0.0087352507 -0.044768125 0.73045558
0.0087736156 -0.046061486 0.73111808
0.0088140499 -0.0473755 0.73181629
0.0088376887 -0.04860729 0.7322244
0.0088386079 -0.049717188 0.73224026
0.0088395597 -0.050827473 0.73225671
0.0088406764 -0.051938921 0.73227596
0.008810916 -0.052865475 0.73176211
0.0088021802 -0.053913355 0.73161125
0.011929968 0.063626528 0.76272976
0.011289124 0.058954328 0.75289404
0.011247426 0.057486862 0.75225407
0.011218715 0.056093574 0.75181341
0.011190761 0.054710388 0.75138432
0.011162943 0.053334087 0.75095737
0.011135265 0.051964581 0.75053263
0.011107723 0.05060184 0.75010991
0.011080317 0.049245894 0.74968928
0.011053366 0.047897935 0.74927562
0.011026954 0.046558261 0.74887025
0.011000623 0.045224816 0.74846613
0.010974463 0.043897867 0.74806458
0.010948382 0.042577058 0.74766421
0.010922468 0.041262656 0.74726653
0.010896944 0.039955497 0.74687481
0.010871892 0.038655639 0.7464903
0.010846955 0.037361771 0.74610758
0.010822131 0.036073804 0.74572659
0.010797465 0.034791857 0.74534798
0.010772911 0.033515751 0.74497116
0.010748814 0.032246441 0.74460125
0.010724953 0.03098321 0.7442351
0.010701327 0.029725909 0.7438724
0.010677803 0.028474122 0.74351144
0.010654384 0.027227879 0.7431519
0.010631067 0.025987059 0.7427941
0.010608188 0.024752438 0.74244297
0.010585491 0.023523331 0.74209458
0.010563057 0.022299796 0.74175024
0.01054076 0.021081537 0.74140811
0.010518557 0.019868404 0.74106729
0.010496529 0.018660516 0.74072921
0.010474635 0.017457724 0.74039316
0.010453159 0.016260475 0.74006361
0.010431892 0.015068293 0.73973715
0.010410752 0.013881028 0.73941267
0.010389657 0.012698501 0.73908895
0.010368648 0.011520743 0.73876649
0.010347843 0.010347873 0.73844713
0.010327402 0.00917992 0.73813343
0.010307039 0.0080166161 0.73782092
0.010286955 0.0068579912 0.73751265
0.010266989 0.0057038963 0.73720622
0.010247061 0.0045542419 0.73690033
0.010227444 0.0034091771 0.73659927
0.010207903 0.0022684336 0.73629928
0.010188552 0.0011321008 0.73600233
0.010169545 -0 0.73571068
0.01015057 -0.0011278093 0.73541939
0.010131742 -0.002251476 0.73513043
0.010112947 -0.0033709705 0.73484194
0.010094373 -0.004486382 0.73455685
0.010076133 -0.0055978298 0.73427695
0.010057996 -0.0067053139 0.73399854
0.010039925 -0.0078087747 0.7337212
0.010021992 -0.0089084208 0.733446
0.010004275 -0.010004222 0.73317403
0.0099868048 -0.011096418 0.73290592
0.0099693956 -0.012184829 0.73263872
0.0099520488 -0.013269395 0.73237246
0.0099349078 -0.014350355 0.73210937
0.0099180844 -0.015428126 0.73185116
0.0099013168 -0.016502172 0.73159385
0.0098846424 -0.017572701 0.7313379
0.0098679885 -0.018639535 0.73108232
0.0098517528 -0.019703448 0.73083311
0.0098356437 -0.020764112 0.73058581
0.0098196222 -0.02182138 0.73034
0.0098036164 -0.0228751 0.73009431
0.0097877346 -0.023925573 0.72985065
0.0097722616 -0.024973541 0.72961313
0.009756837 -0.026018232 0.72937638
0.0097414609 -0.027059585 0.7291404
0.0097261341 -0.028097719 0.72890508
0.0097112069 -0.029133618 0.72867602
0.0096964305 -0.030166626 0.72844917
0.0096816644 -0.031196445 0.72822261
0.0096669784 -0.032223225 0.72799718
0.0096524414 -0.033247262 0.72777402
0.0096382946 -0.034269482 0.72755694
0.0096374275 -0.03533721 0.72754359
0.0096576652 -0.03648451 0.72785425
0.0096810702 -0.037648618 0.72821349
0.0097064171 -0.038825661 0.72860253
0.0097357212 -0.040024638 0.72905225
0.0097660571 -0.041234463 0.72951788
0.0098010683 -0.04247129 0.73005521
0.0098390775 -0.043729216 0.73063862
0.0098804468 -0.045010895 0.73127353
0.0099282013 -0.046331584 0.73200643
0.009979506 -0.047679842 0.73279387
0.010019103 -0.048982263 0.73340166
0.010025559 -0.050127774 0.73350072
0.010028413 -0.051256359 0.73354453
0.010033826 -0.05239886 0.73362762
0.010000611 -0.053336561 0.73311782
0.0099940011 -0.054411769 0.73301637
0.013302241 0.06385079 0.7633751
0.012568121 0.05907017 0.75323451
0.012508546 0.057539314 0.75241154
0.012477268 0.056147695 0.75197959
0.012446877 0.054766297 0.75155973
0.012416684 0.053391755 0.75114268
0.012386688 0.052024156 0.75072831
0.012356787 0.050662845 0.75031525
0.01232708 0.04930836 0.74990499
0.012297566 0.04796055 0.74949729
0.012268801 0.046621442 0.74909997
0.01224022 0.045288861 0.74870515
0.012211773 0.043962419 0.74831218
0.012183458 0.042642117 0.74792105
0.012155273 0.041327953 0.74753171
0.012127366 0.040020347 0.74714619
0.01210008 0.03872031 0.74676931
0.012073014 0.037426382 0.74639547
0.01204607 0.036138237 0.7460233
0.012019245 0.034855813 0.74565279
0.011992491 0.033578992 0.74528319
0.011966096 0.032308489 0.74491858
0.011940106 0.031044304 0.74455965
0.011914419 0.02978605 0.7442047
0.01188889 0.02853334 0.74385214
0.011863469 0.027286023 0.74350095
0.011838157 0.026043981 0.74315131
0.011813093 0.024807543 0.74280506
0.011788417 0.023576885 0.74246424
0.011764122 0.022351861 0.74212867
0.011739927 0.021131873 0.74179447
0.011715785 0.019916832 0.74146092
0.011691743 0.018706828 0.74112892
0.011667798 0.017501712 0.74079812
0.011644408 0.016302168 0.74047506
0.011621111 0.015107483 0.74015319
0.011598178 0.013917834 0.73983645
0.011575292 0.012732863 0.73952031
0.011552494 0.011552483 0.73920536
0.01153001 0.01037702 0.73889488
0.011507658 0.009206146 0.73858601
0.011485571 0.0080399215 0.73828095
0.011463787 0.0068782866 0.73798007
0.011442132 0.0057210922 0.73768091
0.011420557 0.0045682192 0.73738289
0.011399064 0.0034197569 0.737086
0.011377783 0.0022755861 0.73679203
0.011356927 0.0011357069 0.73650396
0.011336191 2.9802322e-08 0.7362175
0.011315616 -0.0011315346 0.7359333
0.011295159 -0.0022590458 0.73565078
0.011274862 -0.0033824742 0.73537034
0.01125485 -0.0045019388 0.73509395
0.011234952 -0.0056174695 0.73481905
0.011215081 -0.0067290068 0.73454463
0.01119566 -0.0078369677 0.73427635
0.011176391 -0.0089411139 0.73401016
0.011157229 -0.010041505 0.73374546
0.011138133 -0.011138111 0.73348165
0.011119143 -0.012230992 0.73321939
0.011100715 -0.013320833 0.73296487
0.011082307 -0.014406979 0.73271054
0.01106396 -0.015489519 0.73245716
0.011045675 -0.016568542 0.73220456
0.011027612 -0.017644197 0.73195505
0.011009975 -0.018716961 0.73171139
0.010992356 -0.019786209 0.73146802
0.010974791 -0.020852059 0.73122537
0.010957403 -0.02191478 0.73098516
0.010940352 -0.02297473 0.73074967
0.010923434 -0.02403155 0.73051602
0.01090661 -0.025085211 0.73028362
0.010889836 -0.026135594 0.73005188
0.010873471 -0.027183652 0.72982585
0.010857276 -0.028228879 0.7296021
0.010841168 -0.029271156 0.72937965
0.010825106 -0.030310303 0.72915775
0.010809172 -0.03134656 0.72893763
0.010793676 -0.032381028 0.72872365
0.010778224 -0.033412486 0.72851026
0.010762856 -0.034441143 0.72829789
0.010756939 -0.035497874 0.72821617
0.0107767 -0.036640763 0.72848916
0.010805245 -0.037818342 0.72888339
0.010834849 -0.039005429 0.72929239
0.010870293 -0.040220052 0.72978187
0.01090693 -0.041446298 0.73028803
0.010948851 -0.042700529 0.73086715
0.010995444 -0.043981761 0.7315107
0.011045346 -0.04528591 0.73220003
0.011104736 -0.04663986 0.73302037
0.011169842 -0.048030317 0.73391974
0.011231685 -0.049419373 0.73477399
0.011249316 -0.050621897 0.73501754
0.011256342 -0.051779151 0.73511457
0.011266406 -0.052952081 0.73525357
0.011230794 -0.053907752 0.73476166
0.011227614 -0.055015266 0.73471773
0.014690025 0.064101964 0.76409793
0.013886021 0.059331208 0.75400168
0.013777017 0.057613015 0.7526328
0.013742985 0.056221336 0.75220543
0.013710041 0.054840207 0.75179172
0.013677596 0.053467005 0.75138432
0.013645305 0.052100241 0.75097883
0.013613166 0.050739974 0.7505753
0.013581179 0.049386114 0.75017357
0.013549341 0.048038602 0.74977374
0.013518211 0.046699315 0.74938285
0.013487502 0.045367062 0.74899721
0.013456876 0.04404071 0.74861264
0.013426444 0.042720526 0.74823046
0.01339615 0.041406304 0.74785006
0.013365992 0.040097982 0.74747133
0.013336513 0.03879717 0.74710119
0.01330738 0.037502646 0.74673539
0.013278428 0.036213934 0.74637175
0.013249603 0.034930766 0.74600983
0.013220849 0.03365311 0.74564874
0.013192326 0.032381177 0.74529052
0.013164242 0.031115502 0.7449379
0.0131367 0.029856145 0.74459201
0.013109221 0.028601944 0.74424702
0.013081909 0.027353078 0.74390393
0.013054659 0.026109338 0.74356174
0.013027521 0.024870723 0.74322098
0.01300091 0.02363804 0.7428869
0.012974613 0.022410721 0.74255663
0.012948575 0.021188587 0.7422297
0.012922643 0.019971371 0.74190396
0.012896865 0.018759072 0.74158025
0.012871239 0.01755169 0.7412585
0.012845867 0.016349316 0.74093986
0.012820896 0.015151978 0.74062628
0.012796273 0.013959587 0.74031705
0.012771693 0.012771696 0.74000841
0.012747258 0.011588454 0.73970157
0.012722965 0.010409713 0.73939657
0.012698815 0.0092355311 0.73909324
0.012675198 0.008066088 0.73879671
0.012651717 0.0069009662 0.73850179
0.012628421 0.0057402253 0.73820931
0.012605259 0.0045837462 0.73791844
0.01258223 0.0034315288 0.73762923
0.012559623 0.0022835732 0.73734534
0.012537097 0.0011397302 0.73706251
0.012514747 -0 0.73678184
0.012492762 -0.0011357069 0.73650575
0.012470856 -0.0022674203 0.73623061
0.012449215 -0.0033952296 0.73595893
0.012427602 -0.004519105 0.73568749
0.012406205 -0.0056391358 0.7354188
0.012385303 -0.0067555904 0.7351563
0.012364472 -0.0078682899 0.73489475
0.012343759 -0.0089772642 0.73463464
0.012323112 -0.010082543 0.73437536
0.012302721 -0.011184305 0.7341193
0.012282721 -0.012282699 0.73386812
0.012262831 -0.013377637 0.73361838
0.012242958 -0.014468908 0.73336881
0.012223471 -0.01555714 0.73312414
0.012204181 -0.016642064 0.73288184
0.01218509 -0.017723739 0.73264217
0.012166012 -0.018801987 0.73240256
0.012147129 -0.019877106 0.73216546
0.012128799 -0.020949751 0.73193532
0.01211048 -0.022019029 0.73170519
0.012092261 -0.023085207 0.73147643
0.012074051 -0.024148047 0.73124778
0.012056252 -0.025208533 0.73102427
0.012038728 -0.026266307 0.7308042
0.012021254 -0.027321011 0.73058474
0.01200383 -0.028372675 0.73036599
0.01198672 -0.029421926 0.73015112
0.011970053 -0.030469209 0.72994184
0.01195339 -0.031513453 0.72973257
0.011936772 -0.032554805 0.7295239
0.011920374 -0.033593774 0.72931796
0.01190441 -0.034630984 0.72911751
0.011893287 -0.035679847 0.7289778
0.011910348 -0.036813796 0.72919214
0.011944835 -0.038006246 0.72962511
0.011980311 -0.039208263 0.73007065
0.012022314 -0.040438682 0.73059809
0.012066702 -0.041684955 0.73115551
0.012116625 -0.042958945 0.73178244
0.01217389 -0.044268668 0.73250151
0.012235221 -0.045603991 0.73327166
0.0123086 -0.046996474 0.73419321
0.01239206 -0.048441678 0.73524117
0.012481895 -0.049927562 0.73636925
0.012524425 -0.051236242 0.73690337
0.012540028 -0.052440107 0.73709929
0.012561166 -0.053670436 0.73736477
0.012524329 -0.054651618 0.73690218
0.012525048 -0.055793375 0.73691118
0.015855389 0.062100321 0.76213998
0.015059089 0.057726502 0.75297379
0.015016825 0.056313097 0.75248718
0.014981396 0.054931819 0.75207943
0.014946824 0.053559482 0.75168139
0.01491241 0.052193463 0.75128525
0.014878155 0.050833732 0.75089097
0.014844056 0.04948023 0.75049853
0.014810114 0.048132867 0.75010777
0.014776571 0.046792477 0.74972165
0.014743789 0.045460045 0.74934429
0.014711212 0.044133633 0.74896926
0.014678779 0.042813122 0.74859595
0.01464643 0.041498214 0.7482236
0.014614281 0.040189296 0.74785352
0.014582573 0.038886905 0.7474885
0.014551593 0.037591636 0.74713194
0.014520687 0.036301762 0.7467761
0.01448997 0.035017431 0.74642259
0.014459325 0.033738434 0.74606979
0.014428808 0.032464862 0.74571854
0.014398711 0.03119722 0.74537206
0.014369144 0.029935718 0.74503171
0.014339872 0.028679788 0.74469477
0.014310775 0.027429014 0.74435985
0.014281739 0.026183248 0.74402559
0.014252879 0.024942577 0.74369335
0.014224417 0.02370739 0.74336576
0.014196351 0.022477567 0.74304271
0.014168677 0.02125302 0.74272412
0.014141055 0.020033181 0.74240613
0.014113597 0.01881814 0.74209011
0.014086245 0.017607808 0.74177521
0.014059109 0.016402274 0.74146289
0.014032573 0.015201986 0.74115741
0.014006193 0.014006227 0.74085373
0.013980132 0.012815148 0.74055374
0.013954111 0.011628449 0.74025428
0.013928189 0.010446161 0.73995578
0.013902796 0.0092685521 0.7396636
0.01387744 0.0080952048 0.73937166
0.013852446 0.0069262385 0.73908401
0.013827757 0.0057615638 0.73879975
0.013803155 0.0046010911 0.73851657
0.013778853 0.0034447312 0.73823684
0.013754584 0.0022924542 0.73795754
0.013730664 0.0011442304 0.73768216
0.013707248 2.9802322e-08 0.73741257
0.01368386 -0.0011402965 0.7371434
0.013660603 -0.0022767186 0.73687565
0.013637426 -0.0034093261 0.73660886
0.013614587 -0.0045381784 0.73634589
0.013592134 -0.0056633949 0.7360875
0.013569808 -0.0067848563 0.73583055
0.013547708 -0.0079027712 0.73557609
0.013525834 -0.0090171695 0.73532432
0.013504237 -0.01012814 0.73507571
0.013482757 -0.011235595 0.73482841
0.013461397 -0.012339622 0.73458254
0.013440459 -0.0134404 0.73434162
0.013419839 -0.014538169 0.73410428
0.013399332 -0.01563254 0.73386818
0.013378836 -0.016723573 0.73363227
0.013358405 -0.017811209 0.73339701
0.013338683 -0.018896431 0.73317003
0.013319019 -0.019978464 0.73294365
0.013299414 -0.021057397 0.73271799
0.013279964 -0.022133261 0.73249406
0.013261016 -0.02320677 0.73227596
0.013242317 -0.024277568 0.73206073
0.013223622 -0.025345236 0.73184562
0.01320498 -0.026409954 0.73163092
0.013186974 -0.027472824 0.73142368
0.013169116 -0.028533071 0.7312181
0.013151257 -0.029590338 0.73101258
0.013133496 -0.030644774 0.73080808
0.013116263 -0.031697631 0.73060977
0.013099317 -0.032748252 0.73041463
0.013082414 -0.033796191 0.73022008
0.013065603 -0.034841567 0.7300266
0.013050362 -0.035888493 0.72985113
0.013062016 -0.037009031 0.7299853
0.01310249 -0.038215607 0.73045123
0.013145493 -0.03943646 0.73094618
0.013194728 -0.040683717 0.7315129
0.013248954 -0.041954994 0.7321372
0.013309086 -0.043254524 0.73282933
0.013379489 -0.044598281 0.73363972
0.013457185 -0.045978695 0.73453414
0.013548172 -0.047418594 0.73558146
0.013658565 -0.048943162 0.73685217
0.013789714 -0.050562263 0.7383619
0.0138803 -0.052051127 0.73940456
0.013921344 -0.053365141 0.73987705
0.013969406 -0.054713488 0.74043036
0.013934879 -0.055739492 0.74003285
0.013952039 -0.056970805 0.74023038
0.01409587 -0.058732748 0.74188602
0.017327171 0.062644422 0.76373911
0.016360197 0.057889968 0.75346446
0.016300188 0.056423753 0.75282687
0.016262479 0.055042237 0.75242615
0.016225759 0.05366987 0.75203598
0.016189342 0.052304 0.75164902
0.016153086 0.050944358 0.7512638
0.016116925 0.049590558 0.75087953
0.016080994 0.048243016 0.75049776
0.016045287 0.046901613 0.75011837
0.016010603 0.045568675 0.74974978
0.015976133 0.044241637 0.74938351
0.015941747 0.042920083 0.74901819
0.015907573 0.041604459 0.74865502
0.015873479 0.04029426 0.74829274
0.015839791 0.038990259 0.74793482
0.015806764 0.037693083 0.74758387
0.015774131 0.036401868 0.74723715
0.015741568 0.035115808 0.74689114
0.015709141 0.033835113 0.74654663
0.015676845 0.032559603 0.74620342
0.015644936 0.031289876 0.74586439
0.015613659 0.030026287 0.7455321
0.015582697 0.028768063 0.74520308
0.015551921 0.027514964 0.74487603
0.015521203 0.026266664 0.74454963
0.015490729 0.02502349 0.74422586
0.015460439 0.023785293 0.74390399
0.015430819 0.022552758 0.74358928
0.015401437 0.021325082 0.74327707
0.015372287 0.020102233 0.74296731
0.015343308 0.018884093 0.74265939
0.01531438 0.017670453 0.74235201
0.015285982 0.016461849 0.74205029
0.015257749 0.015257776 0.7417503
0.01522998 0.014058441 0.74145532
0.015202433 0.012863606 0.74116254
0.015174984 0.011673093 0.74087083
0.015147753 0.010486931 0.74058151
0.015120739 0.0093050599 0.74029446
0.015094232 0.0081276894 0.74001282
0.015068053 0.0069545209 0.73973465
0.015041966 0.0057854056 0.73945749
0.015016085 0.0046203732 0.73918241
0.014990234 0.0034593046 0.73890775
0.014964878 0.0023023188 0.73863834
0.014939838 0.0011492372 0.73837233
0.014914882 2.9802322e-08 0.73810709
0.014890411 -0.0011453927 0.73784709
0.01486602 -0.0022870898 0.73758799
0.014841937 -0.0034250617 0.73733205
0.014818045 -0.0045593679 0.73707819
0.014794174 -0.005690068 0.73682451
0.014771169 -0.0068174303 0.73658007
0.014748235 -0.0079413056 0.73633635
0.014725373 -0.0090617239 0.73609352
0.01470247 -0.010178626 0.7358501
0.014679917 -0.011292219 0.73561049
0.014657932 -0.012402833 0.73537683
0.014636014 -0.013510138 0.73514402
0.01461427 -0.014614284 0.73491299
0.014592813 -0.015715331 0.73468494
0.014571748 -0.016813546 0.73446107
0.014550908 -0.017908812 0.7342397
0.014530072 -0.019000858 0.73401833
0.014509678 -0.020090282 0.7338016
0.014489721 -0.021177262 0.73358953
0.014469817 -0.022261262 0.73337805
0.01444997 -0.023342222 0.73316717
0.014430339 -0.024420559 0.73295856
0.014411404 -0.025497049 0.73275733
0.014392573 -0.026570886 0.7325573
0.014373737 -0.027641773 0.73235714
0.014355165 -0.028710276 0.73215973
0.014337225 -0.029777288 0.73196918
0.01431933 -0.030841619 0.73177904
0.014301479 -0.031903237 0.73158932
0.014284043 -0.032963127 0.73140407
0.014267175 -0.034021676 0.73122478
0.014250346 -0.035077721 0.73104602
0.014233558 -0.036131322 0.73086762
0.014236913 -0.037234962 0.73090327
0.014280982 -0.038448811 0.73137158
0.014333504 -0.03969276 0.7319296
0.014391716 -0.040960997 0.73254812
0.01445867 -0.042263776 0.73325962
0.014532257 -0.043596745 0.73404145
0.014618802 -0.044980913 0.73496109
0.014718927 -0.0464212 0.73602498
0.01483664 -0.047933757 0.73727572
0.014988897 -0.049578637 0.73889357
0.015194487 -0.051427484 0.74107814
0.015450923 -0.053483903 0.74380285
0.018806687 0.063136756 0.76518619
0.017708449 0.058184922 0.75435019
0.017594552 0.05655393 0.75322652
0.01755479 0.055172235 0.75283414
0.01751609 0.05379945 0.75245231
0.017477782 0.052433372 0.7520743
0.017439567 0.051073015 0.7516973
0.017401593 0.049718887 0.75132263
0.01736371 0.048370361 0.75094879
0.017326064 0.047027946 0.75057739
0.017289443 0.045693547 0.75021613
0.017253119 0.044365197 0.74985772
0.017216949 0.043042362 0.74950081
0.017180927 0.041725129 0.74914539
0.017145129 0.040413529 0.74879217
0.017109549 0.039107561 0.7484411
0.017074816 0.037808567 0.74809837
0.017040504 0.036515355 0.74775988
0.017006259 0.035227299 0.74742204
0.016972221 0.033944458 0.74708617
0.016938321 0.032666773 0.74675167
0.016904622 0.031394303 0.74641919
0.016871741 0.030128151 0.74609476
0.016839329 0.028867394 0.74577492
0.016806973 0.027611464 0.74545568
0.016774742 0.026360333 0.74513769
0.016742632 0.02511394 0.74482089
0.016711049 0.023872972 0.74450922
0.016679784 0.02263689 0.74420071
0.016649105 0.021405995 0.74389809
0.016618535 0.020179689 0.74359643
0.016588079 0.018957794 0.74329597
0.016557865 0.017740548 0.74299788
0.016527893 0.016527891 0.74270213
0.016498553 0.015320122 0.74241263
0.016469575 0.014116794 0.7421267
0.016440636 0.012917638 0.7418412
0.016411927 0.011722833 0.74155796
0.016383253 0.010532111 0.74127507
0.016355194 0.0093458593 0.74099815
0.016327422 0.0081637204 0.74072415
0.0163 0.006985724 0.7404536
0.016272862 0.0058117509 0.7401858
0.016245877 0.0046417117 0.73991954
0.016219169 0.0034755468 0.73965609
0.016192615 0.0023132563 0.73939407
0.016166521 0.0011547506 0.73913664
0.016140951 -0 0.73888427
0.016115524 -0.0011511147 0.73863345
0.016090175 -0.0022985637 0.73838335
0.016064847 -0.0034424365 0.73813343
0.01604009 -0.0045828521 0.73788917
0.01601572 -0.0057198703 0.73764867
0.015991421 -0.0068534315 0.737409
0.015967565 -0.0079837739 0.73717356
0.01594384 -0.0091107488 0.73693949
0.015920613 -0.010234684 0.73671031
0.015897453 -0.01135534 0.73648179
0.01587454 -0.012472808 0.73625565
0.015852299 -0.013587683 0.7360363
0.01583018 -0.014699399 0.73581803
0.015808182 -0.015808165 0.73560095
0.015786123 -0.016913682 0.73538339
0.015764844 -0.018016964 0.7351734
0.015743921 -0.019117594 0.73496693
0.015722992 -0.020215273 0.73476052
0.015702298 -0.02131027 0.73455632
0.015682191 -0.022403151 0.73435789
0.015662309 -0.023493439 0.73416173
0.015642479 -0.024580985 0.73396611
0.015622874 -0.025666147 0.73377264
0.015604138 -0.026749939 0.7335878
0.015585447 -0.027831137 0.73340333
0.0155668 -0.028909773 0.73321939
0.015548431 -0.029986233 0.73303813
0.015530857 -0.031061679 0.73286474
0.015513324 -0.032134742 0.73269176
0.015495828 -0.033205301 0.73251915
0.015479007 -0.034274936 0.73235315
0.015462624 -0.03534314 0.73219156
0.015446331 -0.036409199 0.73203075
0.01544049 -0.037498295 0.73197305
0.015484649 -0.038711607 0.73240876
0.015549069 -0.039983332 0.73304439
0.015620003 -0.041281402 0.73374432
0.015702298 -0.04262048 0.73455626
0.015794568 -0.043999135 0.73546666
0.015902432 -0.045435488 0.73653096
0.016036632 -0.046964407 0.73785508
0.01620112 -0.048603356 0.73947793
0.016443102 -0.05050382 0.74186552
0.020041481 0.061460614 0.76418662
0.018908437 0.056725293 0.75375259
0.018859914 0.055322438 0.75330567
0.018819336 0.05394879 0.75293201
0.01877917 0.052581698 0.75256217
0.018739253 0.051220655 0.75219458
0.018699428 0.049865156 0.75182784
0.018659772 0.048515409 0.7514627
0.018620361 0.047171593 0.75109971
0.018581968 0.045835495 0.75074619
0.018543964 0.044505537 0.75039619
0.018506192 0.043181121 0.75004834
0.018468572 0.0418621 0.74970192
0.01843103 0.040548265 0.74935615
0.018393792 0.039240122 0.74901325
0.018357534 0.037938952 0.7486794
0.018321646 0.036643296 0.74834889
0.018285897 0.035352767 0.7480197
0.018250363 0.034067363 0.74769247
0.018214891 0.032786816 0.74736583
0.018179929 0.031511873 0.74704385
0.018145543 0.030242562 0.74672723
0.018111654 0.028978676 0.74641508
0.018077891 0.027719468 0.74610412
0.018044254 0.026464939 0.74579442
0.018010888 0.025215238 0.74548721
0.017977716 0.023970306 0.74518168
0.017945534 0.022731006 0.74488533
0.017913539 0.021496236 0.7445907
0.017881658 0.020265877 0.74429715
0.017849959 0.019039959 0.7440052
0.017818304 0.017818302 0.74371368
0.017787468 0.016601652 0.74342972
0.01775681 0.015389234 0.74314743
0.017726753 0.014181405 0.74287057
0.017696865 0.01297769 0.74259543
0.017667009 0.011778027 0.74232054
0.01763753 0.010582507 0.74204898
0.017608291 0.0093910992 0.74177974
0.017579772 0.0082038939 0.74151713
0.01755162 0.0070206821 0.74125791
0.017523561 0.0058411956 0.74099946
0.017495519 0.004665494 0.74074119
0.017467568 0.0034935176 0.74048388
0.017440526 0.0023254156 0.74023479
0.017413702 0.0011609197 0.73998785
0.017387165 2.9802322e-08 0.73974335
0.017360842 -0.0011573732 0.739501
0.017334869 -0.0023112893 0.73926181
0.017309243 -0.003461808 0.73902577
0.017283691 -0.004608959 0.73879051
0.01725895 -0.0057529509 0.73856264
0.017234478 -0.006893754 0.73833734
0.017210077 -0.0080313683 0.73811257
0.017185744 -0.0091657341 0.73788857
0.017161746 -0.01029703 0.7376675
0.017138537 -0.011425704 0.73745382
0.017115392 -0.012551278 0.73724067
0.017092504 -0.013673991 0.73702991
0.017070005 -0.014793992 0.73682272
0.01704802 -0.01591149 0.73662031
0.017026093 -0.017026067 0.73641837
0.017004287 -0.018137902 0.7362175
0.016983505 -0.019247979 0.73602617
0.016962839 -0.020355433 0.73583591
0.016942225 -0.021460146 0.73564607
0.01692166 -0.022562206 0.73545659
0.016902233 -0.023663104 0.73527771
0.01688285 -0.024761528 0.73509926
0.016863514 -0.025857359 0.73492116
0.016844792 -0.026951611 0.73474872
0.016826684 -0.028044462 0.73458195
0.016808677 -0.029135019 0.73441619
0.01679071 -0.03022328 0.73425072
0.016773978 -0.031311393 0.73409665
0.016757281 -0.032397389 0.73394287
0.016740616 -0.03348124 0.73378944
0.016724488 -0.034563929 0.73364091
0.016709263 -0.035646379 0.73350072
0.016694069 -0.036726952 0.73336083
0.016682083 -0.03781271 0.73325038
0.016719533 -0.039012223 0.73359531
0.016798928 -0.040317416 0.73432642
0.016886748 -0.041653961 0.73513508
0.016989587 -0.043040246 0.73608214
0.017110927 -0.0444884 0.73719954
0.017253542 -0.046009421 0.73851287
0.017446801 -0.047687888 0.74029255
0.017726611 -0.049634486 0.74286938
0.021597644 0.062093228 0.76608646
0.020262873 0.056989372 0.75456297
0.020179519 0.055493712 0.75384337
0.020137247 0.054118901 0.75347841
0.020095406 0.052750468 0.7531172
0.020053823 0.051387966 0.7527582
0.020012327 0.050030857 0.75239992
0.019971086 0.04867956 0.75204396
0.019929932 0.047333598 0.7516886
0.019890279 0.045996308 0.75134629
0.019850781 0.044664234 0.75100529
0.01981144 0.043337554 0.75066566
0.019772256 0.042016029 0.75032735
0.019733224 0.04069975 0.7499904
0.019694675 0.039389372 0.74965751
0.019657087 0.03808558 0.74933314
0.019619802 0.036787152 0.74901122
0.019582659 0.035493582 0.74869055
0.019545659 0.03420493 0.74837106
0.019508876 0.032921225 0.74805355
0.019472551 0.031642944 0.74773991
0.019437155 0.030370563 0.74743438
0.019402044 0.0291031 0.74713123
0.019366983 0.027840018 0.7468285
0.019332126 0.026581675 0.74652755
0.019297317 0.025327772 0.74622703
0.019263489 0.024079382 0.74593508
0.019230092 0.022835761 0.74564672
0.019197043 0.0215967 0.74536133
0.019164106 0.020361841 0.74507701
0.019131282 0.019131303 0.74479365
0.019098954 0.017905295 0.74451458
0.019066965 0.016683638 0.74423838
0.019035921 0.01546672 0.74397039
0.019004976 0.014253736 0.74370325
0.018974056 0.013044685 0.74343628
0.018943237 0.011839539 0.74317014
0.018912818 0.010638475 0.74290758
0.018883174 0.0094416142 0.74265164
0.018853845 0.0082485676 0.74239838
0.018824903 0.0070593655 0.74214864
0.018795976 0.0058737695 0.74189883
0.01876751 0.0046918988 0.74165308
0.01873935 0.003513664 0.74140996
0.01871179 0.0023390055 0.74117202
0.018684825 0.0011678338 0.74093926
0.018657936 2.9802322e-08 0.7407071
0.018631052 -0.0011644065 0.740475
0.018604247 -0.0023255348 0.74024361
0.018578604 -0.0034834743 0.74002218
0.018553106 -0.0046382248 0.73980206
0.018527823 -0.0057899356 0.73958379
0.018502895 -0.0069385767 0.73936862
0.018478464 -0.008084327 0.73915768
0.018454313 -0.0092271268 0.73894918
0.018430226 -0.010367006 0.73874122
0.018407268 -0.011504531 0.73854303
0.018384509 -0.012639314 0.73834658
0.018361807 -0.013771355 0.73815054
0.018339163 -0.014900565 0.73795503
0.018317489 -0.016027778 0.73776793
0.018296149 -0.017152637 0.7375837
0.018274857 -0.018274814 0.73739988
0.018254176 -0.019395053 0.73722136
0.01823424 -0.020513505 0.73704922
0.018214347 -0.021629512 0.73687744
0.018194638 -0.022743315 0.73670733
0.01817615 -0.023856163 0.73654771
0.018157771 -0.024966896 0.73638904
0.018139428 -0.026075423 0.73623067
0.018121673 -0.027182519 0.73607737
0.018104918 -0.028288901 0.73593271
0.018088194 -0.029393315 0.73578835
0.01807157 -0.030495763 0.73564488
0.018056482 -0.031598836 0.73551452
0.018041354 -0.032699943 0.73538393
0.018026317 -0.03379932 0.73525417
0.018012736 -0.034899652 0.73513687
0.01799945 -0.035998881 0.73502219
0.017986184 -0.0370965 0.73490769
0.017974431 -0.03819564 0.73480618
0.01800088 -0.039376885 0.73503453
0.018093558 -0.040710479 0.73583466
0.018205775 -0.042100847 0.73680353
0.01833697 -0.043550313 0.73793614
0.018506564 -0.045109719 0.73940027
0.018721949 -0.046804845 0.74125969
0.019081187 -0.048895538 0.74436116
0.022887349 0.060584158 0.76559782
0.021518856 0.055695862 0.7544781
0.021471974 0.054311454 0.75409722
0.021428652 0.052941352 0.7537452
0.021385599 0.051577032 0.75339532
0.021342626 0.050217956 0.75304615
0.021299826 0.048864275 0.75269842
0.021257376 0.047516525 0.75235343
0.02121643 0.04617694 0.75202078
0.021175554 0.044842362 0.7516886
0.021134833 0.043512911 0.75135779
0.02109427 0.042188585 0.75102818
0.021053951 0.040869445 0.75070053
0.021014396 0.039556533 0.7503792
0.020975597 0.038249612 0.7500639
0.020937115 0.036947876 0.74975121
0.02089869 0.0356507 0.749439
0.020860491 0.034358472 0.74912864
0.02082243 0.033070952 0.74881935
0.020785447 0.031789541 0.74851882
0.020749109 0.030513436 0.74822354
0.020712895 0.029241741 0.74792939
0.020676808 0.027974516 0.74763608
0.020640848 0.026711702 0.7473439
0.02060543 0.025453776 0.74705613
0.020570889 0.024201095 0.74677545
0.020536881 0.022953004 0.74649912
0.020502901 0.021708965 0.74622303
0.020469032 0.02046904 0.74594784
0.020435359 0.019233286 0.74567419
0.020402374 0.018002123 0.74540621
0.020369984 0.01677531 0.74514294
0.020338191 0.015552759 0.74488473
0.020306414 0.014333963 0.74462646
0.020274816 0.013119012 0.74436975
0.020243725 0.011908114 0.74411708
0.020213131 0.01070109 0.74386853
0.020183437 0.0094981194 0.74362725
0.020153908 0.0082986951 0.74338728
0.020124385 0.0071027279 0.74314737
0.02009503 0.005910337 0.7429089
0.020066239 0.0047214627 0.74267495
0.020038243 0.0035361648 0.7424475
0.020010484 0.0023542047 0.74222195
0.019983198 0.001175493 0.7420001
0.019955985 2.9802322e-08 0.74177909
0.019929476 -0.0011723042 0.74156368
0.019903036 -0.0023415089 0.74134886
0.019877682 -0.0035078228 0.74114281
0.019852547 -0.0046711862 0.7409386
0.019827632 -0.005831629 0.74073619
0.019802783 -0.0069892108 0.74053425
0.019778766 -0.00814417 0.74033904
0.019755349 -0.0092966557 0.74014884
0.01973214 -0.010446429 0.73996025
0.019709371 -0.011593729 0.73977524
0.019687191 -0.012738705 0.739595
0.019665366 -0.013881415 0.73941761
0.019643895 -0.015021771 0.73924321
0.019623537 -0.016160548 0.73907781
0.019603375 -0.017297089 0.73891401
0.019583253 -0.018431306 0.73875052
0.019563701 -0.019563675 0.73859155
0.01954532 -0.020695031 0.7384423
0.019526977 -0.02182427 0.73829323
0.019508969 -0.022951692 0.7381469
0.019492272 -0.024078637 0.73801112
0.019475752 -0.025203884 0.73787695
0.019459486 -0.026327491 0.73774481
0.019444592 -0.027451187 0.73762375
0.019429946 -0.028573424 0.73750478
0.019415395 -0.02969411 0.73738652
0.019402876 -0.030816287 0.73728478
0.019390374 -0.031937063 0.73718321
0.019377964 -0.033056468 0.73708242
0.019367645 -0.034178197 0.73699856
0.019357413 -0.035298795 0.73691541
0.019347856 -0.036419511 0.7368378
0.01934001 -0.037542343 0.73677409
0.019332172 -0.038664311 0.73671031
0.01934645 -0.039830893 0.7368263
0.019447807 -0.041183591 0.73764992
0.01960003 -0.042658865 0.73888677
0.019785577 -0.044226557 0.74039447
0.020055333 -0.046009302 0.74258631
0.020610049 -0.04849422 0.74709368
0.022906739 0.055994272 0.7554149
0.022825962 0.054528683 0.75479496
0.022781279 0.053156346 0.75445211
0.022736769 0.051789343 0.75411052
0.022692433 0.050427645 0.75377023
0.022648269 0.049071252 0.75343138
0.022605328 0.047722369 0.75310177
0.022563023 0.046379596 0.75277716
0.022520972 0.045041978 0.75245452
0.022478983 0.043709159 0.75213224
0.022437243 0.042381465 0.75181192
0.022395752 0.041058898 0.75149357
0.022355724 0.039743543 0.75118637
0.022316024 0.038433164 0.75088167
0.022276461 0.037127405 0.75057817
0.022237042 0.035826385 0.75027561
0.022197761 0.034529865 0.74997413
0.022159168 0.033238769 0.74967802
0.022121897 0.031953871 0.74939197
0.022084661 0.030673176 0.74910623
0.022047643 0.029396862 0.74882209
0.022010654 0.02812475 0.74853832
0.021973792 0.026856869 0.74825537
0.021938222 0.025594622 0.74798238
0.021903215 0.024336874 0.7477138
0.021868495 0.023083419 0.74744737
0.0218338 0.021833807 0.74718118
0.021799391 0.020588338 0.74691701
0.021765621 0.01934725 0.74665785
0.021732925 0.018110812 0.74640703
0.021700593 0.016878277 0.7461589
0.021668268 0.015649348 0.74591082
0.021636039 0.014424056 0.74566352
0.021603908 0.013202399 0.74541688
0.02157326 0.011985183 0.74518174
0.021542961 0.010771483 0.74494922
0.021513006 0.0095613599 0.74471933
0.021483134 0.0083545744 0.74449003
0.021453861 0.0071513355 0.74426544
0.021424923 0.0059513748 0.74404335
0.02139692 0.0047549009 0.74382848
0.021369416 0.0035616457 0.74361742
0.021342155 0.0023713708 0.7434082
0.021314962 0.0011841655 0.74319953
0.02128843 2.9802322e-08 0.74299598
0.02126281 -0.0011812449 0.74279928
0.021237416 -0.0023596883 0.74260443
0.021212591 -0.0035353899 0.74241388
0.021187991 -0.0047084391 0.74222517
0.021164201 -0.0058788955 0.74204254
0.021140715 -0.0070469081 0.74186236
0.021118445 -0.0082127452 0.74169141
0.021096308 -0.0093761384 0.7415216
0.021074299 -0.010537118 0.74135268
0.021052999 -0.0116961 0.74118924
0.021032816 -0.012853384 0.74103433
0.021012753 -0.014008492 0.74088037
0.020993225 -0.015161753 0.74073052
0.020974798 -0.016313732 0.74058902
0.020956734 -0.017463923 0.7404505
0.020939356 -0.018612742 0.74031711
0.020922987 -0.019760609 0.74019146
0.020907052 -0.020907044 0.74006921
0.020891387 -0.02205202 0.73994899
0.020877698 -0.023197412 0.73984396
0.020864028 -0.024341345 0.73973906
0.020850781 -0.025484264 0.73963737
0.020839497 -0.026628226 0.73955077
0.02082831 -0.027771086 0.73946494
0.020818507 -0.028914571 0.73938972
0.02080993 -0.030058771 0.73932391
0.020801358 -0.031202018 0.73925811
0.020795781 -0.03234899 0.73921531
0.02079029 -0.033495426 0.73917311
0.020786174 -0.03464362 0.73914158
0.020783912 -0.035794497 0.73912424
0.020782301 -0.036946267 0.73911184
0.020783832 -0.03810367 0.73912358
0.020785527 -0.03926158 0.73913664
0.020795459 -0.040435582 0.73921287
0.02089734 -0.041794658 0.73999465
0.02112403 -0.043421626 0.74173433
0.021467024 -0.045319229 0.74436641
0.026011785 0.060237885 0.76873702
0.02420523 0.054780275 0.75560313
0.024155976 0.053397447 0.75524509
0.024110213 0.052027345 0.75491232
0.024064723 0.050662607 0.75458163
0.024019714 0.049303651 0.7542544
0.023976296 0.047952622 0.75393879
0.023933034 0.046606451 0.75362426
0.023889931 0.045265168 0.75331086
0.02384698 0.043928683 0.75299865
0.023804184 0.042596996 0.75268745
0.023762839 0.041272342 0.75238687
0.023722136 0.039953083 0.75209099
0.023681674 0.038638532 0.75179684
0.023641249 0.037328303 0.75150287
0.02360096 0.036022544 0.75121003
0.023561301 0.034721941 0.75092167
0.023522951 0.033427358 0.7506429
0.023484921 0.032137305 0.75036639
0.023447108 0.030851483 0.75009143
0.023409322 0.029569685 0.74981678
0.023372045 0.028292507 0.74954575
0.023335751 0.027020365 0.74928188
0.023300437 0.02575314 0.74902511
0.023265133 0.024489641 0.74876851
0.023229936 0.023229957 0.74851263
0.023194939 0.021974176 0.74825817
0.023160903 0.020722926 0.74801075
0.02312763 0.019475907 0.74776876
0.023094924 0.018232882 0.747531
0.023062402 0.016993374 0.74729466
0.023029976 0.015757382 0.74705887
0.022998385 0.014525324 0.74682921
0.022967631 0.013297081 0.74660563
0.022937611 0.012072414 0.74638736
0.02290776 0.010851055 0.74617034
0.022878079 0.0096329153 0.74595451
0.022848755 0.0084179938 0.74574137
0.022820793 0.0072065592 0.74553812
0.022793178 0.005998224 0.74533731
0.022766085 0.0047928691 0.74514037
0.022738967 0.0035903752 0.74494326
0.022713011 0.0023908913 0.74475443
0.022687476 0.0011940897 0.74456882
0.02266318 2.9802322e-08 0.74439222
0.022638937 -0.0011914968 0.74421597
0.022614926 -0.0023804903 0.74404132
0.022591688 -0.0035671294 0.74387246
0.022569671 -0.0047515035 0.74371237
0.022547876 -0.0059336424 0.74355388
0.022526573 -0.0071136355 0.74339908
0.022506475 -0.0082918406 0.74325293
0.022486681 -0.009468019 0.74310899
0.022467993 -0.010642707 0.74297309
0.02245014 -0.011815846 0.74284339
0.022432759 -0.012987405 0.74271703
0.022416119 -0.014157534 0.74259603
0.022401188 -0.015327096 0.74248749
0.022386367 -0.016495228 0.74237972
0.022372274 -0.017662317 0.74227726
0.022359969 -0.018829435 0.74218786
0.022348031 -0.01999563 0.74210107
0.022337781 -0.021162063 0.74202651
0.022328425 -0.022328436 0.7419585
0.022320047 -0.02349478 0.74189758
0.022313965 -0.024662763 0.74185336
0.022307886 -0.025830179 0.74180913
0.022304364 -0.02699998 0.7417835
0.022301899 -0.028170794 0.74176562
0.022301724 -0.02934435 0.74176437
0.022303395 -0.030520439 0.74177653
0.022307092 -0.031699538 0.74180341
0.022313524 -0.032883078 0.74185014
0.022322338 -0.034070909 0.74191421
0.022334427 -0.035264879 0.74200213
0.022350682 -0.036466867 0.74212033
0.022369528 -0.037674963 0.7422573
0.022396127 -0.038898528 0.74245071
0.022428039 -0.04013437 0.7426827
0.022467278 -0.041387051 0.74296796
0.022578418 -0.042780131 0.74377596
0.023108806 -0.045001358 0.74763203
0.025651267 0.055150211 0.75679159
0.025555931 0.053667456 0.7561332
0.02550935 0.052294195 0.75581145
0.025462829 0.050925702 0.75549018
0.025418324 0.049565762 0.75518274
0.025374191 0.048210949 0.75487792
0.025330102 0.046860695 0.75457346
0.025286166 0.04551512 0.75427002
0.025242491 0.044174373 0.75396842
0.025200034 0.042840093 0.75367516
0.025158571 0.041511655 0.75338864
0.025117349 0.040187746 0.75310403
0.025076156 0.03886804 0.75281954
0.025035204 0.037552804 0.75253665
0.024994912 0.036242604 0.75225842
0.024956422 0.034939021 0.75199258
0.024918051 0.033639401 0.75172758
0.024879696 0.032343626 0.7514627
0.024841456 0.031051844 0.75119853
0.024803542 0.029764295 0.75093669
0.024767186 0.028482288 0.75068557
0.024731658 0.027204841 0.75044024
0.02469613 0.025930941 0.75019479
0.024660803 0.024660826 0.74995083
0.024626087 0.023394793 0.7497111
0.024592286 0.022133082 0.74947757
0.024559688 0.020875752 0.74925256
0.024527078 0.01962167 0.74902725
0.024494655 0.018371016 0.74880338
0.02446242 0.017123729 0.74858069
0.024431873 0.015880764 0.74836969
0.024402002 0.014641225 0.74816334
0.024372406 0.013404846 0.74795896
0.02434298 0.012171507 0.74775577
0.024314322 0.010941446 0.74755782
0.024286622 0.009714663 0.74736649
0.024260174 0.0084910691 0.74718392
0.024233781 0.0072701573 0.74700159
0.024207745 0.0060519576 0.74682164
0.024182254 0.0048364699 0.74664569
0.024158387 0.0036237836 0.74648082
0.024134859 0.0024135113 0.74631834
0.024111673 0.0012055933 0.74615824
0.024089603 2.9802322e-08 0.74600571
0.024068059 -0.0012033582 0.74585694
0.024048207 -0.0024047792 0.74571985
0.024028681 -0.0036042631 0.74558496
0.024009671 -0.004801929 0.74545366
0.023992142 -0.0059980154 0.7453326
0.023975894 -0.0071927309 0.74522036
0.023959862 -0.0083859265 0.74510962
0.023944719 -0.0095778704 0.74500507
0.023931423 -0.010769129 0.74491328
0.023919009 -0.011959463 0.74482751
0.02390795 -0.013149321 0.74475116
0.023897769 -0.014338642 0.74468088
0.023889802 -0.015528351 0.74462581
0.023883281 -0.016718298 0.74458075
0.023876568 -0.017907411 0.74453443
0.023873886 -0.019099087 0.7445159
0.023871681 -0.020290911 0.74450064
0.023872353 -0.02148509 0.74450529
0.023874171 -0.022680432 0.74451786
0.023880403 -0.023880392 0.7445609
0.023887308 -0.025081635 0.74460858
0.023899306 -0.026289195 0.74469149
0.023913046 -0.027500004 0.74478632
0.023933155 -0.028719783 0.74492526
0.023957739 -0.029947162 0.74509501
0.023986917 -0.031182975 0.74529654
0.024027128 -0.032436609 0.74557424
0.024077022 -0.033707827 0.74591887
0.024142403 -0.035006464 0.74637043
0.024232401 -0.036348581 0.74699199
0.024375401 -0.037781894 0.7479797
0.026997749 0.05399552 0.75721204
0.026937546 0.052592367 0.75681603
0.026892539 0.051223904 0.75652003
0.026847569 0.049859822 0.75622422
0.026802866 0.048500448 0.75593013
0.026758194 0.047145426 0.75563627
0.026713783 0.045795083 0.75534421
0.02667146 0.044452429 0.7550658
0.026629608 0.043114632 0.75479048
0.026587889 0.041781008 0.75451612
0.026546299 0.040451527 0.75424254
0.026504954 0.039126366 0.75397056
0.026464857 0.037806958 0.75370681
0.02642611 0.036493242 0.75345194
0.026387591 0.03518346 0.75319862
0.026349071 0.033877403 0.75294518
0.026310885 0.032575399 0.75269401
0.026273916 0.031278491 0.75245082
0.026238481 0.029986858 0.75221777
0.026203033 0.028698564 0.7519846
0.026167791 0.027413875 0.75175279
0.026132643 0.026132673 0.75152159
0.026099008 0.02485621 0.75130033
0.026066763 0.023584217 0.75108832
0.026034599 0.022315383 0.75087672
0.026002515 0.021049678 0.75066566
0.025971049 0.019787461 0.75045866
0.025941059 0.018529326 0.75026143
0.025912322 0.017274886 0.75007242
0.025883647 0.016023248 0.74988377
0.025855144 0.014774352 0.74969631
0.025827559 0.013528705 0.74951482
0.025801631 0.012286484 0.74934429
0.025776284 0.011047006 0.74917758
0.025750991 0.0098099113 0.74901116
0.025727017 0.0085756779 0.7488535
0.025703829 0.0073440075 0.74870098
0.025682371 0.0061149001 0.74855989
0.025661055 0.0048878491 0.74841964
0.025640512 0.0036629736 0.74828452
0.025621787 0.0024401844 0.74816126
0.025604246 0.0012192726 0.74804592
0.025587043 -0 0.74793279
0.025570909 -0.0012176335 0.74782664
0.025556469 -0.0024339557 0.74773169
0.025543716 -0.0036491156 0.74764776
0.025531707 -0.0048631728 0.74756879
0.025520649 -0.0060763359 0.74749601
0.025513245 -0.007289499 0.74744737
0.025506159 -0.0085020363 0.74740076
0.025499912 -0.009714216 0.74735963
0.025496997 -0.01092729 0.7473405
0.025495749 -0.01214081 0.74733227
0.025496997 -0.013355553 0.7473405
0.025500849 -0.014571905 0.74736583
0.025508035 -0.015790671 0.7474131
0.025517102 -0.017011374 0.7474727
0.025531394 -0.018236697 0.74756676
0.025549253 -0.019466072 0.74768424
0.02557206 -0.0207012 0.74783421
0.025602672 -0.021945119 0.74803555
0.025640195 -0.023198247 0.74828243
0.025686489 -0.024463326 0.74858695
0.025748441 -0.025748432 0.74899441
0.025832579 -0.027062684 0.74954784
0.025956586 -0.028428644 0.75036359
0.026206443 -0.029950231 0.75200701
0.028621877 0.054641813 0.75933754
0.028403193 0.052933246 0.75796449
0.02835789 0.051559836 0.75768006
0.028312853 0.050190985 0.75739729
0.028267836 0.048826307 0.75711465
0.028223451 0.047466725 0.75683594
0.02818151 0.04611522 0.7565726
0.028139574 0.044767559 0.75630927
0.028097762 0.043423831 0.75604677
0.028056193 0.042084277 0.75578582
0.028015347 0.040749609 0.75552928
0.027976895 0.039422035 0.75528789
0.027938427 0.038097888 0.75504631
0.027900184 0.036777556 0.75480616
0.027862163 0.035460949 0.75456744
0.027825074 0.034148961 0.75433463
0.027790209 0.032842964 0.75411576
0.027755314 0.031540155 0.75389659
0.027720507 0.030240536 0.75367802
