# .PCD v0.7 - Point Cloud Data file format
VERSION 0.7
FIELDS x y z
SIZE 4 4 4
TYPE F F F
COUNT 1 1 1
WIDTH 1314
HEIGHT 1
VIEWPOINT 0 0 0 1 0 0 0
POINTS 1314
DATA ascii
-0.015154302 -0.011113137 0.7191813
-0.015120709 -0.012096584 0.71887195
-0.015089356 -0.013077438 0.71858323
-0.015060574 -0.014056534 0.71831816
-0.015034282 -0.015034288 0.71807605
-0.015016519 -0.016017616 0.71791244
-0.015011061 -0.017012537 0.71786225
-0.015016721 -0.018020064 0.71791434
-0.015027243 -0.019034475 0.71801114
-0.015040466 -0.020053923 0.71813291
-0.015055389 -0.021077543 0.71827042
-0.015074111 -0.022108704 0.7184428
-0.015095075 -0.023145765 0.71863586
-0.015121222 -0.024193913 0.71887672
-0.01515034 -0.025250554 0.71914476
-0.015181999 -0.026315451 0.71943635
-0.015218824 -0.027393878 0.7197755
-0.015259221 -0.028483868 0.72014749
-0.015304925 -0.029589504 0.7205683
-0.015356345 -0.030712664 0.72104186
-0.015414236 -0.03185609 0.72157502
-0.015478092 -0.0330199 0.72216296
-0.015549037 -0.034207851 0.72281635
-0.015628515 -0.03542462 0.72354829
-0.01571822 -0.036675841 0.72437429
-0.015822362 -0.037973642 0.72533339
-0.015941836 -0.039323181 0.72643358
-0.016082704 -0.040742844 0.72773087
-0.01625316 -0.042258203 0.72930056
-0.016470512 -0.043921381 0.73130214
-0.016777134 -0.045857459 0.73412567
-0.018344002 0.027516007 0.76062101
-0.017472208 0.024960309 0.75201935
-0.017086588 0.023188949 0.74821454
-0.016797751 0.021597147 0.74536473
-0.01656083 0.020109594 0.74302715
-0.016356993 0.018693745 0.74101591
-0.016177954 0.017333537 0.73924947
-0.016016705 0.016016752 0.73765838
-0.01587097 0.014737368 0.73622054
-0.015737196 0.013489038 0.73490059
-0.015614321 0.012268424 0.73368824
-0.015499983 0.011071414 0.7325601
-0.015393393 0.0098957717 0.73150837
-0.015294101 0.008739531 0.73052871
-0.015200797 0.0076004267 0.72960818
-0.015113067 0.0064770579 0.72874254
-0.01503052 0.0053680539 0.7279281
-0.014952306 0.0042721331 0.72715634
-0.014878675 0.0031882823 0.72642994
-0.014809137 0.0021156073 0.72574377
-0.014743377 0.0010531247 0.72509497
-0.01468115 2.9802322e-08 0.72448099
-0.014622423 -0.0010444224 0.72390151
-0.014566967 -0.0020810068 0.7233544
-0.014514357 -0.00311023 0.7228353
-0.014464639 -0.0041327178 0.72234476
-0.014417806 -0.0051491857 0.7218827
-0.014373557 -0.0061600804 0.72144616
-0.014331799 -0.007165879 0.72103405
-0.014292539 -0.0081671476 0.72064674
-0.014255594 -0.0091643035 0.7202822
-0.014220973 -0.010157824 0.7199406
-0.014188842 -0.011148363 0.71962363
-0.01415912 -0.01213637 0.71933031
-0.014131534 -0.013122112 0.71905816
-0.014106159 -0.014106125 0.71880776
-0.014082924 -0.015088826 0.71857846
-0.014061852 -0.016070664 0.71837062
-0.014044303 -0.017053783 0.71819746
-0.014039283 -0.018050492 0.71814799
-0.014043403 -0.019058883 0.71818858
-0.014056962 -0.020081371 0.7183224
-0.014072974 -0.021109432 0.71848041
-0.014091074 -0.022143126 0.71865892
-0.014112471 -0.023184747 0.71887004
-0.014135708 -0.024232626 0.71909934
-0.014164225 -0.025293261 0.71938074
-0.014196438 -0.026364803 0.71969855
-0.014231376 -0.02744621 0.72004324
-0.014271278 -0.028542548 0.72043699
-0.014315342 -0.029653192 0.72087169
-0.01436364 -0.030779243 0.72134829
-0.014418305 -0.031926244 0.72188759
-0.014480284 -0.033097774 0.72249913
-0.014549608 -0.03429547 0.7231831
-0.014627097 -0.035522908 0.72394764
-0.014714511 -0.036786228 0.72481018
-0.014814037 -0.038093179 0.72579211
-0.014930536 -0.039459258 0.72694165
-0.015067671 -0.040897965 0.72829467
-0.015234056 -0.042437702 0.7299363
-0.015449885 -0.044142514 0.7320658
-0.015771354 -0.04618752 0.7352376
-0.016494349 0.026644737 0.75488991
-0.016066225 0.024717271 0.75034082
-0.015768919 0.023046881 0.74718177
-0.01553124 0.021504849 0.74465626
-0.015330045 0.020046979 0.74251848
-0.015154225 0.018651396 0.7406503
-0.014997678 0.017305046 0.73898685
-0.014855967 0.015998751 0.73748106
-0.014727224 0.014727265 0.73611307
-0.014608252 0.013484567 0.73484904
-0.014498686 0.012268126 0.73368478
-0.014396539 0.011074305 0.73259938
-0.014301162 0.0099008083 0.73158598
-0.014211793 0.0087457299 0.73063636
-0.01412792 0.0076073706 0.72974515
-0.014049268 0.0064842999 0.72890949
-0.013974669 0.0053748786 0.72811681
-0.013904506 0.004278332 0.72737134
-0.013838216 0.0031934679 0.72666687
-0.013775448 0.0021193326 0.72599989
-0.013716167 0.0010550916 0.72537005
-0.013660192 2.9802322e-08 0.72477525
-0.013607259 -0.0010467172 0.72421288
-0.013557205 -0.0020857155 0.72368103
-0.01350983 -0.0031176507 0.72317761
-0.013465179 -0.0041431189 0.72270322
-0.01342301 -0.0051626861 0.72225511
-0.013383189 -0.0061768293 0.72183198
-0.013345769 -0.0071861744 0.72143435
-0.013310665 -0.0081911385 0.72106135
-0.013277843 -0.0091923475 0.7207126
-0.013247269 -0.010190219 0.7203877
-0.013218915 -0.011185199 0.72008646
-0.013192438 -0.012177646 0.71980512
-0.013168174 -0.013168156 0.71954733
-0.013145875 -0.014157057 0.71931034
-0.013125614 -0.015144914 0.71909505
-0.013107458 -0.016132265 0.71890211
-0.013091524 -0.017119676 0.71873283
-0.013077707 -0.018107563 0.71858609
-0.013071474 -0.019104451 0.71851981
-0.0130747 -0.020114928 0.71855414
-0.0130882 -0.021142483 0.71869749
-0.013106525 -0.022180289 0.71889222
-0.013127485 -0.023225516 0.7191149
-0.013151331 -0.024279356 0.71936834
-0.01317724 -0.025340825 0.71964365
-0.013207446 -0.026414841 0.71996456
-0.013242097 -0.027502805 0.72033274
-0.013280031 -0.028603137 0.72073591
-0.013322867 -0.029720217 0.72119099
-0.013370507 -0.03085497 0.72169721
-0.013422917 -0.032008469 0.72225416
-0.013481001 -0.033183992 0.7228713
-0.01354647 -0.034387171 0.72356689
-0.013621449 -0.035625309 0.72436357
-0.013706636 -0.036902457 0.72526872
-0.013804222 -0.038227051 0.72630566
-0.01391717 -0.039610386 0.7275058
-0.014049881 -0.041068852 0.72891593
-0.014216444 -0.042649329 0.73068577
-0.014434433 -0.044413626 0.73300207
-0.014776872 -0.046603948 0.73664069
-0.015553282 0.028514355 0.75866234
-0.015033081 0.026307881 0.75267434
-0.014723715 0.02453956 0.7491132
-0.014485324 0.022935092 0.74636906
-0.01428637 0.021429569 0.74407893
-0.014114657 0.019995779 0.74210232
-0.013962683 0.018616945 0.74035287
-0.013826095 0.017282635 0.73878068
-0.013701723 0.01598537 0.73734897
-0.013588201 0.014720559 0.73604226
-0.013483216 0.013483226 0.73483372
-0.013385561 0.012270123 0.73370957
-0.013294955 0.011079162 0.73266661
-0.013209917 0.0099074543 0.73168778
-0.01312992 0.0087532997 0.73076695
-0.013054897 0.0076153576 0.72990334
-0.01298422 0.0064921379 0.72908974
-0.012917717 0.005382359 0.72832429
-0.012854901 0.0042849779 0.72760111
-0.012795401 0.0031988919 0.72691619
-0.01273922 0.0021232367 0.7262696
-0.012686281 0.0010572076 0.72566015
-0.012636107 2.9802322e-08 0.72508258
-0.012588682 -0.0010490417 0.72453672
-0.012543814 -0.0020906031 0.72402018
-0.012501498 -0.0031253695 0.72353315
-0.012461599 -0.0041538775 0.72307384
-0.01242403 -0.0051766634 0.72264135
-0.012388707 -0.0061943531 0.72223485
-0.012355596 -0.0072073936 0.72185361
-0.012324447 -0.0082162917 0.72149509
-0.012295403 -0.0092215538 0.72116077
-0.012268436 -0.010223687 0.72085035
-0.01224331 -0.011223018 0.72056109
-0.012220168 -0.012220144 0.72029471
-0.012198947 -0.013215482 0.72005045
-0.01217963 -0.014209539 0.71982807
-0.012162528 -0.015203148 0.7196312
-0.012147335 -0.01619643 0.71945632
-0.012134036 -0.01718986 0.71930325
-0.012122701 -0.018184006 0.71917272
-0.012113279 -0.019179344 0.7190643
-0.012106745 -0.020177901 0.71898907
-0.012109127 -0.021190941 0.71901649
-0.012120313 -0.022220552 0.7191453
-0.012140187 -0.02326867 0.719374
-0.012163357 -0.024326712 0.71964079
-0.012189406 -0.025394559 0.7199406
-0.012217909 -0.026472121 0.72026873
-0.012250581 -0.027563781 0.72064483
-0.012286472 -0.028668404 0.72105789
-0.012327129 -0.029790521 0.72152591
-0.012372429 -0.030931056 0.72204745
-0.012423597 -0.03209427 0.7226364
-0.012480164 -0.033280432 0.72328758
-0.012543153 -0.034493655 0.72401261
-0.012614133 -0.035740018 0.72482967
-0.012694766 -0.037026376 0.72575784
-0.01278756 -0.038362682 0.72682607
-0.012896058 -0.039762855 0.72807491
-0.013028112 -0.041255683 0.72959507
-0.013189851 -0.042867005 0.73145682
-0.013410106 -0.044700325 0.73399216
-0.013796751 -0.0471389 0.7384429
-0.013991738 0.027983487 0.75532919
-0.013661489 0.026081026 0.75118208
-0.013420937 0.024401724 0.74816132
-0.013225231 0.02284357 0.74570376
-0.013057942 0.02136755 0.74360299
-0.012911422 0.019954026 0.74176311
-0.012780076 0.018589199 0.74011374
-0.01266156 0.017265767 0.73862541
-0.012552924 0.015976459 0.73726124
-0.012453196 0.01471743 0.73600888
-0.012360595 0.013484329 0.73484606
-0.012274471 0.012274474 0.73376459
-0.012194219 0.011085659 0.73275679
-0.012118825 0.0099154115 0.73180997
-0.012048039 0.0087622702 0.73092109
-0.011981584 0.007624656 0.73008662
-0.011918506 0.006501019 0.72929454
-0.011859228 0.0053905547 0.72855014
-0.01180326 0.0042921305 0.72784728
-0.011750435 0.0032046735 0.72718394
-0.011700464 0.002127409 0.72655642
-0.011653283 0.0010593832 0.72596401
-0.011608788 2.9802322e-08 0.72540516
-0.011566675 -0.0010514855 0.7248764
-0.011526938 -0.0020957887 0.72437739
-0.01148953 -0.0031334758 0.72390759
-0.01145421 -0.0041651428 0.72346413
-0.01142094 -0.0051912963 0.7230463
-0.011389725 -0.0062125921 0.72265434
-0.011360377 -0.0072292984 0.72228575
-0.011332986 -0.0082421601 0.72194183
-0.011307563 -0.0092516243 0.72162259
-0.01128381 -0.010257959 0.72132432
-0.011261978 -0.01126197 0.72105014
-0.011242086 -0.012264073 0.7208004
-0.011224072 -0.013264775 0.72057414
-0.011207731 -0.014264375 0.72036892
-0.011193311 -0.015263587 0.72018784
-0.011180572 -0.01626265 0.72002792
-0.011169693 -0.01726225 0.71989125
-0.011160585 -0.018262744 0.71977693
-0.01115347 -0.019265085 0.71968752
-0.011148148 -0.020269334 0.71962076
-0.011144807 -0.021276414 0.71957874
-0.011146097 -0.022292197 0.71959496
-0.011154762 -0.023323596 0.71970373
-0.011172821 -0.024377048 0.71993059
-0.011197525 -0.025448918 0.72024077
-0.011225729 -0.026533514 0.72059488
-0.011256515 -0.027629614 0.72098148
-0.01129117 -0.028741121 0.72141671
-0.011329649 -0.02986905 0.72189999
-0.011372066 -0.03101474 0.72243255
-0.011419703 -0.032182783 0.72303081
-0.011473413 -0.0333772 0.72370523
-0.011534131 -0.034602374 0.72446769
-0.011602406 -0.035861969 0.72532505
-0.011679912 -0.037163347 0.72629833
-0.011769501 -0.03851831 0.72742331
-0.011875328 -0.039944261 0.72875226
-0.012001583 -0.041460037 0.73033774
-0.012163478 -0.043125063 0.73237079
-0.012389431 -0.045052439 0.73520815
-0.01291341 -0.048131794 0.74178803
-0.012953166 0.029792279 0.75855327
-0.012582638 0.027681798 0.75343508
-0.01233828 0.025910378 0.75005966
-0.012145443 0.02429089 0.74739599
-0.011983696 0.022769064 0.74516165
-0.011842825 0.021317095 0.7432158
-0.011717539 0.019919842 0.74148518
-0.01160465 0.018567443 0.73992586
-0.011502229 0.017253339 0.73851109
-0.011407722 0.015970826 0.73720562
-0.011320871 0.014717132 0.7360059
-0.011239878 0.013487875 0.73488712
-0.011164391 0.012280852 0.7338444
-0.011093717 0.011093736 0.73286813
-0.011027531 0.0099247992 0.73195392
-0.010965443 0.0087723732 0.73109627
-0.01090657 0.0076346397 0.73028308
-0.010851215 0.0065107346 0.72951847
-0.010799007 0.0053994954 0.72879726
-0.01074959 0.0042998791 0.7281146
-0.010702934 0.0032109022 0.72747022
-0.010658974 0.0021318197 0.72686291
-0.010617457 0.0010617673 0.72628945
-0.010578142 -0 0.72574639
-0.010541026 -0.0010540783 0.72523367
-0.010506133 -0.0021012127 0.72475171
-0.01047313 -0.0031419098 0.72429579
-0.010442058 -0.0041767955 0.72386664
-0.010412955 -0.0052064657 0.72346461
-0.010385537 -0.006231308 0.72308588
-0.010359922 -0.0072519183 0.72273201
-0.010336122 -0.008268863 0.72240329
-0.010314112 -0.0092827082 0.72209924
-0.010293763 -0.010293722 0.72181821
-0.010275163 -0.01130265 0.72156119
-0.010258221 -0.012309849 0.72132719
-0.010242888 -0.013315707 0.72111541
-0.010229218 -0.01432088 0.72092658
-0.010217199 -0.015325785 0.72076052
-0.01020682 -0.016330898 0.72061723
-0.01019814 -0.017336816 0.72049725
-0.01019122 -0.018344164 0.7204017
-0.010186124 -0.019353628 0.72033131
-0.010182845 -0.020365655 0.72028601
-0.010181381 -0.021380872 0.72026575
-0.010181834 -0.022400022 0.72027212
-0.010184205 -0.023423672 0.72030485
-0.010191499 -0.024459571 0.72040558
-0.0102071 -0.025517732 0.72062111
-0.010229182 -0.026595861 0.72092605
-0.010258823 -0.027698815 0.72133553
-0.010291768 -0.028816938 0.72179067
-0.010328225 -0.029951841 0.72229421
-0.010368953 -0.03110683 0.72285676
-0.010414158 -0.032283872 0.72348118
-0.010464396 -0.033486068 0.72417521
-0.010520739 -0.034718424 0.72495341
-0.010585636 -0.035991162 0.72584993
-0.010660006 -0.037309974 0.72687715
-0.010746055 -0.038685769 0.72806579
-0.010846901 -0.040133536 0.72945887
-0.010970904 -0.041689426 0.73117173
-0.011130213 -0.043407798 0.73337233
-0.011367259 -0.045468986 0.73664665
-0.011975767 0.031935394 0.76343268
-0.011487533 0.029357046 0.75593925
-0.01123652 0.027467042 0.75208664
-0.011047161 0.025776744 0.74918038
-0.010890692 0.024201572 0.74677879
-0.010756416 0.022707999 0.74471796
-0.010638081 0.021276176 0.7429018
-0.010531594 0.01989302 0.74126738
-0.010435186 0.018551439 0.73978776
-0.010347123 0.017245233 0.73843616
-0.010265886 0.015969187 0.73718923
-0.010190414 0.014719486 0.73603094
-0.010120441 0.013493955 0.73495698
-0.01005486 0.012289286 0.73395044
-0.0099932551 0.01110363 0.73300493
-0.0099355718 0.0099355876 0.73211956
-0.0098811397 0.0087832808 0.73128414
-0.0098300083 0.0076455772 0.73049939
-0.0097817974 0.006521225 0.72975945
-0.009736076 0.0054089427 0.72905761
-0.0096930247 0.0043080449 0.72839695
-0.009652406 0.0032174885 0.72777355
-0.0096139917 0.0021364689 0.72718394
-0.0095776971 0.0010642111 0.72662687
-0.0095434114 2.9802322e-08 0.72610068
-0.0095111271 -0.0010567904 0.72560513
-0.009480672 -0.0021067858 0.72513777
-0.0094519462 -0.0031506419 0.72469687
-0.0094250543 -0.0041888654 0.72428411
-0.0093997326 -0.0052220523 0.72389543
-0.0093761245 -0.0062507391 0.72353309
-0.0093542347 -0.007275492 0.72319716
-0.0093339123 -0.0082967877 0.72288525
-0.0093150381 -0.0093150139 0.72259557
-0.0092977593 -0.010330826 0.72233039
-0.0092819929 -0.011344671 0.7220884
-0.0092676915 -0.012356907 0.72186887
-0.0092549371 -0.013368219 0.72167313
-0.0092436858 -0.014379025 0.7215004
-0.009233959 -0.015389919 0.72135121
-0.0092258118 -0.01640144 0.7212261
-0.0092193289 -0.017414272 0.72112668
-0.009214473 -0.018428922 0.72105211
-0.0092111751 -0.019445807 0.72100151
-0.00920959 -0.020465732 0.72097713
-0.009209686 -0.021489233 0.72097862
-0.0092115244 -0.022517055 0.72100681
-0.0092153298 -0.023550272 0.72106528
-0.009221076 -0.024589509 0.72115344
-0.0092289289 -0.025635928 0.72127396
-0.0092418352 -0.026698589 0.72147202
-0.0092614377 -0.027784318 0.72177291
-0.0092888223 -0.028898537 0.72219318
-0.0093224365 -0.030038953 0.72270912
-0.0093606468 -0.031202108 0.72329557
-0.0094031338 -0.032388538 0.72394764
-0.009450946 -0.03360337 0.7246815
-0.0095045073 -0.034849823 0.72550356
-0.0095651699 -0.036135048 0.72643459
-0.0096346522 -0.037468076 0.72750103
-0.0097151194 -0.03886047 0.72873604
-0.009812206 -0.040339053 0.73022616
-0.0099315532 -0.041933179 0.73205793
-0.010091785 -0.043731064 0.73451716
-0.010353487 -0.046015441 0.73853379
-0.010379576 0.031138748 0.75884753
-0.010115068 0.029080868 0.75428039
-0.0099284137 0.027303159 0.75105745
-0.0097786933 0.025669098 0.74847233
-0.0096514374 0.024128586 0.74627507
-0.0095404023 0.022658467 0.74435788
-0.0094413245 0.021242976 0.74264717
-0.0093519967 0.019873023 0.74110472
-0.0092703365 0.01854068 0.73969477
-0.0091954172 0.017241418 0.73840111
-0.0091260374 0.015970588 0.73720318
-0.009061492 0.01472497 0.73608869
-0.0090013938 0.013502091 0.73505098
-0.008945046 0.012299448 0.73407811
-0.0088921562 0.011115223 0.73316485
-0.0088425176 0.0099478662 0.73230773
-0.0087955752 0.008795619 0.73149723
-0.0087513477 0.0076574683 0.73073351
-0.0087096682 0.0065322816 0.73001391
-0.0086703431 0.0054189861 0.72933489
-0.0086333118 0.0043166578 0.72869551
-0.0085982112 0.0032243431 0.72808939
-0.0085650906 0.0021412671 0.72751755
-0.0085339071 0.0010667443 0.72697914
-0.0085043795 2.9802322e-08 0.72646928
-0.0084767155 -0.0010595918 0.72599161
-0.0084505519 -0.002112627 0.7255398
-0.0084259808 -0.0031597316 0.7251156
-0.0084030954 -0.0042015016 0.72472042
-0.0083814859 -0.0052384138 0.72434729
-0.0083614262 -0.0062710345 0.72400093
-0.0083428361 -0.0072999895 0.72367996
-0.0083255535 -0.008325547 0.72338158
-0.0083097061 -0.0093483925 0.72310787
-0.0082952492 -0.010369033 0.72285831
-0.0082820524 -0.011387795 0.72263038
-0.0082702776 -0.012405396 0.72242713
-0.0082599698 -0.0134224 0.72224915
-0.0082510896 -0.014439374 0.72209585
-0.008243571 -0.015456676 0.72196603
-0.0082374336 -0.016474843 0.72185999
-0.0082328161 -0.017494708 0.7217803
-0.0082295984 -0.01851657 0.72172475
-0.0082278904 -0.019541234 0.72169524
-0.008227692 -0.020569205 0.72169179
-0.008229115 -0.021601409 0.72171634
-0.0082322182 -0.022638559 0.72176999
-0.0082371486 -0.02368179 0.72185516
-0.0082439138 -0.024731725 0.72197187
-0.0082526924 -0.025789648 0.7221235
-0.008263614 -0.02685672 0.72231209
-0.0082768369 -0.027934313 0.72254038
-0.0082937451 -0.029028118 0.72283232
-0.0083183348 -0.03015396 0.72325689
-0.0083489856 -0.031308711 0.72378612
-0.008386774 -0.032498747 0.72443861
-0.0084313555 -0.033725411 0.7252084
-0.0084812483 -0.034985155 0.72606987
-0.00853795 -0.036286265 0.72704899
-0.0086034043 -0.037639886 0.7281791
-0.008680243 -0.039061069 0.7295059
-0.0087722577 -0.04057169 0.7310946
-0.0088889338 -0.04222241 0.73310924
-0.0090502547 -0.044119984 0.73589468
-0.0093843844 -0.046921909 0.74166399
-0.0092690317 0.033103734 0.76253569
-0.0089721773 0.030761778 0.75667781
-0.0087881396 0.028875351 0.75304621
-0.0086460141 0.027173221 0.75024158
-0.0085269529 0.025580883 0.74789214
-0.0084242299 0.02406925 0.74586505
-0.0083329156 0.022617936 0.74406308
-0.0082511073 0.021217138 0.74244875
-0.0081768585 0.019858092 0.74098361
-0.0081085432 0.018533826 0.73963553
-0.0080457721 0.017240942 0.73839688
-0.0079873968 0.01597479 0.7372449
-0.0079329452 0.014732659 0.73617041
-0.007882094 0.013512194 0.73516691
-0.0078345146 0.012311399 0.73422807
-0.0077899238 0.011128455 0.73334813
-0.0077475971 0.0099612176 0.73251289
-0.0077078384 0.0088090003 0.73172832
-0.0076704365 0.0076704323 0.73099023
-0.0076350188 0.0065443516 0.73029137
-0.0076016472 0.0054297447 0.72963285
-0.0075701624 0.0043258369 0.72901154
-0.0075404937 0.0032316744 0.7284261
-0.007512412 0.0021464229 0.72787189
-0.0074859387 0.0010694265 0.72734952
-0.0074611208 -0 0.72685975
-0.0074376366 -0.0010625124 0.72639632
-0.0074155671 -0.0021187067 0.72596085
-0.007394942 -0.0031692386 0.72555387
-0.007375502 -0.004214555 0.72517014
-0.0073574376 -0.0052553117 0.72481376
-0.0073407041 -0.0062919855 0.72448349
-0.0073251291 -0.0073251128 0.72417617
-0.0073108263 -0.0083552301 0.72389394
-0.0072977562 -0.009382844 0.72363603
-0.0072859302 -0.010408461 0.72340262
-0.0072753634 -0.011432678 0.72319418
-0.0072660185 -0.01245603 0.72300982
-0.0072579123 -0.013478965 0.72284979
-0.0072510112 -0.014501989 0.72271359
-0.0072453585 -0.015525758 0.72260207
-0.0072409981 -0.016550839 0.72251606
-0.0072379522 -0.017577887 0.72245592
-0.0072361403 -0.018607199 0.7224201
-0.0072357631 -0.019639909 0.72241271
-0.0072367694 -0.020676434 0.72243255
-0.0072392863 -0.021717846 0.7224822
-0.0072433916 -0.022764921 0.72256327
-0.0072491174 -0.023818493 0.72267628
-0.0072566727 -0.024880022 0.72282535
-0.0072660437 -0.025950104 0.7230103
-0.0072774743 -0.027030617 0.72323585
-0.0072911615 -0.028123021 0.72350591
-0.0073072594 -0.029229045 0.72382355
-0.0073262891 -0.030351758 0.72419906
-0.0073485556 -0.031493813 0.72463852
-0.007376913 -0.032669157 0.72519809
-0.0074111326 -0.033879429 0.72587335
-0.0074536945 -0.035138845 0.72671324
-0.0075048022 -0.036451906 0.72772175
-0.0075643035 -0.037821501 0.7288959
-0.0076355785 -0.039268672 0.73030233
-0.0077228225 -0.040820628 0.73202395
-0.0078350743 -0.042533249 0.7342391
-0.0080097383 -0.04462567 0.73768574
-0.0078076059 0.032531679 0.75937533
-0.0076253666 0.030501515 0.75517976
-0.0074912012 0.028716266 0.75209099
-0.0073819584 0.027067184 0.74957597
-0.0072882781 0.025509 0.7474193
-0.0072063049 0.024021029 0.74553204
-0.0071325633 0.022586465 0.74383438
-0.0070660757 0.021198273 0.74230373
-0.0070052962 0.019848377 0.74090445
-0.006949394 0.01853174 0.73961747
-0.0068974956 0.017243743 0.73842263
-0.0068495199 0.01598224 0.7373181
-0.0068045161 0.014743149 0.73628199
-0.0067623281 0.013524681 0.73531073
-0.0067228377 0.012325197 0.73440158
-0.0066855834 0.011142671 0.73354393
-0.0066506239 0.00997594 0.73273915
-0.006617696 0.0088236034 0.73198104
-0.0065864786 0.0076842606 0.73126233
-0.0065570953 0.006557107 0.73058593
-0.0065294066 0.0054412186 0.7299484
-0.0065033017 0.0043355525 0.72934747
-0.0064785806 0.0032393336 0.7287783
-0.0064552841 0.0021517873 0.72824192
-0.0064334068 0.0010722578 0.72773832
-0.0064127599 2.9802322e-08 0.72726297
-0.0063933218 -0.0010655522 0.72681546
-0.0063751624 -0.0021250546 0.7263974
-0.0063580349 -0.0031789839 0.72600305
-0.0063420814 -0.0042280555 0.72563577
-0.0063273506 -0.0052727759 0.72529668
-0.0063136052 -0.0063135922 0.72498024
-0.0063010529 -0.0073512197 0.72469121
-0.0062895482 -0.0083860457 0.72442639
-0.0062791239 -0.0094186664 0.72418642
-0.006269725 -0.010449529 0.72397
-0.0062614088 -0.011479229 0.72377861
-0.0062541887 -0.012508303 0.72361225
-0.0062479917 -0.013537288 0.72346961
-0.006242855 -0.01456666 0.72335136
-0.006238882 -0.015597194 0.72325993
-0.0062360042 -0.016629308 0.72319365
-0.0062342389 -0.017663658 0.723153
-0.0062337164 -0.018701106 0.72314095
-0.0062343916 -0.019742221 0.72315657
-0.0062363744 -0.020787895 0.72320223
-0.006239689 -0.021838903 0.72327852
-0.0062444713 -0.022896379 0.72338855
-0.0062507708 -0.023961276 0.72353363
-0.0062586856 -0.025034726 0.72371584
-0.0062683597 -0.026118129 0.72393858
-0.0062799859 -0.027213246 0.72420621
-0.0062936968 -0.028321624 0.72452188
-0.0063097649 -0.029445559 0.72489178
-0.006328675 -0.030588567 0.72532713
-0.0063506807 -0.031753391 0.72583377
-0.0063760281 -0.032942802 0.7264173
-0.006405991 -0.034165263 0.72710717
-0.0064408374 -0.03542456 0.72790939
-0.006482935 -0.036736578 0.7288785
-0.0065355529 -0.038124025 0.7300899
-0.0066012684 -0.039607555 0.73160279
-0.0066885911 -0.041246295 0.73361313
-0.0068395431 -0.04331708 0.73708838
-0.0066226539 0.034437835 0.76258868
-0.0064383056 0.032191515 0.75749582
-0.0063139992 0.030307233 0.75406164
-0.0062152962 0.028590351 0.75133479
-0.0061321491 0.026981503 0.74903774
-0.0060596801 0.025450677 0.74703562
-0.0059954715 0.023981929 0.74526179
-0.0059376084 0.022562951 0.74366331
-0.0058848076 0.021185338 0.74220455
-0.0058364179 0.019843847 0.74086773
-0.0057916809 0.018533409 0.73963171
-0.0057501355 0.017250389 0.73848403
-0.0057114633 0.015992135 0.73741555
-0.0056752125 0.014755607 0.73641413
-0.0056412378 0.013538986 0.73547554
-0.005609402 0.012340695 0.73459601
-0.0055793258 0.011158675 0.73376513
-0.0055510621 0.0099919438 0.7329843
-0.0055243759 0.008839041 0.73224705
-0.005499206 0.0076988935 0.73155171
-0.0054755341 0.0065706372 0.73089772
-0.0054531447 0.0054531395 0.73027915
-0.0054320092 0.0043456554 0.72969526
-0.0054121003 0.0032472908 0.72914529
-0.0053933733 0.0021573901 0.72862786
-0.0053756889 0.0010751486 0.7281394
-0.0053590662 2.9802322e-08 0.72768009
-0.0053435061 -0.0010686815 0.72725022
-0.005328876 -0.0021315217 0.72684598
-0.005315294 -0.0031891763 0.72647083
-0.0053026136 -0.0042420924 0.72612053
-0.0052909534 -0.0052909553 0.72579837
-0.0052801319 -0.0063361824 0.72549945
-0.0052702506 -0.0073783398 0.7252264
-0.0052612815 -0.0084180236 0.72497863
-0.0052531962 -0.0094557703 0.72475529
-0.0052459682 -0.010491908 0.72455561
-0.0052397023 -0.01152733 0.72438246
-0.0052342978 -0.012562305 0.72423315
-0.0052297693 -0.013597399 0.7241081
-0.0052262582 -0.014633507 0.72401106
-0.0052236696 -0.015670985 0.72393954
-0.0052220002 -0.016710371 0.72389346
-0.0052214139 -0.017752796 0.72387719
-0.0052217986 -0.018798441 0.72388792
-0.0052232845 -0.019848466 0.72392893
-0.0052259276 -0.020903707 0.724002
-0.0052297693 -0.021964997 0.72410804
-0.0052348874 -0.0230335 0.72424948
-0.0052413642 -0.024110258 0.72442842
-0.0052493205 -0.025196701 0.72464824
-0.0052589187 -0.026294559 0.72491336
-0.0052702697 -0.027405381 0.72522694
-0.0052835839 -0.028531313 0.72559482
-0.0052990988 -0.029674917 0.72602344
-0.0053174039 -0.030840933 0.72652912
-0.0053385179 -0.032031089 0.72711241
-0.0053632604 -0.033252209 0.72779596
-0.0053921998 -0.034510076 0.7285955
-0.0054269736 -0.035818011 0.72955614
-0.0054692104 -0.037190616 0.73072296
-0.0055223862 -0.038656712 0.73219216
-0.0055952813 -0.040285975 0.7342059
-0.0057167769 -0.042304099 0.73756242
-0.0054307655 0.036657721 0.76716924
-0.0052247997 0.033961236 0.76005661
-0.0051119109 0.031949461 0.75615817
-0.0050258255 0.030154943 0.75318539
-0.0049543865 0.028487712 0.75071836
-0.0048931078 0.026912093 0.74860227
-0.0048387917 0.025403678 0.74672651
-0.0047903322 0.023951679 0.74505305
-0.0047463533 0.022545159 0.74353433
-0.0047060023 0.021177053 0.74214089
-0.004669006 0.01984331 0.74086326
-0.0046345904 0.018538386 0.73967475
-0.0046025473 0.017259598 0.73856819
-0.004572683 0.016004413 0.73753691
-0.0045447322 0.014770389 0.73657173
-0.0045185443 0.013555646 0.73566735
-0.0044936924 0.012357682 0.7348091
-0.0044704047 0.01117605 0.73400497
-0.0044485051 0.01000914 0.73324865
-0.0044278246 0.0088556707 0.73253453
-0.0044083153 0.0077145696 0.73186076
-0.0043898677 0.0065847933 0.73122376
-0.004372586 0.0054657459 0.73062688
-0.0043562376 0.0043562353 0.73006237
-0.0043407553 0.0032555759 0.72952771
-0.0043263421 0.0021631718 0.72903001
-0.0043126964 0.0010782182 0.72855872
-0.0042998828 5.9604645e-08 0.72811627
-0.0042879637 -0.0010719895 0.72770464
-0.0042767413 -0.0021383464 0.72731709
-0.0042663417 -0.0031997263 0.72695798
-0.0042567239 -0.0042566955 0.7266258
-0.0042478014 -0.0053097308 0.72631776
-0.0042396416 -0.0063594282 0.72603595
-0.0042322511 -0.0074064136 0.72578067
-0.0042255162 -0.0084510148 0.72554815
-0.0042195357 -0.0094939172 0.72534156
-0.004214304 -0.010535747 0.72516096
-0.0042097997 -0.011576951 0.72500539
-0.004206019 -0.012618035 0.72487485
-0.0042030322 -0.013659805 0.72477168
-0.0042008208 -0.014702886 0.72469532
-0.0041994117 -0.015747756 0.72464663
-0.0041987598 -0.016795039 0.72462416
-0.004198967 -0.017845601 0.72463137
-0.0042000199 -0.018900096 0.72466767
-0.0042020078 -0.019959539 0.72473633
-0.0042049489 -0.021024704 0.7248379
-0.0042088912 -0.022096664 0.72497404
-0.0042139306 -0.02317661 0.72514808
-0.0042202091 -0.024266154 0.72536486
-0.0042278138 -0.025366873 0.72562748
-0.0042368183 -0.026480108 0.72593844
-0.0042474223 -0.027608246 0.72630465
-0.0042597423 -0.028753251 0.72673011
-0.0042742668 -0.029919863 0.72723168
-0.0042911344 -0.031110704 0.72781414
-0.004310743 -0.032330573 0.72849131
-0.0043339236 -0.033587873 0.7292918
-0.0043615559 -0.03489244 0.73024601
-0.0043951385 -0.03625986 0.73140574
-0.0044373879 -0.03771776 0.73286474
-0.0044948128 -0.039329618 0.73484784
-0.0045886282 -0.041297615 0.73808753
-0.0039825318 0.035842836 0.76300025
-0.0038828547 0.033651412 0.75841075
-0.003811413 0.031761795 0.75512123
-0.0037539061 0.030031264 0.75247341
-0.0037048194 0.02840361 0.75021327
-0.0036621634 0.026855886 0.74824917
-0.0036238902 0.02536726 0.7464869
-0.0035894245 0.023929477 0.74489999
-0.0035579477 0.022533685 0.74345064
-0.0035291109 0.021174699 0.74212283
-0.0035023456 0.019846648 0.7408905
-0.0034775955 0.018547177 0.73975086
-0.0034544496 0.017272264 0.73868513
-0.0034327717 0.016019613 0.73768699
-0.0034124993 0.014787495 0.73675358
-0.0033933681 0.013573498 0.73587269
-0.0033754203 0.012376577 0.73504627
-0.0033585338 0.011195123 0.73426878
-0.003342554 0.010027677 0.73353297
-0.0033275071 0.0088733733 0.73284018
-0.0033133577 0.0077311695 0.7321887
-0.0033000119 0.0066000223 0.73157418
-0.0032874024 0.0054790378 0.73099357
-0.0032755267 0.0043673515 0.73044682
-0.0032644046 0.0032644272 0.72993469
-0.0032538804 0.0021692514 0.72945011
-0.0032440131 0.0010813177 0.7289958
-0.0032348388 2.9802322e-08 0.72857332
-0.0032261712 -0.001075387 0.72817427
-0.0032181421 -0.0021454096 0.72780454
-0.0032107185 -0.0032107234 0.72746271
-0.0032038239 -0.0042717457 0.72714525
-0.0031975203 -0.0053291917 0.72685498
-0.0031917666 -0.0063835084 0.7265901
-0.0031865453 -0.0074352622 0.72634971
-0.0031819085 -0.0084851086 0.72613621
-0.0031778398 -0.0095335245 0.72594887
-0.0031743464 -0.010581136 0.725788
-0.0031714011 -0.011628449 0.7256524
-0.0031690244 -0.01267606 0.7255429
-0.0031672581 -0.013724774 0.7254616
-0.0031660781 -0.014775008 0.7254073
-0.0031654825 -0.015827388 0.72537988
-0.0031655275 -0.016882837 0.72538197
-0.0031662353 -0.017941982 0.72541451
-0.0031676181 -0.019005716 0.72547817
-0.0031697338 -0.020074964 0.72557563
-0.003172619 -0.021150798 0.72570848
-0.0031763238 -0.022234261 0.72587907
-0.0031809104 -0.023326665 0.72609025
-0.0031865225 -0.024430007 0.7263487
-0.0031932287 -0.025545835 0.72665739
-0.0032011338 -0.026676118 0.72702146
-0.0032103488 -0.027823001 0.72744572
-0.0032210816 -0.028989732 0.72793984
-0.0032337368 -0.030181557 0.7285226
-0.0032483006 -0.031400234 0.72919321
-0.0032656952 -0.032656938 0.72999406
-0.0032862765 -0.033958197 0.73094177
-0.0033113044 -0.03532058 0.73209411
-0.0033427668 -0.036770433 0.7335428
-0.0033851922 -0.038365483 0.73549622
-0.0034532463 -0.040287852 0.73862976
-0.002708039 0.037912548 0.76666212
-0.0026242021 0.035426766 0.76087171
-0.0025707362 0.033419579 0.75717908
-0.0025290146 0.031612694 0.75429749
-0.0024942816 0.029931396 0.75189859
-0.0024640064 0.028336108 0.7498076
-0.0024372905 0.026810199 0.74796242
-0.0024132803 0.025339454 0.74630415
-0.0023914201 0.023914218 0.74479431
-0.0023714167 0.02252847 0.74341273
-0.0023529453 0.021176517 0.74213701
-0.0023358141 0.019854426 0.7409538
-0.0023198801 0.018559068 0.73985332
-0.0023049477 0.017287135 0.73882198
-0.0022909825 0.016036898 0.7378574
-0.0022778919 0.01480633 0.73695332
-0.0022655714 0.013593435 0.7361024
-0.0022539897 0.012396961 0.73530245
-0.0022430585 0.011215299 0.7345475
-0.0022327441 0.010047346 0.73383516
-0.0022230556 0.0088922381 0.73316598
-0.0022139207 0.007748723 0.73253506
-0.0022052852 0.0066158772 0.73193866
-0.0021971553 0.0054929256 0.73137712
-0.0021895363 0.0043790638 0.73085093
-0.0021823302 0.0032735467 0.73035324
-0.0021755772 0.0021756291 0.72988689
-0.0021692852 0.0010846853 0.72945225
-0.0021633441 2.9802322e-08 0.72904193
-0.0021578267 -0.0010789037 0.72866088
-0.0021527426 -0.002152741 0.72830975
-0.0021480003 -0.0032219887 0.72798216
-0.0021436727 -0.0042873323 0.72768331
-0.0021397243 -0.0053492785 0.72741061
-0.0021361511 -0.006408453 0.72716379
-0.0021329566 -0.0074653029 0.72694319
-0.0021301457 -0.0085205734 0.72674906
-0.0021277149 -0.0095747113 0.72658116
-0.0021256616 -0.010628283 0.72643936
-0.0021239843 -0.011681885 0.72632349
-0.0021227184 -0.012736291 0.7262361
-0.002121855 -0.013792038 0.72617644
-0.0021213784 -0.014849633 0.72614354
-0.0021213405 -0.015910029 0.72614086
-0.0021217417 -0.016973913 0.72616857
-0.0021226048 -0.018042117 0.72622818
-0.0021239615 -0.019115627 0.72632194
-0.0021258288 -0.020195335 0.72645092
-0.0021282479 -0.021282464 0.72661793
-0.0021312523 -0.022378147 0.72682548
-0.0021349012 -0.023483902 0.72707748
-0.002139332 -0.024602324 0.72738355
-0.0021445693 -0.025734812 0.72774523
-0.0021506955 -0.026883692 0.72816837
-0.002157772 -0.028051019 0.72865707
-0.0021661804 -0.029243439 0.72923785
-0.0021758638 -0.030462086 0.72990668
-0.0021874106 -0.031717449 0.73070413
-0.0022010254 -0.03301537 0.73164445
-0.0022175936 -0.034372687 0.7327888
-0.0022384326 -0.035814881 0.73422801
-0.0022662447 -0.037393034 0.73614895
-0.002310086 -0.039271474 0.73917687
-0.001332107 0.037299007 0.76363528
-0.0013013474 0.035136372 0.7593863
-0.0012785216 0.03324157 0.75623333
-0.0012597669 0.031494141 0.75364268
-0.0012437663 0.029850423 0.75143248
-0.001229655 0.028282106 0.74948317
-0.0012170443 0.026775002 0.74774134
-0.0012056471 0.025318623 0.74616694
-0.001195215 0.023904324 0.74472594
-0.0011856611 0.022527546 0.74340624
-0.0011767846 0.02118215 0.74218011
-0.001168531 0.019865036 0.74104005
-0.0011608546 0.018573672 0.73997968
-0.001153672 0.017305106 0.73898751
-0.0011469447 0.016057223 0.73805821
-0.0011405753 0.01482752 0.73717844
-0.0011345879 0.013615072 0.73635137
-0.0011289713 0.012418687 0.73557556
-0.0011236862 0.011236876 0.73484546
-0.0011187111 0.010068387 0.73415828
-0.001114001 0.0089120269 0.73350763
-0.0011095705 0.0077669919 0.73289561
-0.0011054009 0.0066324472 0.73231959
-0.0011014788 0.0055073798 0.73177791
-0.0010977789 0.004391104 0.73126686
-0.0010943169 0.0032829642 0.73078865
-0.0010910771 0.0021821558 0.73034108
-0.0010880234 0.0010880232 0.72991925
-0.0010852086 2.9802322e-08 0.72953045
-0.0010825776 -0.0010825694 0.72916704
-0.0010801556 -0.0021602809 0.72883242
-0.001077924 -0.0032337606 0.72852421
-0.0010758846 -0.004303515 0.72824252
-0.0010740506 -0.0053702295 0.7279892
-0.0010723968 -0.0064343512 0.72776073
-0.0010709332 -0.0074965358 0.72755855
-0.001069666 -0.0085573494 0.72738349
-0.0010685936 -0.0096173584 0.72723538
-0.0010677036 -0.01067704 0.72711241
-0.0010670255 -0.011737257 0.72701877
-0.0010665548 -0.012798607 0.72695374
-0.0010662758 -0.013861597 0.72691524
-0.0010662221 -0.014927059 0.72690779
-0.0010663904 -0.01599583 0.72693104
-0.0010667882 -0.017068595 0.72698599
-0.0010674314 -0.018146306 0.72707486
-0.0010683441 -0.019230187 0.72720093
-0.0010695313 -0.020321071 0.7273649
-0.0010710104 -0.021420211 0.72756922
-0.0010728147 -0.022529095 0.72781843
-0.0010749784 -0.023649514 0.72811729
-0.0010775763 -0.024784267 0.72847617
-0.0010806344 -0.025935203 0.72889864
-0.0010841562 -0.027103871 0.72938508
-0.0010883181 -0.028296292 0.72995996
-0.0010931626 -0.029515356 0.73062921
-0.0010988902 -0.030768901 0.73142034
-0.0011056393 -0.032063514 0.73235255
-0.0011138716 -0.033416122 0.73348975
-0.0011242172 -0.034850717 0.73491883
-0.0011379307 -0.036413729 0.73681307
-0.0011592933 -0.038256675 0.73976403
0 0.039311677 0.76687694
0 0.036922604 0.76177824
0 0.034917772 0.7582677
0 0.03309831 0.75547206
0 0.031397253 0.75310695
0 0.029785007 0.75105608
0 0.028239459 0.74922729
0 0.026749283 0.74757975
0 0.025305033 0.7460779
0 0.023901522 0.74470669
0 0.022531539 0.74343497
0 0.021192521 0.74225986
0 0.019880205 0.74116313
0 0.018591911 0.74013686
0 0.017325819 0.73917806
0 0.016078949 0.73827237
0 0.014850616 0.73742408
0 0.013639003 0.73662692
0 0.01244247 0.73587382
0 0.011259913 0.73516339
0 0.01009047 0.73449671
0 0.0089330077 0.73386991
0 0.0077863634 0.73327744
0 0.0066497624 0.73271853
0 0.0055226088 0.7321977
0 0.0044038296 0.73170465
0 0.0032928288 0.73124278
0 0.0021890104 0.73081422
0 0.0010915995 0.73041081
0 -0 0.73003763
0 -0.0010863841 0.72969472
0 -0.0021681786 0.72937584
0 -0.0032459497 0.72908652
0 -0.0043203831 0.72882432
0 -0.0053918362 0.72858685
0 -0.0064611435 0.72837704
0 -0.0075287521 0.72819465
0 -0.0085953176 0.72803956
0 -0.0096612871 0.72790992
0 -0.010727555 0.72781038
0 -0.011794657 0.72773933
0 -0.01286304 0.72769505
0 -0.013933748 0.72768223
0 -0.015007466 0.72770095
0 -0.01608488 0.72775114
0 -0.017167121 0.72783661
0 -0.018254995 0.72795808
0 -0.019349813 0.7281189
0 -0.02045244 0.72832
0 -0.021564633 0.72856677
0 -0.022687912 0.72886336
0 -0.023824304 0.72921491
0 -0.024977386 0.72963607
0 -0.026147515 0.73012078
0 -0.027339846 0.73068857
0 -0.028559417 0.73135811
0 -0.029811233 0.73214275
0 -0.03110382 0.73307252
0 -0.032452404 0.73420477
0 -0.033877969 0.73561639
0 -0.035429269 0.73749685
0 -0.037236542 0.74036491
0.0013871186 0.041613579 0.77123415
0.0013377034 0.038793415 0.76440823
0.0013088674 0.036648303 0.76042503
0.0012868531 0.034745038 0.75738418
0.0012685634 0.032982677 0.75485778
0.0012527726 0.03131932 0.75267655
0.0012388442 0.029732287 0.75075257
0.0012263843 0.028206885 0.74903142
0.0012150655 0.026731461 0.74746788
0.0012047192 0.025299132 0.74603885
0.0011951862 0.023903757 0.74472195
0.0011863515 0.022540718 0.7435016
0.0011781412 0.021206558 0.74236751
0.0011704534 0.019897729 0.74130559
0.0011632702 0.018612355 0.74031335
0.0011565387 0.017348081 0.73938352
0.0011502318 0.016103268 0.73851228
0.0011442968 0.014875889 0.73769248
0.0011386888 0.013664305 0.73691785
0.0011334075 0.012467533 0.73618823
0.0011284531 0.01128453 0.73550397
0.0011237839 0.010114074 0.73485893
0.0011193722 0.0089550018 0.73424959
0.001115225 0.0078065991 0.73367673
0.0011113493 0.0066681206 0.7331413
0.0011076818 0.0055384636 0.73263472
0.0011042475 0.0044169724 0.73216033
0.0011010627 0.0033032 0.73172039
0.0010980504 0.0021961033 0.73130429
0.0010952721 0.001095295 0.73092055
0.0010927127 -0 0.73056704
0.0010903372 -0.001090318 0.73023885
0.0010881707 -0.0021763444 0.72993964
0.0010862075 -0.0032586157 0.72966844
0.0010844291 -0.0043376982 0.72942275
0.0010828497 -0.0054142177 0.72920465
0.0010814792 -0.0064888597 0.72901535
0.0010803008 -0.0075621009 0.72885251
0.0010793128 -0.0086344779 0.72871602
0.0010785534 -0.0097069442 0.72861111
0.0010779905 -0.010779887 0.72853339
0.001077635 -0.011853963 0.72848427
0.0010775061 -0.012930065 0.72846651
0.0010776037 -0.01400879 0.72847998
0.0010779279 -0.015090942 0.72852474
0.0010785104 -0.016177654 0.72860521
0.0010793714 -0.017269909 0.72872412
0.0010805088 -0.018368632 0.72888124
0.0010819397 -0.019474894 0.72907889
0.0010837059 -0.020590395 0.72932285
0.0010858306 -0.021716595 0.72961634
0.001088342 -0.022855133 0.72996324
0.0010913614 -0.024009943 0.73038036
0.0010948608 -0.0251818 0.73086375
0.0010989349 -0.0263744 0.73142648
0.0011037722 -0.027594298 0.73209471
0.001109409 -0.028844595 0.73287332
0.0011161374 -0.030135691 0.73380268
0.0011242894 -0.031480074 0.73492879
0.0011344147 -0.032898009 0.73632741
0.0011478743 -0.034436226 0.7381866
0.0011680262 -0.036208808 0.74097025
0.0027185723 0.040778577 0.7673896
0.0026513403 0.03844443 0.7627461
0.0026027516 0.036438555 0.75939023
0.0025634018 0.03460595 0.75667244
0.0025299182 0.032888979 0.7543599
0.0025005522 0.031256944 0.75233173
0.0024743078 0.029691726 0.7505191
0.0024506464 0.028182447 0.74888492
0.0024290786 0.026719868 0.74739534
0.002409331 0.025297999 0.7460314
0.0023910161 0.023910195 0.74476641
0.0023740099 0.022553116 0.7435919
0.0023581975 0.021223783 0.74249977
0.0023434155 0.019919038 0.74147886
0.0023295749 0.018636614 0.74052286
0.0023165098 0.01737383 0.73962057
0.0023042511 0.016129792 0.73877388
0.0022927134 0.014902622 0.73797703
0.0022818684 0.013691217 0.73722798
0.002271689 0.012494326 0.73652494
0.0022620903 0.011310488 0.73586202
0.0022530248 0.010138631 0.73523587
0.002244506 0.008978039 0.73464751
0.002236539 0.0078279078 0.73409724
0.0022289956 0.0066870153 0.73357624
0.002221951 0.0055549145 0.73308969
0.0022153882 0.0044308007 0.73263639
0.0022092008 0.0033138096 0.73220909
0.0022034799 0.0022034943 0.73181397
0.0021982191 0.0010991395 0.73145068
0.002193307 2.9802322e-08 0.73111135
0.0021888274 -0.0010944307 0.730802
0.0021847833 -0.0021847486 0.73052269
0.0021810899 -0.0032716095 0.73026764
0.0021778478 -0.004355669 0.73004359
0.0021749965 -0.0054374635 0.72984672
0.0021725178 -0.0065175593 0.72967559
0.0021704964 -0.0075967014 0.72953594
0.00216885 -0.0086753964 0.72942221
0.002167641 -0.0097543597 0.72933871
0.0021668749 -0.010834366 0.72928584
0.0021665196 -0.011915863 0.72926128
0.0021666302 -0.012999773 0.72926885
0.0021672302 -0.014086992 0.72931033
0.0021683283 -0.015178293 0.72938621
0.0021699499 -0.016274631 0.72949821
0.0021721611 -0.017377257 0.72965091
0.0021749807 -0.018487304 0.72984564
0.0021784618 -0.019606173 0.73008609
0.0021826909 -0.020735562 0.73037815
0.0021876679 -0.021876663 0.73072195
0.0021936062 -0.023032844 0.73113203
0.0022005939 -0.024206489 0.73161471
0.0022087165 -0.025400221 0.73217571
0.002218313 -0.026619762 0.73283845
0.0022295304 -0.027869135 0.73361313
0.0022429572 -0.029158443 0.73454052
0.0022591609 -0.030498624 0.73565966
0.0022792886 -0.031910032 0.73704982
0.0023058143 -0.033434302 0.73888183
0.0023452081 -0.035178095 0.7416026
0.0041577681 0.042963624 0.77106899
0.0040319897 0.04031989 0.76527756
0.0039506485 0.03818965 0.76153225
0.0038864743 0.036273777 0.75857741
0.0038326979 0.034494281 0.75610137
0.0037861809 0.032813609 0.75395948
0.0037448932 0.031207472 0.75205839
0.00370776 0.029662102 0.75034863
0.0036739714 0.028167129 0.74879283
0.003643157 0.02671653 0.74737406
0.0036146699 0.025302678 0.7460624
0.0035883274 0.023922205 0.74484944
0.0035637887 0.022570699 0.74371964
0.0035408619 0.021245211 0.74266398
0.0035194634 0.019943655 0.74167866
0.0034992276 0.018662572 0.74074697
0.0034803087 0.017401576 0.73987579
0.0034625472 0.016158581 0.73905802
0.0034458174 0.014931887 0.73828775
0.0034300531 0.013720214 0.73756182
0.0034151901 0.012522399 0.7368775
0.0034012592 0.011337578 0.73623598
0.003388162 0.010164529 0.73563296
0.003375829 0.0090022385 0.7350651
0.0033642072 0.0078498125 0.73453003
0.0033533708 0.0067067444 0.73403108
0.0033432178 0.005572021 0.73356354
0.0033336738 0.0044448972 0.73312414
0.0033248907 0.0033249259 0.73271972
0.0033167328 0.0022111535 0.73234409
0.0033091549 0.0011030436 0.73199517
0.0033022715 2.9802322e-08 0.73167825
0.0032959522 -0.0010986328 0.73138726
0.0032902879 -0.0021935105 0.73112643
0.0032852357 -0.0032852292 0.73089379
0.0032807661 -0.0043743253 0.73068798
0.0032769463 -0.0054615438 0.73051214
0.0032737355 -0.006547451 0.73036432
0.0032711192 -0.0076326132 0.73024386
0.0032691895 -0.0087178051 0.73015499
0.0032679201 -0.0098037422 0.73009652
0.0032672619 -0.010890841 0.73006624
0.0032673217 -0.011980176 0.73006892
0.0032681117 -0.013072431 0.7301054
0.0032696447 -0.014168411 0.73017597
0.0032719709 -0.01526919 0.73028308
0.0032751537 -0.01637578 0.73042965
0.0032792829 -0.017489493 0.73061973
0.0032844497 -0.018611848 0.73085761
0.0032907368 -0.019744426 0.73114711
0.0032981453 -0.020888209 0.73148823
0.0033069225 -0.022046149 0.73189241
0.003317337 -0.023221314 0.73237193
0.0033295313 -0.024416506 0.73293334
0.0033437565 -0.025635451 0.73358834
0.0033606086 -0.026884854 0.73436427
0.003380626 -0.028171867 0.735286
0.0034047638 -0.029507935 0.73639739
0.003434767 -0.030912876 0.7377789
0.0034739666 -0.032423675 0.73958379
0.003531975 -0.034142405 0.74225473
0.005720159 0.045761287 0.77716297
0.0054579247 0.042298943 0.76810718
0.0053335885 0.040001929 0.76381344
0.0052400124 0.037990093 0.76058197
0.0051629166 0.036140412 0.75791967
0.0050970172 0.034404874 0.7556439
0.0050388966 0.032752842 0.75363684
0.0049871411 0.031169623 0.75184953
0.0049402309 0.02964139 0.75022948
0.0048974184 0.028160185 0.74875104
0.0048580188 0.026719093 0.74739051
0.0048215524 0.025313199 0.74613118
0.0047876909 0.023938447 0.74496186
0.0047560311 0.022591144 0.74386853
0.0047265142 0.021269292 0.74284923
0.0046988274 0.019970059 0.74189305
0.0046728761 0.01869154 0.7409969
0.0046485532 0.017432094 0.74015689
0.0046255435 0.016189456 0.73936236
0.0046039186 0.014962763 0.73861563
0.004583607 0.013750851 0.73791414
0.0045645419 0.01255253 0.73725581
0.0045465035 0.011366278 0.73663288
0.0045295381 0.01019147 0.73604703
0.004513761 0.0090275407 0.73550212
0.0044988412 0.0078729987 0.73498696
0.0044848491 0.006727308 0.73450375
0.0044719339 0.0055899024 0.73405772
0.004459796 0.0044597983 0.73363858
0.0044485386 0.0033364296 0.73324984
0.0044382485 0.0022191703 0.73289448
0.0044287145 0.0011071861 0.73256522
0.0044200593 5.9604645e-08 0.73226631
0.0044122883 -0.0011030734 0.73199797
0.0044052624 -0.0022026002 0.73175538
0.0043990882 -0.0032992959 0.73154211
0.0043937587 -0.0043937564 0.73135811
0.0043892683 -0.0054865777 0.73120308
0.0043855952 -0.006578356 0.73107612
0.0043828157 -0.0076698959 0.73098022
0.0043809596 -0.0087619126 0.73091608
0.0043799113 -0.0098547637 0.7308799
0.0043798466 -0.010949612 0.7308777
0.0043807658 -0.012047082 0.73090947
0.0043826709 -0.01314798 0.73097515
0.0043856432 -0.014253289 0.73107779
0.0043897866 -0.015364259 0.73122096
0.0043951548 -0.016481817 0.73140633
0.0044018882 -0.01760754 0.73163885
0.0044101453 -0.018743128 0.731924
0.0044199605 -0.019889802 0.73226291
0.0044315858 -0.021050036 0.73266435
0.0044452972 -0.022226453 0.73313785
0.004461519 -0.023422956 0.73369807
0.0044803219 -0.024641752 0.7343474
0.0045027751 -0.025890946 0.7351228
0.0045292797 -0.027175665 0.73603809
0.0045612692 -0.028507918 0.7371428
0.0046010162 -0.029906601 0.73851538
0.0046526985 -0.031405687 0.74030018
0.0047283177 -0.033098191 0.74291146
0.0069421008 0.044429451 0.77141392
0.0067561022 0.04188785 0.76627541
0.0066260179 0.039756119 0.76268166
0.0065224054 0.037829965 0.75981915
0.0064344327 0.036032856 0.75738877
0.0063580316 0.034333408 0.75527811
0.0062896688 0.03270629 0.75338948
0.0062282868 0.03114146 0.75169373
0.0061724945 0.029628009 0.75015229
0.0061214454 0.028158695 0.74874204
0.0060741603 0.026726305 0.74743569
0.0060303626 0.025327563 0.74622577
0.0059896032 0.023958415 0.74509972
0.0059515587 0.022615939 0.74404866
0.0059160171 0.021297693 0.74306673
0.0058824797 0.020000428 0.74214017
0.0058510695 0.018723428 0.74127245
0.0058214744 0.017464429 0.74045491
0.0057936665 0.016222298 0.73968661
0.0057676216 0.014995843 0.73896712
0.0057430738 0.013783425 0.73828888
0.0057198997 0.012583792 0.73764873
0.0056981561 0.011396348 0.73704803
0.0056778565 0.01022014 0.73648721
0.005658648 0.0090538561 0.73595649
0.0056407242 0.0078970492 0.73546135
0.0056241262 0.0067489445 0.73500282
0.0056084502 0.0056084991 0.73456979
0.0055939974 0.0044752061 0.73417044
0.0055807498 0.0033484697 0.73380446
0.0055684615 0.0022273958 0.73346496
0.0055572861 0.0011114776 0.73315626
0.0055472311 -0 0.73287851
0.0055381199 -0.0011076033 0.73262674
0.0055301082 -0.0022120476 0.73240542
0.0055231862 -0.0033138692 0.73221415
0.0055173044 -0.0044138134 0.73205167
0.0055124164 -0.0055124164 0.73191667
0.0055087199 -0.0066104531 0.73181456
0.0055061905 -0.0077086389 0.73174465
0.0055046417 -0.0088074207 0.73170179
0.0055043767 -0.0099078417 0.73169452
0.0055053551 -0.011010677 0.73172158
0.0055075567 -0.012116611 0.73178238
0.0055111293 -0.013226688 0.73188114
0.0055161789 -0.01434207 0.73202062
0.0055227345 -0.01546365 0.7322017
0.0055309311 -0.016592771 0.73242813
0.0055410918 -0.017731488 0.73270887
0.0055532595 -0.018881083 0.73304498
0.0055677523 -0.02004391 0.73344541
0.0055847322 -0.021221966 0.73391443
0.0056048562 -0.022419453 0.73447049
0.0056283623 -0.023639113 0.73511988
0.0056561725 -0.024887145 0.73588812
0.0056890869 -0.026169777 0.73679745
0.0057288464 -0.027498454 0.73789585
0.0057781553 -0.028890759 0.73925811
0.0058423798 -0.030380368 0.74103248
0.0059344093 -0.032045782 0.74357486
0.00615772 -0.034483194 0.74974418
0.0085156653 0.046836197 0.77567637
0.0082248114 0.043865681 0.76898032
0.0080484124 0.041583478 0.76491916
0.0079127885 0.039563984 0.76179683
0.007800336 0.037701637 0.7592079
0.0077027869 0.035946339 0.75696218
0.0076169688 0.034276366 0.75498641
0.007539853 0.032672703 0.75321108
0.0074698138 0.031124234 0.75159866
0.0074060098 0.029624075 0.7501297
0.0073471563 0.028164119 0.74877477
0.0072927759 0.026740223 0.74752283
0.0072421916 0.02534768 0.74635822
0.007195001 0.02398333 0.74527186
0.0071509718 0.022644758 0.74425817
0.0071093747 0.021328151 0.74330056
0.0070704436 0.020032942 0.74240422
0.0070340158 0.018757403 0.74156559
0.0069997725 0.017499447 0.74077725
0.0069675478 0.016257614 0.74003536
0.0069372095 0.015030622 0.73933691
0.0069086314 0.01381731 0.73867899
