# .PCD v0.7 - Point Cloud Data file format
VERSION 0.7
FIELDS x y z
SIZE 4 4 4
TYPE F F F
COUNT 1 1 1
WIDTH 1341
HEIGHT 1
VIEWPOINT 0 0 0 1 0 0 0
POINTS 1341
DATA ascii
0.0045126653 0.022563368 0.73546433
0.0045126653 0.021435201 0.73546433
0.0045126653 0.020306975 0.73546433
0.0045126653 0.019178838 0.73546427
0.0045126653 0.018050671 0.73546433
0.0045126653 0.016922504 0.73546433
0.0045126476 0.015794247 0.73546374
0.0045126476 0.01466611 0.73546374
0.0045126476 0.013537943 0.73546374
0.0045126476 0.012409776 0.73546374
0.0045126476 0.011281639 0.73546374
0.0045126476 0.010153472 0.73546368
0.0045126476 0.0090253055 0.73546374
0.0045126476 0.0078971386 0.73546374
0.0045126476 0.0067690313 0.73546374
0.0045126476 0.0056408644 0.73546374
0.0045126476 0.0045126677 0.73546374
0.0045126476 0.0033845007 0.73546374
0.0045126476 0.0022563636 0.73546368
0.0045126476 0.0011281669 0.73546368
0.0045126309 5.9604645e-08 0.73546308
0.0045126309 -0.0011281073 0.73546314
0.0045126309 -0.002256304 0.73546314
0.0045126309 -0.0033844411 0.73546314
0.0045126309 -0.0045126379 0.73546314
0.0045126309 -0.005640775 0.73546314
0.0045126309 -0.0067689121 0.73546314
0.0045126309 -0.007897079 0.73546314
0.0045126309 -0.0090252459 0.73546314
0.0045126309 -0.010153413 0.73546314
0.0045126309 -0.01128155 0.73546314
0.0045126309 -0.012409717 0.73546314
0.0045126309 -0.013537884 0.73546314
0.0045126136 -0.014665961 0.73546255
0.0045126136 -0.015794128 0.73546255
0.0045126136 -0.016922265 0.73546255
0.0045126136 -0.018050432 0.73546255
0.0045126136 -0.019178569 0.73546255
0.0045126136 -0.020306736 0.73546255
0.0045126136 -0.021434903 0.73546255
0.0045126136 -0.02256304 0.73546255
0.0045126136 -0.023691237 0.73546255
0.0045126136 -0.024819374 0.73546255
0.0045126136 -0.025947511 0.73546255
0.0045126136 -0.027075678 0.73546255
0.0045126136 -0.028203815 0.73546255
0.0045126136 -0.029331982 0.73546249
0.0045126136 -0.030460149 0.73546255
0.0045126136 -0.031588256 0.73546249
0.0045126136 -0.032716423 0.73546255
0.0045126136 -0.03384459 0.73546255
0.0045126309 -0.034972876 0.73546314
0.0045126309 -0.036101043 0.73546314
0.0045126309 -0.03722921 0.73546314
0.0045126309 -0.038357317 0.73546314
0.0045126309 -0.039485484 0.73546314
0.0045126309 -0.040613681 0.73546314
0.0045126309 -0.041741818 0.73546314
0.0045126309 -0.042869985 0.73546314
0.0045126309 -0.043998152 0.73546314
0.0045126309 -0.045126289 0.73546314
0.0045126309 -0.046254456 0.73546314
0.0045126309 -0.047382623 0.73546314
0.0045126476 -0.048510909 0.73546368
0.0045126476 -0.049639136 0.73546368
0.0045137098 -0.050779194 0.73550034
0.0045260917 -0.052050054 0.735928
0.0045800246 -0.053815246 0.73779047
0.004653445 -0.055841327 0.74032593
0.0047297841 -0.057939827 0.74296212
0.0047648703 -0.059560865 0.74417377
0.0058737891 0.06108743 0.74190015
0.0058739516 0.059914351 0.74190462
0.0058830385 0.05883041 0.74215561
0.0058783405 0.05760777 0.74202585
0.0058738124 0.056388617 0.7419008
0.0058618644 0.055101514 0.74157071
0.005828137 0.053618908 0.74063891
0.0057952246 0.052157015 0.73972964
0.0057649156 0.050731272 0.73889238
0.0057364712 0.049333662 0.73810655
0.0057098623 0.047962844 0.73737144
0.0056854547 0.046620756 0.73669708
0.0056622033 0.045297623 0.73605472
0.0056488886 0.044061333 0.73568696
0.0056479443 0.042924374 0.73566079
0.0056479443 0.041794837 0.73566079
0.0056479443 0.040665239 0.73566079
0.0056479443 0.039535642 0.73566079
0.0056479443 0.038406014 0.73566079
0.0056479443 0.037276477 0.73566079
0.0056479443 0.036146879 0.73566079
0.0056479443 0.035017282 0.73566079
0.0056479443 0.033887714 0.73566079
0.0056479443 0.032758117 0.73566085
0.0056479443 0.031628519 0.73566079
0.0056479443 0.030498922 0.73566079
0.0056479662 0.029369444 0.73566139
0.0056479662 0.028239876 0.73566139
0.0056479662 0.027110249 0.73566139
0.0056479662 0.025980681 0.73566139
0.0056479662 0.024851054 0.73566145
0.0056479662 0.023721486 0.73566139
0.0056479662 0.022591889 0.73566139
0.0056479662 0.021462262 0.73566145
0.0056479662 0.020332664 0.73566139
0.0056479662 0.019203126 0.73566139
0.0056479662 0.018073529 0.73566139
0.0056479876 0.016943961 0.73566198
0.0056479876 0.015814394 0.73566198
0.0056479876 0.014684767 0.73566204
0.0056479876 0.013555199 0.73566204
0.0056479876 0.012425601 0.73566204
0.0056479876 0.011295974 0.73566204
0.0056479876 0.010166377 0.73566198
0.0056479876 0.0090368092 0.73566204
0.0056479876 0.0079072118 0.73566204
0.0056479876 0.0067776144 0.73566198
0.0056479876 0.0056479871 0.73566204
0.0056479876 0.0045184195 0.73566204
0.005648009 0.0033888221 0.73566258
0.005648009 0.0022592247 0.73566258
0.005648009 0.0011296272 0.73566258
0.005648009 2.9802322e-08 0.73566258
0.005648009 -0.0011296272 0.73566258
0.005648009 -0.002259165 0.73566258
0.005648009 -0.0033888221 0.73566258
0.005648009 -0.0045183897 0.73566258
0.005648009 -0.0056479573 0.73566258
0.005648009 -0.0067775846 0.73566264
0.005648009 -0.0079072118 0.73566264
0.005648009 -0.0090368092 0.73566264
0.0056480304 -0.010166436 0.73566324
0.0056480304 -0.011296034 0.73566318
0.0056480304 -0.012425631 0.73566324
0.0056480304 -0.013555259 0.73566318
0.0056480304 -0.014684886 0.73566318
0.0056480304 -0.015814453 0.73566318
0.0056480304 -0.016944081 0.73566318
0.0056480304 -0.018073678 0.73566318
0.0056480304 -0.019203305 0.73566318
0.0056480304 -0.020332903 0.73566318
0.0056480304 -0.0214625 0.73566318
0.0056480304 -0.022592098 0.73566318
0.0056480519 -0.023721814 0.73566383
0.0056480519 -0.024851412 0.73566383
0.0056480519 -0.025981039 0.73566383
0.0056480519 -0.027110606 0.73566377
0.0056480733 -0.028240353 0.73566437
0.0056480733 -0.02936995 0.73566437
0.0056480733 -0.030499548 0.73566437
0.0056480733 -0.031629205 0.73566437
0.0056480733 -0.032758832 0.73566443
0.0056480733 -0.0338884 0.73566437
0.0056480733 -0.035018027 0.73566437
0.0056480733 -0.036147654 0.73566437
0.0056480733 -0.037277281 0.73566443
0.0056480733 -0.038406849 0.73566437
0.0056480733 -0.039536506 0.73566443
0.0056480733 -0.040666103 0.73566437
0.0056480733 -0.041795731 0.73566443
0.0056480733 -0.042925328 0.73566437
0.0056480733 -0.044054955 0.73566443
0.0056480733 -0.045184553 0.73566437
0.0056480733 -0.04631418 0.73566437
0.0056480733 -0.047443807 0.73566437
0.0056480733 -0.048573405 0.73566437
0.0056480733 -0.049703032 0.73566437
0.0056504128 -0.050853699 0.73572898
0.005668052 -0.052146047 0.73621637
0.0057391059 -0.053947568 0.73817933
0.0058330065 -0.055996835 0.74077344
0.0059304573 -0.058118433 0.74346572
0.0059693339 -0.059693307 0.74453968
0.0070646489 0.061226934 0.74227089
0.0070622447 0.060029089 0.74221545
0.007073835 0.058948636 0.7424823
0.0070683151 0.057724595 0.74235523
0.007063251 0.056506008 0.74223864
0.0070504686 0.05522871 0.74194437
0.0070106909 0.053748637 0.74102855
0.0069698067 0.052273571 0.74008739
0.0069326279 0.050839305 0.73923141
0.006897442 0.049431711 0.73842144
0.0068652267 0.048056602 0.73767972
0.0068354299 0.046708792 0.73699379
0.0068070856 0.045380592 0.73634118
0.0067890859 0.044129074 0.73592675
0.0067879753 0.042990565 0.73590118
0.0067879753 0.04185918 0.73590124
0.0067879753 0.040727854 0.73590124
0.0067879753 0.039596528 0.73590118
0.0067879753 0.038465232 0.73590124
0.0067879753 0.037333846 0.73590124
0.0067879753 0.03620258 0.73590118
0.0067879753 0.035071224 0.73590124
0.0067879753 0.033939898 0.73590124
0.0067879753 0.032808572 0.73590118
0.0067879753 0.031677246 0.73590124
0.0067879753 0.03054592 0.73590124
0.0067879492 0.029414445 0.73590064
0.0067879492 0.028283149 0.73590058
0.0067879492 0.027151823 0.73590064
0.0067879492 0.026020497 0.73590064
0.0067879492 0.024889171 0.73590064
0.0067879492 0.023757815 0.73590064
0.0067879492 0.022626519 0.73590064
0.0067879753 0.021495283 0.73590118
0.0067879753 0.020363927 0.73590124
0.0067879753 0.019232601 0.73590124
0.0067879753 0.018101275 0.73590118
0.0067879753 0.016969949 0.73590124
0.0067880014 0.015838683 0.73590183
0.0067880014 0.014707327 0.73590177
0.0067880014 0.013576061 0.73590177
0.0067880014 0.012444675 0.73590183
0.0067880014 0.011313349 0.73590177
0.0067880014 0.010182023 0.73590183
0.0067880014 0.0090506971 0.73590183
0.006788027 0.0079194009 0.73590237
0.006788027 0.006788075 0.73590243
0.006788027 0.0056566894 0.73590243
0.006788027 0.0045253634 0.73590243
0.006788027 0.0033940375 0.73590243
0.006788027 0.0022627115 0.73590243
0.0067880526 0.001131326 0.73590302
0.0067880526 2.9802322e-08 0.73590302
0.0067880526 -0.001131326 0.73590297
0.0067880526 -0.0022626817 0.73590302
0.0067880526 -0.0033940077 0.73590297
0.0067880526 -0.0045253336 0.73590302
0.0067880526 -0.0056566894 0.73590297
0.0067880787 -0.006788075 0.73590362
0.0067880787 -0.0079193711 0.73590356
0.0067880787 -0.0090507269 0.73590362
0.0067880787 -0.010182112 0.73590362
0.0067880787 -0.011313438 0.73590362
0.0067880787 -0.012444824 0.73590362
0.0067881043 -0.013576239 0.73590422
0.0067881043 -0.014707536 0.73590422
0.0067881043 -0.015838891 0.73590422
0.0067881043 -0.016970217 0.73590422
0.0067881043 -0.018101603 0.73590422
0.0067881043 -0.019232929 0.73590422
0.0067881043 -0.020364314 0.73590416
0.0067881304 -0.02149573 0.73590475
0.0067881304 -0.022627085 0.73590481
0.0067881304 -0.023758411 0.73590475
0.0067881304 -0.024889767 0.73590481
0.0067881304 -0.026021153 0.73590475
0.0067881304 -0.027152508 0.73590481
0.006788156 -0.028283983 0.73590541
0.006788156 -0.029415309 0.73590541
0.006788156 -0.030546665 0.73590535
0.006788156 -0.031678051 0.73590535
0.006788156 -0.032809407 0.73590541
0.006788156 -0.033940762 0.73590535
0.006788156 -0.035072118 0.73590541
0.0067881821 -0.036203623 0.735906
0.0067881821 -0.037334949 0.73590595
0.0067881821 -0.038466364 0.73590595
0.0067881821 -0.03959766 0.73590595
0.0067881821 -0.040729105 0.735906
0.0067881821 -0.041860402 0.735906
0.0067882077 -0.042991996 0.7359066
0.0067882077 -0.044123322 0.73590654
0.0067882077 -0.045254707 0.73590654
0.0067882077 -0.046386063 0.7359066
0.0067882077 -0.047517449 0.7359066
0.0067882077 -0.048648775 0.73590654
0.0067882077 -0.04978019 0.7359066
0.0067910496 -0.050932854 0.73597199
0.0068145203 -0.052244633 0.73651236
0.0069078295 -0.054111302 0.73866045
0.0070238262 -0.05619058 0.74133098
0.0071399552 -0.058309585 0.74400449
0.0071850349 -0.05987528 0.74504244
0.008268903 0.061426133 0.74279994
0.0082598478 0.060178876 0.74262124
0.0082703149 0.059073687 0.74282777
0.0082676886 0.057873815 0.74277592
0.0082609951 0.056646854 0.74264389
0.0082482304 0.055381 0.742392
0.0082028909 0.053904742 0.74149734
0.0081530968 0.052412748 0.74051476
0.0081085432 0.050967962 0.73963547
0.0080666598 0.049552351 0.73880899
0.0080284271 0.048170596 0.73805451
0.0079925787 0.046813667 0.73734713
0.007958754 0.045478582 0.73667967
0.007935999 0.044214875 0.73623067
0.0079338215 0.043069303 0.7361877
0.0079338215 0.041935921 0.7361877
0.0079338215 0.040802538 0.73618764
0.0079338215 0.039669156 0.73618764
0.0079338215 0.038535714 0.73618764
0.0079338513 0.037402481 0.73618829
0.0079338513 0.036269039 0.73618829
0.0079338513 0.035135657 0.73618829
0.0079338513 0.034002215 0.73618829
0.0079338513 0.032868832 0.73618829
0.0079338513 0.03173542 0.73618829
0.0079338513 0.030602008 0.73618829
0.0079338513 0.029468596 0.73618829
0.0079338513 0.028335184 0.73618829
0.0079338513 0.027201772 0.73618829
0.0079338513 0.026068389 0.73618829
0.0079338513 0.024934947 0.73618829
0.0079338821 0.023801684 0.73618889
0.0079338821 0.022668242 0.73618883
0.0079338821 0.02153486 0.73618883
0.0079338821 0.020401418 0.73618889
0.0079338821 0.019268036 0.73618883
0.0079338821 0.018134594 0.73618889
0.0079338821 0.017001212 0.73618883
0.0079338821 0.01586777 0.73618889
0.0079338821 0.014734387 0.73618889
0.0079338821 0.013600916 0.73618889
0.0079338821 0.012467593 0.73618883
0.0079339128 0.011334181 0.73618948
0.0079339128 0.010200739 0.73618948
0.0079339128 0.0090673566 0.73618948
0.0079339128 0.0079339445 0.73618948
0.0079339128 0.0068005025 0.73618948
0.0079339128 0.0056671202 0.73618942
0.0079339128 0.0045336783 0.73618942
0.0079339128 0.0034002662 0.73618948
0.0079339128 0.002266854 0.73618942
0.0079339128 0.0011334121 0.73618948
0.0079339426 -0 0.73619008
0.0079339426 -0.0011334121 0.73619008
0.0079339426 -0.0022668242 0.73619014
0.0079339426 -0.0034002662 0.73619008
0.0079339426 -0.0045336783 0.73619014
0.0079339426 -0.0056670606 0.73619008
0.0079339426 -0.0068005323 0.73619008
0.0079339426 -0.0079339445 0.73619008
0.0079339733 -0.0090673864 0.73619068
0.0079339733 -0.010200799 0.73619068
0.0079339733 -0.01133424 0.73619068
0.0079339733 -0.012467653 0.73619068
0.0079339733 -0.013601065 0.73619074
0.0079339733 -0.014734536 0.73619068
0.0079339733 -0.015867949 0.73619068
0.0079339733 -0.017001361 0.73619068
0.0079340031 -0.018134862 0.73619127
0.0079340031 -0.019268245 0.73619127
0.0079340031 -0.020401716 0.73619127
0.0079340031 -0.021535128 0.73619127
0.0079340031 -0.02266857 0.73619127
0.0079340031 -0.023801982 0.73619127
0.0079340031 -0.024935424 0.73619127
0.0079340031 -0.026068866 0.73619133
0.0079340329 -0.027202398 0.73619187
0.0079340329 -0.02833578 0.73619187
0.0079340329 -0.029469222 0.73619187
0.0079340329 -0.030602664 0.73619187
0.0079340329 -0.031736135 0.73619187
0.0079340329 -0.032869518 0.73619187
0.0079340329 -0.03400299 0.73619193
0.0079340329 -0.035136431 0.73619187
0.0079340627 -0.036269993 0.73619246
0.0079340627 -0.037403435 0.73619246
0.0079340627 -0.038536847 0.73619246
0.0079340627 -0.039670318 0.73619252
0.0079340627 -0.04080373 0.73619246
0.0079340627 -0.041937172 0.73619246
0.0079340627 -0.043070614 0.73619246
0.0079340935 -0.044204205 0.73619306
0.0079340935 -0.045337677 0.73619306
0.0079340935 -0.046471089 0.73619306
0.0079340935 -0.047604561 0.73619306
0.0079340935 -0.048738003 0.73619306
0.0079340935 -0.049871445 0.73619306
0.0079380563 -0.051030338 0.73627126
0.0079701804 -0.052375436 0.73690516
0.0080887573 -0.054310203 0.73924506
0.0082289288 -0.056426913 0.74201107
0.0083598867 -0.058519155 0.74459529
0.0084114317 -0.060081631 0.7456125
0.0094652884 0.060341239 0.74306095
0.0094650248 0.059156418 0.74305636
0.0094753914 0.058036774 0.74323529
0.009468453 0.056810766 0.74311554
0.0094568608 0.055559069 0.74291539
0.0094067203 0.054088652 0.74204963
0.009347735 0.052581012 0.74103117
0.0092948908 0.05112192 0.74011868
0.0092454432 0.04969427 0.73926497
0.0092004659 0.048302472 0.73848826
0.0091580739 0.046935171 0.73775637
0.0091184471 0.045592278 0.73707217
0.0090900194 0.044313848 0.73658133
0.0090862354 0.043159604 0.736516
0.0090862354 0.042023867 0.736516
0.0090862354 0.040888071 0.73651594
0.0090862699 0.039752454 0.73651654
0.0090862699 0.038616657 0.73651654
0.0090862699 0.037480861 0.73651659
0.0090862699 0.036345065 0.73651659
0.0090862699 0.035209298 0.73651654
0.0090862699 0.034073532 0.73651659
0.0090862699 0.032937735 0.73651659
0.0090862699 0.031801939 0.73651659
0.0090862699 0.030666202 0.73651654
0.0090862699 0.029530406 0.73651654
0.0090862699 0.028394639 0.73651648
0.0090862699 0.027258843 0.73651654
0.0090862699 0.026123077 0.73651654
0.0090862699 0.024987251 0.73651654
0.0090862699 0.023851484 0.73651654
0.0090862699 0.022715718 0.73651659
0.0090862699 0.021579921 0.73651654
0.0090862699 0.020444125 0.73651654
0.0090862699 0.019308329 0.73651654
0.0090862699 0.018172562 0.73651654
0.0090862699 0.017036766 0.73651659
0.0090862699 0.015900999 0.73651654
0.0090862699 0.014765203 0.73651654
0.0090863043 0.013629466 0.73651713
0.0090863043 0.0124937 0.73651719
0.0090863043 0.011357874 0.73651719
0.0090863043 0.010222107 0.73651713
0.0090863388 0.0090863705 0.73651773
0.0090863388 0.0079505742 0.73651773
0.0090863388 0.0068147779 0.73651779
0.0090863388 0.0056789815 0.73651767
0.0090863388 0.0045431852 0.73651773
0.0090863742 0.0034073889 0.73651838
0.0090863742 0.0022716224 0.73651838
0.0090863742 0.0011357963 0.73651832
0.0090863742 2.9802322e-08 0.73651832
0.0090863742 -0.0011357963 0.73651832
0.0090864096 -0.0022715926 0.73651898
0.0090864096 -0.0034073889 0.73651892
0.0090864096 -0.0045431852 0.73651892
0.0090864096 -0.0056789815 0.73651892
0.0090864096 -0.0068147779 0.73651892
0.009086444 -0.0079506338 0.73651952
0.009086444 -0.0090864301 0.73651952
0.009086444 -0.010222197 0.73651952
0.009086444 -0.011358023 0.73651952
0.0090864785 -0.012493908 0.73652017
0.0090864785 -0.013629705 0.73652017
0.0090864785 -0.014765501 0.73652017
0.0090864785 -0.015901297 0.73652017
0.0090864785 -0.017037123 0.73652011
0.0090865139 -0.018173009 0.73652077
0.0090865139 -0.019308835 0.73652071
0.0090865139 -0.020444632 0.73652071
0.0090865139 -0.021580458 0.73652071
0.0090865139 -0.022716284 0.73652077
0.0090865484 -0.02385214 0.7365213
0.0090865484 -0.024987966 0.7365213
0.0090865484 -0.026123792 0.73652136
0.0090865484 -0.027259648 0.73652136
0.0090865828 -0.028395563 0.73652196
0.0090865828 -0.029531389 0.73652196
0.0090865828 -0.030667216 0.73652196
0.0090865828 -0.031803042 0.73652196
0.0090865828 -0.032938838 0.73652196
0.0090866173 -0.034074783 0.7365225
0.0090866173 -0.035210609 0.7365225
0.0090866173 -0.036346465 0.73652256
0.0090866173 -0.037482291 0.73652256
0.0090866173 -0.038618147 0.73652256
0.0090866517 -0.039754122 0.73652315
0.0090866517 -0.040889919 0.73652315
0.0090866517 -0.042025745 0.73652309
0.0090866517 -0.043161571 0.73652315
0.0090866871 -0.044297576 0.73652369
0.0090866871 -0.045433432 0.73652375
0.0090866871 -0.046569258 0.73652375
0.0090866871 -0.047705054 0.73652375
0.0090866871 -0.04884094 0.73652375
0.0090867216 -0.049976975 0.73652434
0.0090925209 -0.051145434 0.73662448
0.0091367615 -0.052536339 0.73738831
0.0092848064 -0.054548234 0.73994458
0.0094528403 -0.056717008 0.74284595
0.0095936833 -0.058761269 0.74527782
0.0096582156 -0.060363829 0.74639207
0.010682705 0.060535312 0.74358666
0.010684154 0.059356451 0.74360895
0.010697263 0.058240682 0.74381006
0.010688463 0.057005197 0.74367499
0.010677548 0.055760562 0.7435075
0.010625032 0.054305762 0.74270147
0.010555767 0.05277884 0.74163842
0.010493648 0.051302284 0.74068499
0.01043543 0.049858183 0.73979145
0.010383209 0.04845503 0.73898995
0.010333422 0.047074497 0.73822582
0.010288063 0.04572475 0.73752964
0.010251652 0.044423848 0.7369709
0.010246669 0.043263704 0.73689431
0.010246669 0.042125225 0.73689437
0.010246669 0.040986687 0.73689437
0.010246669 0.039848179 0.73689431
0.010246708 0.038709819 0.73689491
0.010246708 0.037571281 0.73689485
0.010246708 0.036432743 0.73689497
0.010246708 0.035294235 0.73689497
0.010246708 0.034155697 0.73689497
0.010246747 0.033017337 0.7368955
0.010246747 0.031878769 0.73689556
0.010246747 0.030740261 0.73689556
0.010246747 0.029601723 0.73689556
0.010246786 0.028463304 0.73689616
0.010246786 0.027324796 0.73689616
0.010246786 0.026186258 0.7368961
0.010246786 0.025047749 0.7368961
0.010246786 0.023909181 0.73689616
0.010246825 0.022770733 0.73689675
0.010246825 0.021632195 0.73689675
0.010246825 0.020493656 0.73689675
0.010246825 0.019355148 0.73689669
0.010246825 0.01821661 0.73689675
0.010246865 0.017078131 0.73689735
0.010246865 0.015939593 0.73689735
0.010246865 0.014801055 0.73689735
0.010246865 0.013662487 0.73689735
0.010246865 0.012523949 0.73689735
0.010246904 0.011385471 0.73689795
0.010246904 0.010246933 0.73689795
0.010246904 0.0091083646 0.73689795
0.010246904 0.0079698563 0.73689795
0.010246904 0.0068312883 0.73689795
0.010246944 0.0056927502 0.73689854
0.010246944 0.0045542121 0.73689854
0.010246944 0.003415674 0.73689854
0.010246944 0.0022771358 0.73689854
0.010246944 0.0011385381 0.7368986
0.010246983 2.9802322e-08 0.73689914
0.010246983 -0.0011385381 0.73689914
0.010246983 -0.0022771358 0.7368992
0.010246983 -0.0034156144 0.73689914
0.010247022 -0.0045542121 0.73689973
0.010247022 -0.0056927502 0.73689973
0.010247022 -0.0068313181 0.73689973
0.010247022 -0.0079698861 0.73689973
0.010247022 -0.0091084242 0.73689973
0.010247061 -0.010247052 0.73690033
0.010247061 -0.01138559 0.73690033
0.010247061 -0.012524188 0.73690033
0.010247061 -0.013662755 0.73690039
0.010247061 -0.014801294 0.73690033
0.0102471 -0.015939891 0.73690093
0.0102471 -0.017078489 0.73690093
0.0102471 -0.018217027 0.73690093
0.0102471 -0.019355625 0.73690093
0.0102471 -0.020494193 0.73690104
0.010247139 -0.02163282 0.73690152
0.010247139 -0.022771418 0.73690158
0.010247139 -0.023909956 0.73690152
0.010247139 -0.025048554 0.73690158
0.010247139 -0.026187122 0.73690158
0.010247178 -0.027325839 0.73690218
0.010247178 -0.028464347 0.73690212
0.010247178 -0.029602945 0.73690218
0.010247178 -0.030741513 0.73690212
0.010247178 -0.031880081 0.73690212
0.010247217 -0.033018798 0.73690271
0.010247217 -0.034157366 0.73690277
0.010247217 -0.035295933 0.73690271
0.010247217 -0.036434531 0.73690271
0.010247257 -0.037573248 0.73690331
0.010247257 -0.038711846 0.73690331
0.010247257 -0.039850444 0.73690337
0.010247257 -0.040988982 0.73690337
0.010247257 -0.042127579 0.73690337
0.010247297 -0.043266356 0.73690397
0.010247297 -0.044404894 0.73690397
0.010247297 -0.045543492 0.73690397
0.010247297 -0.046682119 0.73690397
0.010247297 -0.047820687 0.73690391
0.010247336 -0.048959464 0.73690456
0.010247336 -0.050098062 0.73690456
0.010257231 -0.051286131 0.73705649
0.010319 -0.052741557 0.73800451
0.0104997 -0.054831743 0.74077785
0.010699615 -0.057064593 0.74384618
0.010843966 -0.059039354 0.74606168
0.011914084 0.060761839 0.74420011
0.011913178 0.059565932 0.74418759
0.011930574 0.058459848 0.74442792
0.011921343 0.057222456 0.74430043
0.011911317 0.055983186 0.7441619
0.01186082 0.054559797 0.74346435
0.011780012 0.053010046 0.74234819
0.011707068 0.051511139 0.74134058
0.011638939 0.050047457 0.74039948
0.011578581 0.048630059 0.73956573
0.011520675 0.047234774 0.73876584
0.011469137 0.045876592 0.73805398
0.01142512 0.044558018 0.73744595
0.011416567 0.043382972 0.73732781
0.011416567 0.042241335 0.73732781
0.011416567 0.041099668 0.73732781
0.011416567 0.039958 0.73732781
0.011416567 0.038816333 0.73732781
0.011416611 0.037674844 0.73732847
0.011416611 0.036533207 0.73732841
0.011416611 0.03539148 0.73732841
0.011416611 0.034249842 0.73732841
0.011416611 0.033108205 0.73732841
0.011416611 0.031966567 0.73732835
0.011416611 0.03082487 0.73732835
0.011416611 0.029683203 0.73732841
0.011416611 0.028541535 0.73732841
0.011416655 0.027400017 0.73732901
0.011416655 0.02625832 0.73732901
0.011416655 0.025116652 0.73732901
0.011416655 0.023974985 0.73732901
0.011416655 0.022833347 0.73732907
0.011416655 0.02169168 0.73732901
0.011416655 0.020549983 0.73732901
0.011416655 0.019408345 0.73732901
0.011416655 0.018266678 0.73732901
0.011416655 0.01712501 0.73732901
0.011416699 0.015983403 0.7373296
0.011416699 0.014841735 0.7373296
0.011416699 0.013700008 0.7373296
0.011416699 0.012558371 0.7373296
0.011416699 0.011416703 0.73732954
0.011416699 0.010275066 0.7373296
0.011416699 0.0091333985 0.7373296
0.011416699 0.0079916716 0.7373296
0.011416699 0.006850034 0.73732966
0.011416743 0.0057083964 0.7373302
0.011416743 0.0045666993 0.7373302
0.011416743 0.0034250319 0.73733026
0.011416743 0.0022833645 0.73733026
0.011416743 0.0011416972 0.73733026
0.011416743 2.9802322e-08 0.7373302
0.011416743 -0.0011416674 0.7373302
0.011416743 -0.0022833049 0.7373302
0.011416743 -0.0034250021 0.7373302
0.011416786 -0.0045666993 0.73733085
0.011416743 -0.0057083368 0.7373302
0.011416743 -0.006850034 0.7373302
0.011416743 -0.0079917014 0.7373302
0.011416786 -0.0091333985 0.73733085
0.011416786 -0.010275096 0.73733079
0.011416786 -0.011416763 0.73733085
0.011416786 -0.01255846 0.73733079
0.011416831 -0.013700157 0.73733145
0.011416831 -0.014841855 0.73733145
0.011416831 -0.015983552 0.73733145
0.011416831 -0.017125249 0.73733145
0.011416831 -0.018266916 0.73733145
0.011416875 -0.019408673 0.73733205
0.011416875 -0.02055034 0.73733205
0.011416875 -0.021692038 0.73733199
0.011416875 -0.022833705 0.73733199
0.011416875 -0.023975432 0.73733199
0.011416919 -0.025117218 0.7373327
0.011416919 -0.026258916 0.7373327
0.011416919 -0.027400583 0.7373327
0.011416919 -0.02854228 0.73733264
0.011416962 -0.029684097 0.73733324
0.011416962 -0.030825794 0.73733324
0.011416962 -0.031967491 0.73733324
0.011416962 -0.033109158 0.73733324
0.011416962 -0.034250885 0.73733318
0.011417006 -0.035392702 0.73733383
0.011417006 -0.036534399 0.73733383
0.011417006 -0.037676126 0.73733389
0.011417006 -0.038817823 0.73733389
0.01141705 -0.039959669 0.73733449
0.01141705 -0.041101366 0.73733449
0.01141705 -0.042243063 0.73733449
0.01141705 -0.043384761 0.73733449
0.01141705 -0.044526458 0.73733443
0.011417094 -0.045668364 0.73733509
0.011417094 -0.046810061 0.73733509
0.011417094 -0.047951758 0.73733503
0.011417094 -0.049093485 0.73733509
0.011417094 -0.050235212 0.73733509
0.011433247 -0.051449597 0.73755813
0.011520363 -0.052993625 0.73876154
0.011737981 -0.055168509 0.74176759
0.011978724 -0.057497859 0.74509299
0.012119903 -0.059387535 0.74704319
0.013161118 0.061019748 0.74489868
0.013161859 0.059826642 0.74490798
0.013184403 0.058730572 0.7451911
0.01317283 0.057481438 0.74504566
0.013161594 0.056235939 0.74490464
0.013117789 0.054856241 0.74435455
0.013024306 0.053281277 0.74318063
0.012938026 0.05175212 0.7420972
0.012859754 0.050269932 0.74111426
0.012789169 0.048831373 0.74022794
0.012722719 0.047421038 0.73939341
0.012663667 0.046049714 0.73865187
0.012610799 0.044710994 0.73798805
0.012596861 0.043516487 0.73781294
0.012596861 0.042371303 0.737813
0.012596861 0.041226089 0.737813
0.012596861 0.040080935 0.73781306
0.012596861 0.038935781 0.737813
0.012596861 0.037790596 0.737813
0.012596861 0.036645442 0.737813
0.012596861 0.035500258 0.737813
0.012596861 0.034355104 0.737813
0.012596861 0.03320992 0.737813
0.012596861 0.032064736 0.737813
0.012596861 0.030919611 0.73781294
0.012596861 0.029774457 0.737813
0.012596861 0.028629243 0.737813
0.012596861 0.027484059 0.737813
0.012596861 0.026338905 0.737813
0.012596861 0.025193781 0.737813
0.012596911 0.024048656 0.73781359
0.012596911 0.022903502 0.73781359
0.012596911 0.021758348 0.73781359
0.012596959 0.020613253 0.73781419
0.012596959 0.019468039 0.73781419
0.012596959 0.018322855 0.73781419
0.012596959 0.017177671 0.73781419
0.012596959 0.016032517 0.73781419
0.012597008 0.014887393 0.73781484
0.012597008 0.013742208 0.73781484
0.012597008 0.012597024 0.73781478
0.012597008 0.01145184 0.73781478
0.012597056 0.010306716 0.73781544
0.012597056 0.0091615319 0.73781538
0.012597056 0.0080163479 0.73781544
0.012597056 0.006871134 0.73781544
0.012597056 0.0057259202 0.73781538
0.012597105 0.004580766 0.73781604
0.012597105 0.0034355819 0.73781604
0.012597105 0.0022903979 0.73781598
0.012597105 0.0011452138 0.73781604
0.012597154 -0 0.73781669
0.012597154 -0.001145184 0.73781663
0.012597154 -0.0022903383 0.73781657
0.012597154 -0.0034355819 0.73781663
0.012597154 -0.0045807958 0.73781669
0.012597201 -0.00572595 0.73781723
0.012597201 -0.0068711936 0.73781729
0.012597201 -0.0080163777 0.73781723
0.012597201 -0.0091616213 0.73781729
0.01259725 -0.010306835 0.73781788
0.01259725 -0.011451989 0.73781788
0.01259725 -0.012597263 0.73781788
0.01259725 -0.013742477 0.73781788
0.01259725 -0.014887631 0.73781788
0.012597298 -0.016032904 0.73781848
0.012597298 -0.017178118 0.73781848
0.012597298 -0.018323302 0.73781848
0.012597298 -0.019468546 0.73781848
0.012597347 -0.020613819 0.73781908
0.012597347 -0.021759033 0.73781908
0.012597347 -0.022904247 0.73781908
0.012597347 -0.024049461 0.73781908
0.012597347 -0.025194675 0.73781908
0.012597395 -0.026339978 0.73781967
0.012597395 -0.027485222 0.73781967
0.012597395 -0.028630465 0.73781967
0.012597395 -0.029775649 0.73781967
0.012597444 -0.030921012 0.73782033
0.012597444 -0.032066226 0.73782027
0.012597444 -0.03321144 0.73782033
0.012597444 -0.034356624 0.73782027
0.012597444 -0.035501868 0.73782027
0.012597493 -0.03664726 0.73782092
0.012597493 -0.037792444 0.73782098
0.012597493 -0.038937688 0.73782086
0.012597493 -0.040082902 0.73782086
0.012597541 -0.041228265 0.73782146
0.012597541 -0.042373508 0.73782158
0.012597541 -0.043518752 0.73782152
0.012597541 -0.044663966 0.73782152
0.012597541 -0.045809239 0.73782152
0.01259759 -0.046954632 0.73782212
0.01259759 -0.048099846 0.73782206
0.01259759 -0.049245119 0.73782212
0.01259759 -0.050390333 0.73782212
0.012620967 -0.051631212 0.73811567
0.012750388 -0.053319812 0.73974091
0.013008406 -0.055581361 0.74298096
0.013299429 -0.058033854 0.7466355
0.013422754 -0.05979228 0.74818414
0.014441362 0.061375827 0.74586302
0.014427175 0.060113221 0.74569976
0.014456279 0.059029818 0.74603474
0.014442589 0.057770371 0.74587721
0.014430501 0.056519449 0.74573797
0.014398131 0.055192858 0.74536544
0.014292835 0.053598136 0.74415332
0.014190255 0.052030981 0.74297249
0.014100437 0.050526589 0.74193859
0.014017912 0.049062699 0.74098867
0.013941737 0.047634274 0.74011183
0.013874203 0.046247393 0.73933446
0.013811007 0.044885784 0.73860699
0.013789981 0.0436683 0.73836493
0.013789981 0.042519122 0.73836493
0.013789981 0.041369975 0.73836493
0.013789981 0.040220797 0.73836488
0.013789981 0.039071649 0.73836493
0.013789981 0.037922472 0.73836493
0.013789981 0.036773294 0.73836493
0.013790035 0.035624266 0.73836553
0.013790035 0.034475088 0.73836553
0.013790035 0.033325911 0.73836553
0.013790035 0.032176763 0.73836559
0.013790035 0.031027615 0.73836559
0.013790035 0.029878408 0.73836553
0.013790035 0.02872926 0.73836553
0.013790035 0.027580082 0.73836553
0.013790035 0.026430905 0.73836559
0.013790035 0.025281757 0.73836553
0.013790035 0.02413255 0.73836553
0.013790035 0.022983372 0.73836553
0.013790035 0.021834254 0.73836553
0.013790087 0.020685166 0.73836613
0.013790087 0.019535989 0.73836619
0.013790087 0.018386811 0.73836619
0.013790087 0.017237633 0.73836613
0.013790087 0.016088456 0.73836613
0.013790087 0.014939308 0.73836613
0.013790087 0.013790131 0.73836619
0.013790087 0.012640923 0.73836613
0.013790087 0.011491776 0.73836613
0.013790087 0.010342568 0.73836619
0.013790087 0.0091934204 0.73836619
0.013790087 0.0080442429 0.73836613
0.01379014 0.0068951249 0.73836672
0.01379014 0.0057458878 0.73836678
0.01379014 0.0045967102 0.73836684
0.01379014 0.0034475327 0.73836678
0.01379014 0.0022983551 0.73836678
0.01379014 0.0011492074 0.73836678
0.01379014 2.9802322e-08 0.73836672
0.01379014 -0.0011491477 0.73836678
0.01379014 -0.0022983551 0.73836678
0.01379014 -0.0034475029 0.73836678
0.01379014 -0.0045966804 0.73836672
0.01379014 -0.005745858 0.73836672
0.013790194 -0.0068950951 0.73836744
0.013790194 -0.0080442727 0.73836738
0.013790194 -0.0091934204 0.73836738
0.013790194 -0.010342628 0.73836738
0.013790194 -0.011491835 0.73836738
0.013790194 -0.012640983 0.73836738
0.01379014 -0.013790101 0.73836678
0.013790194 -0.014939308 0.73836732
0.013790194 -0.016088545 0.73836744
0.013790194 -0.017237723 0.73836744
0.013790194 -0.0183869 0.73836738
0.013790194 -0.019536108 0.73836738
0.013790194 -0.020685285 0.73836732
0.013790194 -0.021834463 0.73836738
0.013790194 -0.02298364 0.73836744
0.013790194 -0.024132818 0.73836744
0.013790247 -0.025282145 0.73836803
0.013790247 -0.026431292 0.73836803
0.013790247 -0.02758047 0.73836803
0.013790247 -0.028729677 0.73836797
0.013790247 -0.029878825 0.73836797
0.013790247 -0.031028032 0.73836792
0.013790247 -0.03217724 0.73836797
0.013790247 -0.033326417 0.73836803
0.013790247 -0.034475625 0.73836803
0.013790247 -0.035624772 0.73836797
0.013790301 -0.036774129 0.73836869
0.013790301 -0.037923306 0.73836863
0.013790301 -0.039072514 0.73836863
0.013790301 -0.040221691 0.73836863
0.013790301 -0.041370898 0.73836857
0.013790301 -0.042520076 0.73836863
0.013790301 -0.043669283 0.73836863
0.013790301 -0.044818461 0.73836863
0.013790301 -0.045967638 0.73836863
0.013790353 -0.047117054 0.73836929
0.013790353 -0.048266202 0.73836923
0.013790353 -0.04941541 0.73836923
0.013791793 -0.050569892 0.7383858
0.013826042 -0.051847637 0.73878002
0.014012353 -0.053714007 0.74092472
0.014321228 -0.056091428 0.74448019
0.0146397 -0.058558792 0.74814612
0.014766055 -0.060294688 0.74960065
0.015717058 0.060450256 0.74663073
0.015718784 0.059247762 0.74664909
0.015738877 0.0581128 0.74686253
0.015724091 0.056848645 0.74670541
0.015700273 0.055554807 0.74645239
0.015591432 0.053970397 0.74529588
0.015468419 0.052354634 0.74398875
0.015365263 0.050823599 0.74289262
0.015268655 0.049329519 0.74186623
0.015181658 0.04788065 0.74094176
0.015103549 0.04647249 0.74011177
0.015028459 0.045085371 0.73931396
0.014997445 0.04383868 0.73898441
0.014997154 0.042684227 0.73898137
0.014997154 0.041530579 0.73898131
0.014997154 0.040376961 0.73898125
0.014997154 0.039223343 0.73898137
0.014997154 0.038069725 0.73898131
0.014997154 0.036916077 0.73898125
0.014997154 0.035762459 0.73898137
0.014997154 0.034608841 0.73898131
0.014997154 0.033455223 0.73898125
0.014997154 0.032301575 0.73898137
0.014997154 0.031147927 0.73898131
0.014997096 0.02999419 0.73898071
0.014997096 0.028840572 0.73898071
0.014997096 0.027686983 0.73898065
0.014997096 0.026533335 0.73898071
0.014997096 0.025379688 0.73898071
0.014997096 0.024226099 0.73898065
0.014997096 0.023072481 0.73898065
0.014997096 0.021918833 0.73898071
0.014997096 0.020765215 0.73898065
0.014997096 0.019611597 0.73898065
0.014997096 0.018458009 0.73898065
0.014997096 0.017304361 0.73898071
0.014997096 0.016150743 0.73898065
0.014997096 0.014997125 0.73898065
0.014997096 0.013843477 0.73898071
0.014997096 0.012689859 0.73898065
0.014997096 0.01153627 0.73898065
0.014997096 0.010382593 0.73898071
0.014997096 0.0092289746 0.73898065
0.014997154 0.0080753863 0.73898131
0.014997154 0.006921798 0.73898131
0.014997154 0.0057681501 0.73898137
0.014997154 0.0046145022 0.73898131
0.014997154 0.0034609139 0.73898131
0.014997154 0.002307266 0.73898137
0.014997154 0.0011536479 0.73898131
0.014997154 2.9802322e-08 0.73898131
0.014997154 -0.0011536479 0.73898131
0.014997154 -0.0023072362 0.73898131
0.014997212 -0.0034608841 0.7389819
0.014997212 -0.0046144724 0.7389819
0.014997212 -0.0057681501 0.73898196
0.014997212 -0.006921798 0.73898196
0.014997212 -0.0080753863 0.7389819
0.014997212 -0.009229064 0.7389819
0.014997212 -0.010382682 0.73898196
0.014997212 -0.0115363 0.7389819
0.014997212 -0.012689918 0.7389819
0.01499727 -0.013843626 0.73898256
0.01499727 -0.014997274 0.7389825
0.01499727 -0.016150892 0.73898256
0.01499727 -0.01730451 0.73898256
0.01499727 -0.018458128 0.7389825
0.01499727 -0.019611806 0.7389825
0.01499727 -0.020765454 0.73898256
0.01499727 -0.021919072 0.73898256
0.01499727 -0.02307269 0.7389825
0.01499727 -0.024226338 0.73898256
0.014997328 -0.025380075 0.73898315
0.014997328 -0.026533723 0.73898315
0.014997328 -0.027687371 0.73898315
0.014997328 -0.028840989 0.73898315
0.014997328 -0.029994667 0.73898315
0.014997328 -0.031148285 0.73898315
0.014997328 -0.032301933 0.73898315
0.014997328 -0.033455551 0.73898315
0.014997328 -0.034609169 0.73898315
0.014997328 -0.035762846 0.73898315
0.014997386 -0.036916614 0.73898381
0.014997386 -0.038070291 0.73898375
0.014997386 -0.039223909 0.73898375
0.014997386 -0.040377557 0.73898381
0.014997386 -0.041531235 0.73898381
0.014997386 -0.042684853 0.73898375
0.014997386 -0.043838501 0.73898381
0.014997386 -0.044992119 0.73898375
0.014997386 -0.046145797 0.73898381
0.014997445 -0.047299623 0.73898447
0.014997445 -0.048453271 0.73898435
0.014997445 -0.049606919 0.73898441
0.015001693 -0.050774932 0.73902953
0.01505661 -0.052119017 0.73961306
0.015313652 -0.054186732 0.74234426
0.015698997 -0.056757867 0.74643886
0.016012328 -0.059122413 0.74976814
0.017034579 0.060837775 0.74770141
0.017036112 0.059626371 0.74771655
0.017067257 0.058516324 0.74802387
0.017048249 0.057233393 0.74783629
0.017028099 0.055949479 0.74763751
0.016929161 0.054415166 0.74666131
0.016784478 0.052751213 0.74523377
0.016659696 0.051169068 0.74400258
0.016546022 0.049638093 0.742881
0.016446024 0.048163384 0.74189436
0.016355131 0.046728939 0.74099755
0.016270127 0.045323938 0.74015886
0.016223278 0.0440346 0.73969662
0.016221128 0.042870104 0.7396754
0.016221128 0.041711479 0.7396754
0.016221128 0.040552825 0.7396754
0.016221128 0.03939417 0.7396754
0.016221128 0.038235545 0.7396754
0.016221128 0.03707689 0.7396754
0.016221128 0.035918266 0.73967534
0.016221128 0.034759611 0.7396754
0.016221128 0.033600926 0.7396754
0.016221128 0.032442272 0.7396754
0.016221128 0.031283617 0.7396754
0.016221128 0.030124962 0.7396754
0.016221128 0.028966337 0.7396754
0.016221128 0.027807653 0.73967534
0.016221128 0.026648998 0.7396754
0.016221128 0.025490373 0.7396754
0.016221128 0.024331719 0.7396754
0.016221128 0.023173064 0.7396754
0.016221128 0.022014409 0.73967546
0.016221128 0.020855755 0.7396754
0.016221128 0.0196971 0.7396754
0.016221128 0.018538445 0.7396754
0.016221128 0.01737982 0.7396754
0.016221128 0.016221136 0.7396754
0.016221128 0.015062511 0.7396754
0.016221128 0.013903826 0.7396754
0.016221128 0.012745172 0.7396754
0.016221128 0.011586517 0.7396754
0.016221128 0.010427892 0.7396754
0.016221128 0.0092692077 0.7396754
0.016221192 0.0081106126 0.739676
0.016221192 0.0069519579 0.73967606
0.016221192 0.0057933033 0.739676
0.016221192 0.0046346486 0.739676
0.016221192 0.0034759939 0.73967606
0.016221192 0.0023173094 0.739676
0.016221192 0.0011586845 0.739676
0.016221192 2.9802322e-08 0.73967606
0.016221192 -0.0011586249 0.739676
0.016221192 -0.0023172498 0.739676
0.016221192 -0.0034759343 0.739676
0.016221128 -0.004634589 0.7396754
0.016221128 -0.0057932436 0.7396754
0.016221128 -0.0069519281 0.73967534
0.016221067 -0.0081104934 0.73967469
0.016221067 -0.0092691481 0.73967475
0.016221067 -0.010427833 0.73967481
0.016221067 -0.011586487 0.73967481
0.016221067 -0.012745112 0.73967475
0.016221067 -0.013903767 0.73967481
0.016221067 -0.015062422 0.73967475
0.016221067 -0.016221046 0.73967475
0.016221067 -0.017379701 0.73967481
0.016221067 -0.018538326 0.73967481
0.016221067 -0.019696981 0.73967475
0.016221067 -0.020855606 0.73967475
0.016221067 -0.02201429 0.73967481
0.016221067 -0.023172945 0.73967481
0.016221067 -0.02433157 0.73967475
0.016221002 -0.025490105 0.73967421
0.016221002 -0.02664876 0.73967415
0.016221002 -0.027807415 0.73967415
0.016221002 -0.028966069 0.73967421
0.016221002 -0.030124694 0.73967409
0.016221002 -0.031283319 0.73967415
0.016221002 -0.032442003 0.73967421
0.016221002 -0.033600628 0.73967415
0.016221002 -0.034759283 0.73967415
0.016221002 -0.035917938 0.73967409
0.016221002 -0.037076563 0.73967421
0.016221002 -0.038235158 0.73967409
0.016221002 -0.039393812 0.73967415
0.016221002 -0.040552497 0.73967421
0.016221002 -0.041711122 0.73967415
0.016220938 -0.042869657 0.73967355
0.016220938 -0.044028282 0.7396735
0.016220938 -0.045186877 0.73967355
0.016220938 -0.046345502 0.7396735
0.016220938 -0.047504127 0.7396735
0.016220938 -0.048662782 0.7396735
0.016220938 -0.049821436 0.73967355
0.016230172 -0.051009089 0.73976457
0.016311241 -0.052428961 0.74056447
0.016675442 -0.054790705 0.74415797
0.017196327 -0.057730466 0.74929726
0.017452579 -0.059837431 0.75182569
0.018405251 0.061350852 0.7491188
0.018388031 0.060067564 0.7489602
0.01843103 0.058979303 0.74935627
0.018409202 0.057682186 0.74915522
0.018389774 0.056395352 0.74897629
0.018319238 0.054957718 0.74832666
0.018145764 0.053227603 0.74672925
0.017991202 0.051574796 0.7453059
0.017856462 0.049998134 0.74406511
0.017739864 0.048489004 0.74299133
0.017633768 0.047023386 0.74201435
0.017536992 0.045596182 0.74112314
0.017471058 0.044260055 0.74051595
0.017463809 0.043077379 0.74044919
0.017463809 0.041913152 0.74044919
0.017463809 0.040748894 0.74044925
0.017463809 0.039584637 0.74044919
0.017463809 0.038420379 0.74044919
0.017463809 0.037256151 0.74044925
0.017463809 0.036091894 0.74044919
0.017463809 0.034927636 0.74044919
0.017463809 0.033763379 0.74044919
0.017463809 0.032599151 0.74044919
0.017463809 0.031434864 0.74044919
0.017463809 0.030270606 0.74044919
0.017463809 0.029106349 0.74044925
0.017463809 0.027942091 0.74044919
0.017463809 0.026777804 0.74044919
0.017463809 0.025613576 0.74044919
0.017463809 0.024449348 0.74044919
0.017463809 0.023285091 0.74044919
0.017463809 0.022120863 0.74044919
0.017463809 0.020956606 0.74044919
0.01746374 0.019792259 0.74044859
0.01746374 0.018628031 0.74044859
0.01746374 0.017463744 0.74044853
0.01746374 0.016299516 0.74044859
0.01746374 0.015135258 0.74044859
0.01746374 0.013971001 0.74044853
0.01746374 0.012806743 0.74044859
0.01746374 0.011642516 0.74044859
0.01746374 0.010478228 0.74044853
0.01746374 0.0093140006 0.74044859
0.01746374 0.0081497431 0.74044859
0.01746374 0.0069855154 0.74044853
0.01746374 0.0058212876 0.74044859
0.01746374 0.0046570301 0.74044859
0.01746374 0.0034928024 0.74044853
0.01746374 0.0023285449 0.74044859
0.01746374 0.0011642575 0.74044859
0.01746374 2.9802322e-08 0.74044853
0.01746374 -0.0011642277 0.74044859
0.01746374 -0.0023284853 0.74044853
0.01746374 -0.0034927428 0.74044859
0.01746374 -0.0046569705 0.74044859
0.01746374 -0.0058212578 0.74044859
0.01746374 -0.0069854856 0.74044853
0.01746374 -0.0081497431 0.74044859
0.01746374 -0.0093140006 0.74044859
0.017463671 -0.010478199 0.74044794
0.017463671 -0.011642456 0.740448
0.017463671 -0.012806654 0.74044788
0.017463671 -0.013970912 0.74044794
0.017463671 -0.015135139 0.74044794
0.017463671 -0.016299397 0.74044788
0.017463671 -0.017463654 0.74044794
0.017463671 -0.018627912 0.74044794
0.017463671 -0.01979214 0.74044788
0.017463671 -0.020956397 0.74044794
0.017463671 -0.022120625 0.74044794
0.017463671 -0.023284882 0.74044788
0.017463671 -0.02444911 0.74044794
0.017463671 -0.025613368 0.74044794
0.017463671 -0.026777595 0.74044788
0.017463671 -0.027941823 0.74044794
0.017463671 -0.029106081 0.74044794
0.017463671 -0.030270308 0.74044794
0.017463671 -0.031434596 0.74044794
0.017463671 -0.032598823 0.74044794
0.017463671 -0.033763081 0.74044788
0.017463671 -0.034927309 0.74044794
0.017463671 -0.036091566 0.74044794
0.017463671 -0.037255794 0.74044794
0.017463671 -0.038420051 0.740448
0.017463671 -0.039584309 0.74044794
0.017463602 -0.040748388 0.74044734
0.017463602 -0.041912645 0.74044734
0.017463602 -0.043076903 0.74044728
0.017463602 -0.044241101 0.74044734
0.017463602 -0.045405388 0.74044728
0.017463602 -0.046569556 0.74044728
0.017463602 -0.047733873 0.74044734
0.017463602 -0.048898071 0.74044728
0.017463602 -0.050062329 0.74044728
0.017484616 -0.051288188 0.74064082
0.017629655 -0.05288893 0.74197644
0.018134773 -0.055613279 0.74662799
0.018764082 -0.058794141 0.75242329
0.019790839 0.06060946 0.7504878
0.019792898 0.059378743 0.75050557
0.019826546 0.058240503 0.75079608
0.019800227 0.056925684 0.75056887
0.019761497 0.055579245 0.75023448
0.019572027 0.053823084 0.74859869
0.019377079 0.052075893 0.7469157
0.019213088 0.050434381 0.74549985
0.019071702 0.048871249 0.74427927
0.018945577 0.047363967 0.74319041
0.018834217 0.045908421 0.74222904
0.018744739 0.044518799 0.74145651
0.018729689 0.04331243 0.74132651
0.018729689 0.042141825 0.74132651
0.018729689 0.04097122 0.74132651
0.018729614 0.039800465 0.74132591
0.018729614 0.03862983 0.74132591
0.018729614 0.037459254 0.74132591
0.018729614 0.036288649 0.74132591
0.018729541 0.035117894 0.74132526
0.018729541 0.033947319 0.74132526
0.018729541 0.032776743 0.74132526
0.018729541 0.031606138 0.74132526
0.018729465 0.030435413 0.74132466
0.018729465 0.029264808 0.74132466
0.018729465 0.028094202 0.7413246
0.018729465 0.026923627 0.7413246
0.018729465 0.025753021 0.74132466
0.018729392 0.024582326 0.74132407
0.018729392 0.023411751 0.74132407
0.018729392 0.022241205 0.74132401
0.018729392 0.02107057 0.74132407
0.01872932 0.019899905 0.74132335
0.01872932 0.018729329 0.74132335
0.01872932 0.017558753 0.74132341
0.01872932 0.016388148 0.74132341
0.01872932 0.015217572 0.74132341
0.018729245 0.014046937 0.74132276
0.018729245 0.012876362 0.74132276
0.018729245 0.011705786 0.74132276
0.018729245 0.01053521 0.7413227
0.018729173 0.0093646049 0.74132204
0.018729173 0.0081940293 0.74132204
0.018729173 0.0070234835 0.7413221
0.018729173 0.0058528781 0.7413221
0.018729173 0.0046823025 0.7413221
0.018729098 0.0035116971 0.7413215
0.018729098 0.002341181 0.74132144
0.018729098 0.0011705756 0.74132144
0.018729098 2.9802322e-08 0.7413215
0.018729024 -0.0011705458 0.74132085
0.018729024 -0.0023410916 0.74132079
0.018729024 -0.0035116374 0.74132085
0.018729024 -0.0046822429 0.74132085
0.018729024 -0.0058527589 0.74132079
0.018728949 -0.0070233643 0.74132013
0.018728949 -0.0081939101 0.74132019
0.018728949 -0.0093644857 0.74132019
0.018728949 -0.010535032 0.74132019
0.018728876 -0.011705548 0.7413196
0.018728876 -0.012876064 0.74131954
0.018728876 -0.014046609 0.74131954
0.018728804 -0.015217125 0.74131894
0.018728804 -0.016387671 0.74131888
0.018728804 -0.017558217 0.74131894
0.018728804 -0.018728793 0.74131894
0.018728804 -0.019899338 0.74131894
0.018728804 -0.021069854 0.74131894
0.018728804 -0.02224043 0.74131894
0.018728804 -0.023411006 0.74131894
0.018728729 -0.024581403 0.74131823
0.018728729 -0.025752008 0.74131829
0.018728729 -0.026922554 0.74131829
0.018728729 -0.02809307 0.74131823
0.018728729 -0.029263645 0.74131829
0.018728729 -0.030434161 0.74131823
0.018728729 -0.031604707 0.74131829
0.018728729 -0.032775253 0.74131823
0.018728657 -0.03394565 0.74131769
0.018728657 -0.035116225 0.74131769
0.018728657 -0.036286741 0.74131763
0.018728657 -0.037457258 0.74131763
0.018728657 -0.038627863 0.74131763
0.018728657 -0.039798409 0.74131763
0.018728657 -0.040968895 0.74131763
0.018728657 -0.042139441 0.74131763
0.018728657 -0.043309987 0.74131763
0.01872858 -0.044480354 0.74131703
0.01872858 -0.045650899 0.74131703
0.01872858 -0.046821415 0.74131703
0.01872858 -0.047991991 0.74131697
0.01872858 -0.049162507 0.74131703
0.01872858 -0.050333023 0.74131697
0.018767362 -0.051610202 0.74165177
0.019060625 -0.053608 0.74418366
0.019838201 -0.05703482 0.75089669
0.020488849 -0.060185969 0.75651395
0.021281088 0.061339617 0.75254619
0.021259701 0.060027391 0.75237238
0.021323992 0.058954567 0.75289476
0.021289423 0.057606697 0.7526139
0.021255052 0.056263387 0.75233465
0.021105895 0.054627061 0.75112259
0.020839423 0.052711487 0.74895746
0.020630993 0.050970703 0.74726385
0.02045512 0.049332976 0.74583471
0.020300789 0.047766566 0.74458081
0.02017015 0.046272725 0.74351925
0.020053823 0.04482618 0.7425741
0.020021975 0.043577254 0.74231529
0.020021895 0.042399347 0.74231464
0.020021895 0.041221589 0.7423147
0.020021895 0.040043801 0.7423147
0.020021817 0.038865894 0.74231398
0.020021817 0.037688136 0.74231398
0.020021738 0.036510259 0.74231333
0.020021738 0.035332501 0.74231333
0.020021738 0.034154743 0.74231339
0.020021658 0.032976866 0.74231267
0.020021658 0.031799138 0.74231273
0.020021658 0.03062135 0.74231273
0.02002158 0.029443502 0.74231207
0.02002158 0.028265774 0.74231207
0.02002158 0.027088016 0.74231207
0.0200215 0.025910199 0.74231142
0.0200215 0.024732441 0.74231148
0.0200215 0.023554713 0.74231142
0.020021422 0.022376925 0.74231076
0.020021422 0.021199167 0.74231076
0.020021422 0.020021439 0.74231076
0.02002134 0.018843621 0.74231011
0.02002134 0.017665952 0.74231017
0.02002134 0.016488194 0.74231011
0.020021262 0.015310407 0.74230945
0.020021262 0.014132679 0.74230951
0.020021262 0.01295498 0.74230945
0.020021182 0.011777192 0.7423088
0.020021182 0.010599464 0.74230886
0.020021182 0.0094217658 0.74230886
0.020021103 0.008243978 0.7423082
0.020021103 0.0070662796 0.74230826
0.020021103 0.0058885813 0.7423082
0.020021023 0.0047108233 0.74230754
0.020021023 0.0035331547 0.74230754
0.020021023 0.0023554265 0.7423076
0.020020945 0.0011777282 0.74230695
0.020020945 -0 0.74230689
0.020020945 -0.0011776984 0.74230695
0.020020865 -0.0023553669 0.74230629
0.020020865 -0.0035330951 0.74230623
0.020020865 -0.0047107637 0.74230623
0.020020787 -0.0058884919 0.74230564
0.020020787 -0.0070661306 0.74230564
0.020020787 -0.0082438588 0.74230564
0.020020708 -0.0094214976 0.74230498
0.020020708 -0.010599166 0.74230492
0.020020708 -0.011776865 0.74230498
0.020020626 -0.012954503 0.74230438
0.020020626 -0.014132202 0.74230433
