# .PCD v0.7 - Point Cloud Data file format
VERSION 0.7
FIELDS x y z
SIZE 4 4 4
TYPE F F F
COUNT 1 1 1
WIDTH 1319
HEIGHT 1
VIEWPOINT 0 0 0 1 0 0 0
POINTS 1319
DATA ascii
-0.011731875 0.0078212917 0.71467388
-0.011813467 0.006891191 0.71561313
-0.011897868 0.005948931 0.71658468
-0.011983525 0.0049931407 0.71757072
-0.012070424 0.0040234923 0.71857095
-0.01215855 0.0030396879 0.71958542
-0.012250707 0.0020418167 0.7206462
-0.012345337 0.001028806 0.72173548
-0.012441441 -0 0.72284186
-0.012539054 -0.0010448992 0.72396547
-0.012639284 -0.0021065176 0.72511923
-0.012743905 -0.0031859875 0.72632349
-0.012850412 -0.0042834282 0.72754949
-0.01295876 -0.0053994954 0.72879678
-0.013069479 -0.0065347254 0.73007125
-0.013184881 -0.0076911747 0.7313996
-0.013303281 -0.0088688135 0.73276252
-0.013423877 -0.01006788 0.73415065
-0.013547349 -0.011289448 0.73557198
-0.013675627 -0.012535989 0.73704857
-0.013807748 -0.013807714 0.73856944
-0.01394261 -0.015104502 0.74012184
-0.014081187 -0.016428024 0.7417171
-0.014224984 -0.017781198 0.74337226
-0.014372732 -0.019163638 0.74507302
-0.014524823 -0.020576805 0.74682373
-0.014682282 -0.02202341 0.74863625
-0.014844364 -0.023503572 0.75050205
-0.015012213 -0.025020331 0.75243413
-0.015185256 -0.026574165 0.75442606
-0.01536399 -0.028167307 0.7564835
-0.015549284 -0.029802769 0.75861639
-0.015741115 -0.03148219 0.76082456
-0.015940445 -0.033209234 0.7631191
-0.0161462 -0.034983426 0.76548755
-0.016361238 -0.036812782 0.76796281
-0.01658416 -0.038696378 0.77052897
-0.016815934 -0.040638506 0.77319694
-0.017058276 -0.042645693 0.77598655
-0.017311061 -0.044720262 0.77889633
-0.017574651 -0.046865702 0.78193051
-0.019308547 -0.0530985 0.80188948
-0.011903025 0.047612131 0.72910011
-0.011672951 0.045630604 0.72621095
-0.011494456 0.043887913 0.72396952
-0.011345484 0.042287737 0.72209883
-0.011219492 0.040798217 0.72051662
-0.011110286 0.039391011 0.7191453
-0.011015821 0.038054675 0.71795905
-0.010932403 0.036772639 0.71691149
-0.010858377 0.035536528 0.71598196
-0.010792536 0.034339905 0.71515512
-0.010733788 0.033177167 0.7144174
-0.010681288 0.032043844 0.71375811
-0.010634241 0.030936003 0.71316731
-0.01059093 0.029847175 0.71262348
-0.010551849 0.028777778 0.71213269
-0.010516267 0.027724683 0.7116859
-0.010483611 0.026685566 0.71127576
-0.010454129 0.025660127 0.71090561
-0.010426741 0.024645001 0.71056163
-0.010401842 0.023640573 0.71024895
-0.010379367 0.022645921 0.70996678
-0.010358006 0.021657646 0.7096985
-0.010339084 0.020678192 0.70946085
-0.010321144 0.019704014 0.70923555
-0.01030531 0.018736929 0.70903677
-0.01029001 0.017773688 0.70884466
-0.010276756 0.016816527 0.70867819
-0.010263698 0.015862077 0.70851421
-0.01025559 0.014917225 0.70841241
-0.010255108 0.013984233 0.70840633
-0.010269207 0.013069957 0.70858335
-0.010304855 0.012178481 0.70903111
-0.010366934 0.011309415 0.70981061
-0.01043562 0.010435611 0.71067321
-0.010505797 0.0095507503 0.71155441
-0.010578635 0.0086552799 0.71246904
-0.010652489 0.0077472627 0.71339649
-0.010727382 0.00682652 0.71433693
-0.010803299 0.0058927238 0.71529025
-0.010881819 0.0049463212 0.71627629
-0.010963252 0.0039866865 0.71729887
-0.011045912 0.003012538 0.71833688
-0.011129829 0.0020236373 0.71939075
-0.011215108 0.0010195673 0.72046155
-0.011304398 2.9802322e-08 0.72158277
-0.011395795 -0.0010359585 0.72273052
-0.011488683 -0.0020888448 0.72389698
-0.011583139 -0.0031590462 0.72508311
-0.011680704 -0.0042475462 0.72630835
-0.011781921 -0.0053553879 0.72757936
-0.011885079 -0.0064827502 0.72887474
-0.011990059 -0.0076300502 0.73019308
-0.01209794 -0.0087985098 0.73154777
-0.012210422 -0.0099903345 0.73296022
-0.012325387 -0.011204869 0.73440397
-0.012442586 -0.012442559 0.73587561
-0.012563192 -0.013705283 0.73739016
-0.012688668 -0.014995694 0.73896587
-0.012816878 -0.016312391 0.74057585
-0.012949089 -0.017657846 0.74223608
-0.013085887 -0.019033998 0.74395394
-0.013226354 -0.020440727 0.74571782
-0.013372002 -0.021881431 0.74754685
-0.013521732 -0.023355693 0.74942702
-0.013676281 -0.024865925 0.75136775
-0.013836511 -0.026415139 0.75337994
-0.014002038 -0.02800405 0.75545847
-0.014174029 -0.029636562 0.75761831
-0.014351306 -0.031311929 0.75984442
-0.014536173 -0.033036739 0.7621659
-0.014727589 -0.034810632 0.76456964
-0.014926564 -0.036637902 0.76706827
-0.01513435 -0.038523763 0.76967758
-0.015350306 -0.040468961 0.77238941
-0.015575407 -0.042478353 0.77521616
-0.015811484 -0.044559628 0.77818072
-0.0160583 -0.046715021 0.78128004
-0.016326779 -0.048980296 0.78465158
-0.010727488 0.047200978 0.72780931
-0.010534005 0.045296222 0.7251367
-0.010377383 0.043585062 0.72297323
-0.010247652 0.042015404 0.72118127
-0.010136718 0.040546894 0.7196489
-0.010042111 0.039164215 0.71834207
-0.0099592498 0.037845165 0.71719742
-0.0098860515 0.036578417 0.71618634
-0.0098217325 0.03535825 0.71529794
-0.0097648129 0.034176886 0.71451163
-0.0097140996 0.033027977 0.7138111
-0.0096690627 0.031907916 0.71318901
-0.0096279001 0.030809313 0.71262044
-0.0095905177 0.029730618 0.71210402
-0.0095566176 0.028669864 0.71163577
-0.0095258541 0.027624995 0.71121085
-0.009497988 0.026594371 0.71082592
-0.0094723646 0.025575399 0.71047193
-0.0094490396 0.024567485 0.71014977
-0.0094278315 0.023569614 0.70985681
-0.0094081769 0.02257964 0.70958537
-0.0093904128 0.021597922 0.70933992
-0.0093738372 0.020622492 0.70911098
-0.0093592061 0.019654334 0.70890892
-0.0093450593 0.018690169 0.70871347
-0.009332831 0.017732382 0.70854461
-0.0093209259 0.016777664 0.70838016
-0.0093108583 0.01582849 0.70824105
-0.0093009574 0.014881521 0.70810431
-0.0092940396 0.013941079 0.70800877
-0.0092944754 0.01301229 0.70801473
-0.0093073035 0.012099504 0.70819193
-0.0093411859 0.011209428 0.70865995
-0.0093996432 0.010339618 0.70946741
-0.0094637433 0.0094637573 0.7103529
-0.0095287533 0.0085758865 0.71125084
-0.0095952209 0.0076761842 0.71216899
-0.0096648522 0.0067653954 0.71313083
-0.0097355014 0.0058413148 0.71410674
-0.0098071909 0.0049036145 0.71509701
-0.0098799421 0.0039519966 0.716102
-0.009955016 0.0029865205 0.71713895
-0.010032998 0.0020065904 0.71821618
-0.010112179 0.0010112226 0.71930987
-0.010192651 -0 0.72042149
-0.010274559 -0.0010274053 0.72155291
-0.010360175 -0.0020720065 0.72273552
-0.01044789 -0.00313434 0.72394717
-0.010537103 -0.004214853 0.72517955
-0.010627815 -0.0053139031 0.72643256
-0.010722035 -0.0064332187 0.72773403
-0.010819435 -0.0075736046 0.72907943
-0.010918742 -0.0087350011 0.73045117
-0.011019889 -0.0099178851 0.73184836
-0.011124592 -0.011124551 0.73329467
-0.011232872 -0.012356132 0.73479038
-0.011343368 -0.013612032 0.73631668
-0.011457604 -0.014894873 0.73789471
-0.011575562 -0.016205788 0.73952407
-0.011696478 -0.017544717 0.74119431
-0.011821968 -0.018915117 0.74292773
-0.011950661 -0.020316124 0.74470532
-0.012083462 -0.021750212 0.74653983
-0.012221207 -0.023220271 0.74844247
-0.012363053 -0.024726063 0.75040185
-0.012510388 -0.02627179 0.752437
-0.012662247 -0.027856916 0.75453472
-0.012820214 -0.029486448 0.75671673
-0.012983419 -0.031160176 0.75897115
-0.013153451 -0.032883644 0.76131988
-0.013330205 -0.034658521 0.7637614
-0.013513679 -0.036486924 0.76629579
-0.013705366 -0.03837502 0.76894361
-0.013905236 -0.040325165 0.77170444
-0.014113633 -0.042340904 0.7745831
-0.014331892 -0.044428855 0.77759802
-0.014561357 -0.046596318 0.78076768
-0.014802266 -0.048847437 0.78409541
-0.0097942175 0.048971087 0.72995007
-0.0095799593 0.046835393 0.72666162
-0.0094121946 0.04496938 0.72408676
-0.0092764599 0.043290168 0.72200346
-0.0091639329 0.041746825 0.72027642
-0.0090685524 0.040304691 0.71881247
-0.0089825466 0.038924396 0.71749246
-0.0088962633 0.037562013 0.71616822
-0.0088251326 0.036281109 0.71507651
-0.0087666577 0.035066664 0.71417898
-0.0087195057 0.033909231 0.71345532
-0.0086809043 0.032794505 0.71286285
-0.008648674 0.031711817 0.71236819
-0.0086215688 0.03065449 0.71195209
-0.0085946592 0.029603839 0.71153909
-0.0085690962 0.028563678 0.71114683
-0.00854355 0.02752924 0.71075469
-0.0085197277 0.026505858 0.71038908
-0.0084979525 0.02549389 0.71005493
-0.0084781684 0.024492532 0.70975119
-0.0084602665 0.023500741 0.70947647
-0.0084436126 0.02251631 0.70922089
-0.0084285643 0.021539688 0.70898992
-0.0084149437 0.020569891 0.70878083
-0.0084020793 0.019604862 0.70858341
-0.0083908318 0.0186463 0.70841086
-0.0083801653 0.017691493 0.70824707
-0.0083709145 0.016741842 0.70810515
-0.0083620483 0.015795022 0.70796895
-0.0083541404 0.014851809 0.70784765
-0.008347054 0.013911784 0.70773888
-0.0083413571 0.012975484 0.70765144
-0.00834323 0.012051344 0.70768011
-0.0083568795 0.011142552 0.70788968
-0.0083879922 0.010252029 0.70836723
-0.0084427604 0.009380877 0.70920777
-0.0085026491 0.008502692 0.710127
-0.0085633947 0.0076119304 0.71105927
-0.0086250138 0.0067083538 0.71200502
-0.0086876377 0.0057917833 0.7129662
-0.008753526 0.0048630536 0.71397746
-0.0088204797 0.0039202571 0.71500504
-0.0088884644 0.0029628575 0.71604848
-0.008957535 0.0019905865 0.71710855
-0.0090286024 0.001003176 0.71819937
-0.009102569 2.9802322e-08 0.71933454
-0.009177791 -0.0010197461 0.72048903
-0.009254233 -0.0020564795 0.7216624
-0.0093322201 -0.0031107068 0.72285932
-0.0094136177 -0.004183799 0.72410858
-0.0094971219 -0.0052761436 0.72539026
-0.0095821209 -0.006388098 0.72669482
-0.0096688299 -0.0075201988 0.72802562
-0.0097587937 -0.0086744726 0.72940636
-0.0098514268 -0.0098513961 0.73082811
-0.0099458722 -0.011050969 0.73227763
-0.010043842 -0.012275785 0.73378134
-0.01014453 -0.013526022 0.73532665
-0.010247689 -0.014802217 0.73690999
-0.01035493 -0.016107649 0.73855597
-0.010464643 -0.017441064 0.74023986
-0.010577751 -0.018804908 0.74197584
-0.010695083 -0.020201802 0.74377662
-0.010815615 -0.021631211 0.74562663
-0.010940863 -0.023097366 0.74754888
-0.011069915 -0.024599761 0.7495296
-0.011203689 -0.026141882 0.75158274
-0.011342129 -0.02772522 0.75370759
-0.011485857 -0.029352754 0.75591356
-0.011634943 -0.031026483 0.75820166
-0.011789665 -0.032749027 0.76057637
-0.011951542 -0.034526616 0.76306087
-0.012119411 -0.036358237 0.76563734
-0.012294376 -0.038249165 0.76832271
-0.01247784 -0.040206343 0.77113849
-0.012669621 -0.042232066 0.77408206
-0.01287042 -0.044331431 0.77716386
-0.013081395 -0.04651162 0.78040195
-0.013303697 -0.048780203 0.78381383
-0.0086342515 0.048567683 0.72871172
-0.0084500415 0.046475261 0.72553098
-0.0083067175 0.044648618 0.72305638
-0.0081910379 0.043002933 0.72105891
-0.0080838874 0.041429937 0.71920872
-0.0079624401 0.039812207 0.71711183
-0.0078744199 0.038387805 0.71559203
-0.0078084408 0.037090123 0.7144528
-0.0077546379 0.035865247 0.71352375
-0.0077109071 0.034699112 0.71276873
-0.0076763006 0.033583879 0.71217114
-0.0076470883 0.032500148 0.71166676
-0.0076234182 0.031446606 0.71125805
-0.0076030763 0.030412316 0.7109068
-0.0075867595 0.02939868 0.71062505
-0.0075727296 0.028397769 0.71038282
-0.0075612254 0.027409464 0.71018422
-0.0075468109 0.026413858 0.70993537
-0.007530401 0.025415123 0.70965195
-0.0075139194 0.024420261 0.70936739
-0.0074987863 0.023433745 0.70910609
-0.0074850325 0.022455126 0.70886862
-0.0074725728 0.02148366 0.70865345
-0.0074610906 0.020518035 0.7084552
-0.0074508092 0.0195584 0.7082777
-0.0074413712 0.018603474 0.70811468
-0.0074329553 0.017653286 0.70796937
-0.0074250917 0.016706496 0.70783365
-0.0074180071 0.015763283 0.70771134
-0.0074117221 0.014823437 0.7076028
-0.0074057006 0.013885707 0.70749879
-0.0074008396 0.012951493 0.70741487
-0.0073971353 0.012020379 0.70735085
-0.0073998957 0.011099845 0.70739859
-0.0074145398 0.010194957 0.70765144
-0.0074455864 0.0093070269 0.70818746
-0.0074955737 0.0084325075 0.70905066
-0.0075499965 0.0075500309 0.70999026
-0.0076060416 0.0066552758 0.71095806
-0.0076629003 0.0057471991 0.71193981
-0.0077206409 0.0048254132 0.71293682
-0.0077792332 0.0038896203 0.71394843
-0.0078405803 0.0029402673 0.71500766
-0.0079033244 0.0019758344 0.7160911
-0.0079671061 0.00099593401 0.71719235
-0.0080319261 2.9802322e-08 0.71831167
-0.008098443 -0.0010122657 0.71946013
-0.0081678657 -0.0020419359 0.72065884
-0.0082385745 -0.0030894279 0.72187972
-0.0083104894 -0.0041552186 0.7231214
-0.0083839959 -0.0052399635 0.72439063
-0.0084604984 -0.0063453615 0.72571158
-0.0085388087 -0.0074714124 0.72706372
-0.0086187059 -0.0086186826 0.72844326
-0.0087017044 -0.0097894073 0.7298764
-0.0087867389 -0.010983407 0.73134458
-0.0088737821 -0.012201428 0.73284757
-0.0089643914 -0.013446569 0.73441207
-0.0090569034 -0.01471746 0.73600942
-0.0091521917 -0.016016334 0.73765481
-0.0092510516 -0.017345697 0.7393617
-0.0093524382 -0.018704861 0.74111229
-0.009457726 -0.020097613 0.74293029
-0.0095661031 -0.021523714 0.74480164
-0.009678252 -0.022985846 0.74673808
-0.0097944336 -0.024486095 0.74874413
-0.0099145956 -0.026025832 0.75081885
-0.010039393 -0.027608335 0.75297374
-0.010168676 -0.029234916 0.75520599
-0.010303474 -0.030910403 0.75753349
-0.010442995 -0.032634348 0.75994253
-0.010588983 -0.034414142 0.76246327
-0.010741051 -0.036251038 0.76508892
-0.010899647 -0.038148731 0.76782739
-0.01106562 -0.040112883 0.77069318
-0.011240177 -0.042150646 0.77370715
-0.01142351 -0.044266045 0.77687275
-0.011616211 -0.046464831 0.78020006
-0.011819751 -0.04875645 0.78371447
-0.00770339 0.050622284 0.73164052
-0.0074932403 0.048170835 0.72749358
-0.0073374962 0.046121448 0.72442025
-0.0072169248 0.044332564 0.72204095
-0.0070722485 0.04243347 0.71918607
-0.006949482 0.040704131 0.7167635
-0.0068870853 0.039354771 0.71553218
-0.0068403329 0.038110465 0.71460962
-0.0067986036 0.036906749 0.71378613
-0.0067602992 0.035733044 0.71303028
-0.0067228586 0.034574717 0.71229142
-0.0066878274 0.03343913 0.71160018
-0.0066555841 0.032327175 0.7109639
-0.006627636 0.031244576 0.71041238
-0.0066047376 0.03019309 0.70996058
-0.0065904357 0.029186219 0.70967829
-0.0065804361 0.028201878 0.709481
-0.0065740361 0.027235299 0.7093547
-0.0065673995 0.026269615 0.70922375
-0.0065627205 0.025313377 0.70913136
-0.0065550744 0.024347425 0.70898056
-0.0065432894 0.023368925 0.70874798
-0.0065320795 0.02239573 0.70852679
-0.006522052 0.021429628 0.7083289
-0.0065128091 0.020468831 0.70814645
-0.0065044863 0.019513458 0.70798218
-0.0064969757 0.018562794 0.70783401
-0.006490109 0.017616004 0.70769858
-0.0064838626 0.01667285 0.70757526
-0.0064783748 0.015733242 0.70746696
-0.0064731776 0.014795899 0.70736444
-0.0064689536 0.013862073 0.70728105
-0.0064647147 0.01292944 0.70719737
-0.0064612436 0.011999458 0.70712894
-0.0064595398 0.01107353 0.70709532
-0.0064635104 0.010156959 0.70717365
-0.0064785765 0.0092551112 0.70747101
-0.0065094694 0.0083693266 0.70808059
-0.0065565612 0.0074931979 0.70900989
-0.0066048633 0.0066048801 0.70996296
-0.0066543929 0.0057037771 0.71094042
-0.0067060315 0.0047900379 0.71195936
-0.0067584999 0.0038620234 0.71299475
-0.0068117953 0.0029193461 0.71404648
-0.0068659158 0.0019617081 0.71511447
-0.0069221463 0.00098893046 0.71622401
-0.0069801705 -0 0.71736908
-0.0070391758 -0.00100559 0.7185334
-0.007099187 -0.0020283163 0.71971762
-0.0071606245 -0.0030688047 0.72092998
-0.0072246641 -0.0041283965 0.72219372
-0.0072899107 -0.0052070916 0.72348124
-0.0073566316 -0.006305635 0.72479784
-0.0074258838 -0.0074258745 0.72616446
-0.0074966406 -0.0085675716 0.7275607
-0.007569144 -0.0097317696 0.72899139
-0.0076445229 -0.010920733 0.73047888
-0.0077213896 -0.012133598 0.73199576
-0.0078005786 -0.013372391 0.73355836
-0.0078826612 -0.014639229 0.73517811
-0.0079667345 -0.015933454 0.73683715
-0.0080539584 -0.017258465 0.73855841
-0.008143751 -0.018614262 0.74033034
-0.0082364492 -0.020002782 0.74215955
-0.0083325151 -0.021426439 0.74405527
-0.0084316339 -0.022885829 0.74601114
-0.0085346084 -0.024384588 0.74804318
-0.0086410614 -0.025923163 0.75014383
-0.0087518599 -0.027505785 0.75233018
-0.0088665932 -0.029133081 0.75459433
-0.0089863529 -0.030810356 0.75695759
-0.0091105476 -0.032537669 0.7594083
-0.0092405193 -0.034321934 0.76197308
-0.0093761962 -0.036165327 0.7646504
-0.0095181791 -0.038072705 0.76745224
-0.0096669961 -0.040048957 0.77038884
-0.0098228576 -0.042097926 0.77346456
-0.0099877063 -0.044231236 0.77671754
-0.010161703 -0.046453506 0.78015107
-0.010345881 -0.048773408 0.78378546
-0.0065459344 0.050185502 0.73032892
-0.0063708834 0.047781646 0.72629887
-0.0062427232 0.045779973 0.72334838
-0.0060589015 0.043422133 0.71911633
-0.0059828428 0.041879892 0.71736532
-0.0059420206 0.040603817 0.71642554
-0.0059087873 0.039391935 0.71566045
-0.0058799125 0.038219452 0.71499562
-0.0058509153 0.03705582 0.71432805
-0.005822564 0.035905808 0.71367544
-0.005790011 0.034740061 0.71292591
-0.0057527712 0.033557862 0.71206856
-0.0057163364 0.032392591 0.7112298
-0.0056820246 0.031251162 0.71043986
-0.0056518973 0.03014347 0.70974624
-0.005626732 0.02907145 0.70916694
-0.0056090448 0.028045237 0.70875967
-0.0055985916 0.027059853 0.7085191
-0.005595379 0.026111782 0.70844513
-0.005594186 0.025173873 0.70841759
-0.0055925031 0.024234176 0.70837891
-0.0055910307 0.023295999 0.708345
-0.0055846265 0.02233851 0.70819759
-0.0055767898 0.021377683 0.70801711
-0.0055695311 0.020421624 0.70785004
-0.0055629676 0.019470394 0.707699
-0.0055570947 0.018523663 0.70756376
-0.0055517522 0.017580599 0.70744073
-0.0055470061 0.016641021 0.70733148
-0.0055426299 0.015704125 0.70723069
-0.0055389996 0.014770687 0.70714712
-0.0055354256 0.013838589 0.70706487
-0.0055325762 0.012909412 0.70699924
-0.0055299532 0.011981577 0.70693886
-0.0055273664 0.011054754 0.70687932
-0.0055273324 0.010133445 0.70687854
-0.005533074 0.009221822 0.70701069
-0.0055480236 0.0083220601 0.70735484
-0.0055791261 0.0074388385 0.70807093
-0.0056214854 0.0065583885 0.70904613
-0.0056644925 0.0056644976 0.71003622
-0.0057081445 0.0047568083 0.71104121
-0.0057525667 0.0038350523 0.71206391
-0.0057991184 0.0028995574 0.7131356
-0.005846621 0.0019488931 0.71422923
-0.0058949082 0.00098252296 0.71534091
-0.0059440001 -0 0.71647114
-0.0059945807 -0.00099909306 0.71763557
-0.0060469923 -0.0020156503 0.71884221
-0.0061003082 -0.0030501187 0.72006965
-0.0061548902 -0.0041032434 0.72132623
-0.0062115821 -0.0051763058 0.72263145
-0.0062693288 -0.0062693059 0.72396088
-0.0063286079 -0.0073833466 0.72532564
-0.0063900938 -0.0085200965 0.72674114
-0.0064527392 -0.0096790791 0.72818339
-0.0065172683 -0.010862082 0.72966897
-0.0065841451 -0.012070924 0.73120862
-0.0066524837 -0.013304949 0.73278189
-0.0067234202 -0.014567405 0.73441505
-0.0067963782 -0.015858203 0.73609465
-0.0068714921 -0.017178684 0.73782396
-0.0069495025 -0.018531978 0.73961991
-0.0070296652 -0.019917369 0.74146545
-0.0071130586 -0.021339178 0.74338531
-0.0071990942 -0.022797078 0.74536604
-0.0072884564 -0.024294853 0.74742341
-0.0073811649 -0.025834024 0.74955767
-0.0074774204 -0.027417213 0.75177372
-0.0075773462 -0.029046446 0.75407422
-0.0076816641 -0.030726612 0.75647587
-0.0077903918 -0.032459944 0.75897896
-0.007903886 -0.03425014 0.76159185
-0.0080225756 -0.03610155 0.76432431
-0.0081474502 -0.038021415 0.76719922
-0.008278193 -0.040011227 0.77020919
-0.0084159775 -0.042079896 0.77338135
-0.0085614668 -0.044234246 0.77673078
-0.0087156482 -0.046483427 0.78028035
-0.0088795032 -0.048837245 0.78405267
-0.0054082815 0.049756229 0.72903979
-0.0052671335 0.04740423 0.72514033
-0.0050748806 0.044658959 0.71982902
-0.0050242962 0.043208927 0.71843159
-0.0049964576 0.041970283 0.71766245
-0.0049784915 0.040823638 0.71716619
-0.0049643302 0.039714664 0.71677494
-0.0049480586 0.038594872 0.7163254
-0.0049294741 0.037464023 0.71581197
-0.0049078679 0.036318243 0.71521503
-0.0048835292 0.035161465 0.71454263
-0.0048553846 0.033987731 0.71376514
-0.0048237103 0.032801241 0.71289009
-0.0047857217 0.031585753 0.71184063
-0.0047423444 0.030351013 0.71064216
-0.0046993461 0.029135972 0.7094543
-0.004671033 0.028026223 0.70867217
-0.0046508713 0.026975065 0.7081151
-0.0046392344 0.025979728 0.70779365
-0.0046357489 0.025033087 0.70769733
-0.0046362402 0.02410844 0.70771098
-0.0046372092 0.023186058 0.70773768
-0.0046384381 0.02226454 0.7077716
-0.0046363557 0.021327287 0.70771408
-0.0046309265 0.020376116 0.70756412
-0.0046260282 0.019429356 0.70742875
-0.0046216003 0.01848641 0.70730644
-0.0046176105 0.017546922 0.70719624
-0.0046140137 0.016610473 0.70709687
-0.0046109948 0.015677422 0.70701343
-0.0046080803 0.014745861 0.70693302
-0.0046057822 0.01381737 0.70686948
-0.0046036146 0.01289013 0.70680958
-0.0046016485 0.011964291 0.70675528
-0.0046002395 0.011040568 0.7067163
-0.0045988308 0.010117441 0.70667744
-0.0045995992 0.0091992319 0.70669866
-0.0046065669 0.0082918108 0.70689118
-0.0046223039 0.0073957145 0.70732594
-0.0046527777 0.0065138936 0.70816779
-0.0046885293 0.0056262612 0.70915544
-0.0047257813 0.0047257841 0.71018457
-0.0047636288 0.0038108826 0.71123028
-0.0048020729 0.0028812587 0.71229225
-0.0048411577 0.0019364655 0.71337211
-0.0048817177 0.00097638369 0.71449262
-0.0049234028 2.9802322e-08 0.71564424
-0.0049658059 -0.00099316239 0.71681565
-0.0050094179 -0.0020037293 0.71802056
-0.0050544734 -0.0030326545 0.71926522
-0.0051003289 -0.0040802062 0.72053206
-0.0051475051 -0.0051474571 0.72183537
-0.0051963069 -0.0062355399 0.72318357
-0.0052460055 -0.0073444247 0.72455662
-0.0052972301 -0.0084755719 0.72597182
-0.0053502349 -0.0096303821 0.72743613
-0.0054043303 -0.010808676 0.72893059
-0.0054604737 -0.012013048 0.73048162
-0.005518226 -0.013243735 0.73207712
-0.0055774841 -0.014501423 0.73371422
-0.0056391414 -0.015789568 0.73541766
-0.005702286 -0.017106831 0.73716211
-0.005768002 -0.018457592 0.73897755
-0.0058357762 -0.019841611 0.74084997
-0.0059059137 -0.021261245 0.7427876
-0.0059788623 -0.022719651 0.74480289
-0.006054203 -0.024216771 0.74688435
-0.0061327559 -0.025757551 0.74905455
-0.0062141791 -0.027342379 0.75130397
-0.0062990473 -0.028975606 0.75364858
-0.0063874731 -0.030659854 0.75609148
-0.0064801103 -0.032400519 0.75865072
-0.0065769288 -0.034200042 0.76132548
-0.0066780034 -0.036061168 0.76411784
-0.0067847087 -0.037994355 0.7670657
-0.0068969261 -0.040002167 0.77016586
-0.0070154993 -0.042092979 0.77344167
-0.0071411342 -0.044275045 0.77691257
-0.0072746589 -0.046557784 0.78060138
-0.007417229 -0.048953682 0.78454006
-0.0044552698 0.052349448 0.7334823
-0.0042899121 0.049334049 0.72777194
-0.004098821 0.046111763 0.72117293
-0.0040538446 0.044592291 0.71961975
-0.0040359511 0.043386459 0.71900189
-0.0040275613 0.042289436 0.71871209
-0.0040189754 0.041194528 0.71841562
-0.0040091421 0.040091455 0.71807605
-0.0039976896 0.038977504 0.71768051
-0.0039846338 0.037854075 0.71722972
-0.0039698211 0.036720842 0.7167182
-0.0039519509 0.035567582 0.71610105
-0.0039319396 0.034404486 0.71540999
-0.0039090444 0.033226877 0.71461934
-0.0038819879 0.03202644 0.71368504
-0.0038499264 0.030799419 0.71257776
-0.0038129431 0.029550344 0.71130067
-0.0037706187 0.028279692 0.70983911
-0.0037289078 0.027034581 0.7083987
-0.0037075242 0.025952697 0.7076602
-0.0036944554 0.02493757 0.70720893
-0.0036905929 0.023988873 0.70707554
-0.003692036 0.023075223 0.70712537
-0.0036936526 0.022161961 0.70718116
-0.003696051 0.021252304 0.70726407
-0.003696545 0.020331025 0.70728105
-0.0036934116 0.019390434 0.70717287
-0.0036902381 0.018451214 0.70706326
-0.0036873668 0.017515004 0.70696414
-0.0036849796 0.016582429 0.70688164
-0.0036827209 0.015651584 0.70680368
-0.0036808746 0.01472351 0.70673996
-0.003679133 0.013796747 0.70667982
-0.0036777453 0.0128721 0.7066319
-0.0036766198 0.011949033 0.70659304
-0.0036754955 0.011026502 0.70655417
-0.0036747572 0.01010561 0.70652872
-0.0036742126 0.0091855526 0.70650983
-0.0036758247 0.0082706213 0.70656556
-0.0036836218 0.0073672831 0.70683479
-0.0037005809 0.0064760447 0.70742047
-0.0037278212 0.0055917501 0.70836115
-0.0037572563 0.0046966076 0.70937765
-0.0037871604 0.0037871897 0.7104103
-0.0038184016 0.0028638244 0.71148914
-0.0038502875 0.0019251704 0.71259034
-0.0038826976 0.00097069144 0.71370953
-0.0039161607 -0 0.71486515
-0.0039505726 -0.00098761916 0.71605349
-0.0039855819 -0.0019927621 0.71726239
-0.0040216791 -0.0030162632 0.71850902
-0.0040589068 -0.0040588975 0.71979457
-0.0040968163 -0.0051210225 0.72110373
-0.0041358718 -0.0062038004 0.72245246
-0.0041762511 -0.0073084235 0.72384685
-0.0042174268 -0.0084348321 0.72526878
-0.0042601386 -0.0095852911 0.72674376
-0.0043040677 -0.010760188 0.72826076
-0.0043490231 -0.011959791 0.72981322
-0.0043958533 -0.013187528 0.73143047
-0.0044438196 -0.014442414 0.73308682
-0.0044934717 -0.015727103 0.73480147
-0.0045448709 -0.017043233 0.73657644
-0.004597744 -0.018390954 0.73840237
-0.0046529532 -0.019775033 0.74030894
-0.004709654 -0.021193415 0.74226695
-0.0047689392 -0.022652447 0.74431425
-0.004830088 -0.024150431 0.74642593
-0.0048940135 -0.025693536 0.7486335
-0.0049603567 -0.02728191 0.75092459
-0.0050296499 -0.028920472 0.75331748
-0.0051017823 -0.030610651 0.75580841
-0.0051777032 -0.032360613 0.75843018
-0.0052569625 -0.03417024 0.76116735
-0.0053402446 -0.036046624 0.76404327
-0.0054279901 -0.037995905 0.76707345
-0.0055207163 -0.040025175 0.77027553
-0.0056188675 -0.042141497 0.77366507
-0.0057233791 -0.044356167 0.77727419
-0.0058351713 -0.046681345 0.78113467
-0.00595529 -0.049131125 0.78528279
-0.0033115132 0.051880389 0.73210371
-0.0031903738 0.048919111 0.72652596
-0.0030675414 0.046013117 0.72087032
-0.0030546654 0.044801772 0.72027743
-0.0030502477 0.043720245 0.720074
-0.0030455312 0.042637438 0.7198568
-0.0030401866 0.041549236 0.71961069
-0.0030336224 0.040448308 0.7193085
-0.0030266142 0.03934598 0.7189858
-0.0030165652 0.038209856 0.71852303
-0.0030056508 0.037069708 0.71802056
-0.0029935092 0.03592211 0.71746147
-0.0029791452 0.03475672 0.71680009
-0.0029630968 0.033581793 0.71606117
-0.0029454206 0.032399654 0.71524727
-0.0029253233 0.031203449 0.71432191
-0.0029010491 0.02997753 0.71320421
-0.0028738377 0.028738409 0.71195132
-0.0028392675 0.02744627 0.71035951
-0.0027997789 0.026131302 0.70854127
-0.0027726067 0.024953485 0.70729023
-0.0027613225 0.023931503 0.70677066
-0.0027565619 0.022971362 0.70655137
-0.0027582152 0.022065729 0.70662761
-0.0027607926 0.021166116 0.70674622
-0.0027630755 0.020262569 0.70685136
-0.0027642313 0.019349605 0.70690459
-0.0027626564 0.018417746 0.70683205
-0.0027608697 0.017485499 0.7067498
-0.0027592473 0.016555518 0.70667505
-0.0027578571 0.015627891 0.70661104
-0.0027566301 0.014702052 0.70655453
-0.0027556256 0.01377812 0.70650828
-0.0027547833 0.012855649 0.70646954
-0.0027540091 0.011934072 0.70643383
-0.0027535588 0.011014253 0.70641315
-0.0027531509 0.010094881 0.70639437
-0.0027527432 0.0091758072 0.7063756
-0.0027530405 0.0082591176 0.70638931
-0.0027560254 0.0073494315 0.7065267
-0.002763846 0.0064490139 0.70688677
-0.0027789022 0.0055578351 0.70758009
-0.0028014141 0.0046690106 0.70861661
-0.0028242846 0.003765732 0.70966965
-0.002847532 0.0028475523 0.71074009
-0.0028716547 0.0019144416 0.71185082
-0.0028963119 0.00096544623 0.71298611
-0.0029213962 2.9802322e-08 0.71414107
-0.0029473084 -0.00098243356 0.71533418
-0.0029739616 -0.0019826293 0.71656144
-0.0030011013 -0.0030010939 0.71781105
-0.0030290599 -0.0040387511 0.71909839
-0.0030579318 -0.0050965548 0.72042781
-0.0030873597 -0.0061747134 0.72178274
-0.0031178494 -0.0072749555 0.72318673
-0.003149203 -0.0083978474 0.7246303
-0.0031812165 -0.0095436573 0.72610432
-0.0032146054 -0.010715336 0.7276417
-0.0032487975 -0.011912197 0.72921604
-0.0032840387 -0.013136178 0.73083872
-0.0033206337 -0.014389396 0.73252368
-0.0033581671 -0.015671432 0.73425186
-0.0033972834 -0.01698643 0.73605299
-0.003437533 -0.018333465 0.73790622
-0.0034793857 -0.019716471 0.7398333
-0.0035226597 -0.021135926 0.74182582
-0.0035676935 -0.022595376 0.74389941
-0.0036144357 -0.024096191 0.74605161
-0.0036632312 -0.025642604 0.74829835
-0.0037140264 -0.027236164 0.75063717
-0.0037672047 -0.028881878 0.75308573
-0.0038225006 -0.030580014 0.7556318
-0.0038807774 -0.032339752 0.75831509
-0.0039418684 -0.034162879 0.76112801
-0.0040063523 -0.036057144 0.76409709
-0.0040744506 -0.03802821 0.76723266
-0.0041465415 -0.04008323 0.77055204
-0.0042232666 -0.042232633 0.77408475
-0.0043053152 -0.044488221 0.77786267
-0.0043934244 -0.046863198 0.7819196
-0.0044886689 -0.049375355 0.78630501
-0.0021880704 0.051419675 0.73074967
-0.0020640823 0.047473937 0.72218633
-0.0020534291 0.046202153 0.72145057
-0.0020507954 0.045117527 0.72126859
-0.0020486906 0.044046879 0.72112322
-0.0020462165 0.042970568 0.72095239
-0.0020430116 0.04188177 0.72073096
-0.0020390754 0.040781528 0.7204591
-0.0020337419 0.03965798 0.72009075
-0.0020282355 0.038536489 0.71971047
-0.0020214734 0.037397265 0.71924341
-0.0020140808 0.036253452 0.71873283
-0.0020058013 0.035101563 0.71816099
-0.0019959942 0.033931941 0.71748364
-0.0019847581 0.03274855 0.71670765
-0.001972182 0.031554937 0.71583903
-0.0019575518 0.030342072 0.71482861
-0.0019403102 0.02910468 0.71363783
-0.0019212572 0.027858227 0.71232188
-0.0018987909 0.026583105 0.71077019
-0.001870399 0.025250435 0.70880926
-0.0018439863 0.023971826 0.706985
-0.0018350263 0.022937834 0.70636624
-0.0018318332 0.021982014 0.70614564
-0.0018328379 0.021077633 0.70621508
-0.0018350149 0.020185202 0.70636541
-0.0018371914 0.019290507 0.70651579
-0.0018383554 0.018383563 0.70659614
-0.0018376398 0.017457575 0.70654666
-0.0018367092 0.016530395 0.70648247
-0.0018359552 0.015605658 0.70643038
-0.0018353037 0.014682472 0.70638537
-0.0018347716 0.013760775 0.7063486
-0.0018343303 0.01284036 0.70631814
-0.0018340305 0.011921197 0.7062974
-0.001833759 0.01100257 0.70627868
-0.0018335894 0.010084748 0.70626694
-0.0018335894 0.0091679394 0.70626694
-0.0018335837 0.0082511306 0.70626652
-0.0018342114 0.0073368549 0.70630997
-0.0018374865 0.006431222 0.70653617
-0.0018444781 0.0055334568 0.70701903
-0.0018572351 0.0046430826 0.70790011
-0.0018726898 0.0037453771 0.70896745
-0.0018884159 0.0028326213 0.71005368
-0.0019044145 0.0019043982 0.71115863
-0.0019209656 0.00096046925 0.71230173
-0.0019379396 -0 0.71347404
-0.0019552223 -0.00097757578 0.71466768
-0.001973039 -0.001973033 0.71589828
-0.0019914098 -0.0029871166 0.71716708
-0.0020101259 -0.0040202141 0.71845973
-0.0020294881 -0.0050736964 0.71979696
-0.0020494175 -0.0061482191 0.72117347
-0.0020697422 -0.0072440505 0.72257715
-0.0020908855 -0.0083635151 0.72403753
-0.0021125779 -0.0095065832 0.72553575
-0.0021348554 -0.010674268 0.72707433
-0.0021580223 -0.011869103 0.72867441
-0.0021817381 -0.013090402 0.73031235
-0.0022064142 -0.014341682 0.73201668
-0.0022318477 -0.015622914 0.73377323
-0.0022581571 -0.016936153 0.73559034
-0.0022854719 -0.018283755 0.73747683
-0.0023137075 -0.019666493 0.73942703
-0.0023431294 -0.021088153 0.74145907
-0.0023736027 -0.022549212 0.74356377
-0.002405453 -0.024054527 0.74576354
-0.0024385694 -0.025604963 0.74805075
-0.0024732277 -0.027205467 0.75044447
-0.0025094142 -0.028858244 0.75294375
-0.0025473516 -0.030568212 0.75556397
-0.0025872749 -0.032340914 0.75832134
-0.0026292831 -0.034180641 0.76122266
-0.0026736388 -0.036094129 0.76428616
-0.0027207609 -0.038090587 0.76754069
-0.0027708511 -0.040177286 0.77100027
-0.0028244823 -0.04236722 0.77470434
-0.0028821568 -0.044673413 0.77868772
-0.0029446245 -0.047113985 0.78300214
-0.0030126804 -0.049709201 0.78770256
-0.0010844133 0.050967425 0.72942054
-0.0010348891 0.047604889 0.72257972
-0.0010331598 0.046492219 0.72234076
-0.0010324174 0.045426399 0.72223824
-0.0010315651 0.0443573 0.72212052
-0.0010304713 0.043279797 0.72196949
-0.0010289596 0.042187363 0.72176063
-0.0010269202 0.041076839 0.72147894
-0.0010247052 0.039963543 0.72117293
-0.0010221412 0.038841397 0.72081876
-0.0010193421 0.037715703 0.7204321
-0.0010155515 0.03655988 0.71990854
-0.001011407 0.035399258 0.71933597
-0.0010067982 0.034231186 0.7186994
-0.0010016204 0.033053488 0.71798414
-0.00099581492 0.031866074 0.71718228
-0.00098943396 0.030672491 0.71630085
-0.00098181015 0.029454321 0.71524775
-0.00097319327 0.02822262 0.71405745
-0.00096288353 0.02696076 0.71263331
-0.00095128128 0.025684625 0.71103072
-0.00093625649 0.024342716 0.70895523
-0.00091990276 0.022997588 0.70669627
-0.00091486849 0.021956891 0.7060008
-0.00091330073 0.021005958 0.70578432
-0.00091411767 0.020110607 0.70589715
-0.0009154345 0.019224137 0.70607913
-0.00091667887 0.018333584 0.70625097
-0.00091741694 0.017430961 0.70635289
-0.00091708021 0.016507477 0.70630646
-0.00091676926 0.015585095 0.70626348
-0.00091651781 0.014664322 0.70622867
-0.00091632863 0.01374498 0.70620257
-0.00091618462 0.012826622 0.70618266
-0.00091606611 0.011908859 0.70616633
-0.0009160238 0.010992289 0.70616043
-0.0009160238 0.010076314 0.70616043
-0.0009160238 0.0091602802 0.70616049
-0.00091608585 0.0082447827 0.70616907
-0.00091619306 0.0073295534 0.70618385
-0.00091704348 0.0064193308 0.70630133
-0.00091949315 0.0055169761 0.70663965
-0.00092414767 0.0046207309 0.70728266
-0.00093154662 0.0037261844 0.7083047
-0.0009394862 0.0028184652 0.70940143
-0.00094760762 0.0018952191 0.71052325
-0.00095587067 0.00095587969 0.71166468
-0.00096439471 2.9802322e-08 0.71284211
-0.00097317097 -0.00097313523 0.71405435
-0.00098210841 -0.0019641817 0.71528888
-0.00099134038 -0.0029740036 0.71656418
-0.0010008485 -0.0040033758 0.71787751
-0.0010105374 -0.0050526559 0.71921593
-0.0010205944 -0.006123513 0.72060513
-0.0010309286 -0.0072165132 0.72203255
-0.0010415033 -0.0083320141 0.72349334
-0.001052517 -0.0094726384 0.72501463
-0.0010637889 -0.010637879 0.72657168
-0.0010754605 -0.011830062 0.72818398
-0.0010875381 -0.013050437 0.7298522
-0.0010999469 -0.014299273 0.73156631
-0.0011129004 -0.015580595 0.73335558
-0.0011261925 -0.01689288 0.7351917
-0.0011401031 -0.018241614 0.73711318
-0.0011544512 -0.019625634 0.73909509
-0.0011694363 -0.021049857 0.74116504
-0.0011849665 -0.022514343 0.74331033
-0.0012012497 -0.024024993 0.74555957
-0.0012181361 -0.025580853 0.74789208
-0.0012358995 -0.027189791 0.75034583
-0.0012544583 -0.028852522 0.75290942
-0.001274014 -0.030576348 0.7556107
-0.001294623 -0.03236562 0.75845748
-0.0013163581 -0.034225315 0.76145983
-0.0013394144 -0.036164165 0.76464462
-0.001363993 -0.038191795 0.7680397
-0.001390309 -0.040318936 0.77167487
-0.0014185666 -0.042556971 0.77557814
-0.0014491467 -0.044923544 0.77980226
-0.0014827432 -0.047447771 0.78444302
0 0.049085081 0.7238884
0 0.047837317 0.72327751
0 0.046779007 0.72322124
0 0.045717329 0.72315156
0 0.04464817 0.72305477
0 0.043567717 0.72291625
0 0.042466521 0.72270119
0 0.041360736 0.72245944
0 0.040254116 0.72220206
0 0.039124995 0.72184968
0 0.037982821 0.72142941
0 0.036837459 0.72097373
0 0.035679817 0.72044319
0 0.034514874 0.71985197
0 0.033340603 0.71918607
0 0.032154948 0.71842921
0 0.03096351 0.71759754
0 0.029751122 0.71661443
0 0.028523833 0.71549213
0 0.027292043 0.71426761
0 0.026032597 0.71281099
0 0.024738014 0.71105546
0 0.023400337 0.70892149
0 0.02202782 0.70640922
0 0.020988405 0.70567906
0 0.020047694 0.70550215
0 0.019156992 0.70563728
0 0.018275708 0.70585096
0 0.017389506 0.70605183
0 0.016485304 0.70613635
0 0.015566051 0.70610869
0 0.014647931 0.70608723
0 0.013730288 0.7060678
0 0.012813985 0.70605808
0 0.011898339 0.70605415
0 0.01098305 0.70605415
0 0.010068089 0.70605803
0 0.0091539025 0.70607287
0 0.0082394779 0.70608759
0 0.0073252618 0.70610982
0 0.0064123571 0.706164
0 0.005504936 0.70636231
0 0.004604131 0.70682216
0 0.0037086904 0.7076993
0 0.0028052628 0.70879179
0 0.0018865168 0.70991999
0 0.00095161796 0.711079
0 2.9802322e-08 0.71225929
0 -0.00096896291 0.71347708
0 -0.001956135 0.71473122
0 -0.0029619336 0.71600956
0 -0.0039875805 0.71733165
0 -0.0050337613 0.71869326
0 -0.0061008334 0.72008258
0 -0.0071910024 0.72153038
0 -0.0083042383 0.72301328
0 -0.0094416142 0.72453874
0 -0.010605574 0.72612578
0 -0.011795521 0.72775006
0 -0.013014942 0.72944349
0 -0.014263362 0.7311846
0 -0.015543908 0.73299402
0 -0.016857833 0.73486894
0 -0.018207014 0.73681426
0 -0.019594163 0.73883927
0 -0.021021426 0.74094683
0 -0.022491038 0.74314088
0 -0.024006903 0.74543494
0 -0.025571525 0.74783081
0 -0.027190447 0.75035006
0 -0.028865904 0.75298983
0 -0.030605555 0.75577891
0 -0.032413989 0.75872487
0 -0.034298152 0.7618469
0 -0.036268234 0.76517701
0 -0.038333476 0.76873875
0 -0.04050678 0.7725696
0 -0.042809576 0.77674115
0 -0.045258969 0.78129691
0 -0.047891855 0.78636014
0.0010473167 0.0492239 0.72429633
0.0010458177 0.048107654 0.72408926
0.0010454832 0.047046751 0.72404301
0.0010451488 0.045986563 0.72399688
0.0010447634 0.044924825 0.72394365
0.0010435755 0.043830186 0.72377956
0.001042215 0.042730838 0.72359163
0.0010408582 0.041634381 0.72340417
0.0010387822 0.040512502 0.72311747
0.0010363858 0.039382666 0.72278643
0.0010335619 0.038241804 0.72239637
0.0010305427 0.03709957 0.72197932
0.0010271969 0.035951912 0.72151715
0.0010229746 0.034781158 0.72093385
0.0010182706 0.033602983 0.7202841
0.0010130709 0.032418281 0.71956587
0.0010073064 0.031226486 0.71876961
0.0010009564 0.030028731 0.71789241
0.00099365227 0.028815955 0.71688348
0.00098495441 0.027578741 0.71568203
0.00097527402 0.026332408 0.71434486
0.00096472015 0.025082767 0.71288705
0.00095093454 0.023773372 0.7109828
0.00093475863 0.022434205 0.70874834
0.00091502327 0.021045536 0.70602226
0.00091034855 0.020027667 0.70537657
0.00090961345 0.019101918 0.705275
0.00091108197 0.018221617 0.70547789
0.00091264769 0.017340302 0.70569414
0.00091425533 0.016456604 0.70591617
0.00091466308 0.015549302 0.70597249
0.00091455894 0.01463297 0.70595813
0.00091449713 0.013717473 0.70594954
0.00091448869 0.012802839 0.70594847
0.00091451395 0.011888683 0.70595193
0.00091458712 0.010975033 0.70596206
0.00091469678 0.010061711 0.70597714
0.00091482623 0.0091482699 0.70599508
0.00091502327 0.0082352161 0.70602226
0.00091522041 0.007321775 0.7060495
0.00091546832 0.006408304 0.70608377
0.00091628911 0.0054977536 0.70619708
0.00091868651 0.0045934618 0.70652831
0.00092340738 0.0036936402 0.70718038
0.00093102752 0.0027931333 0.708233
0.00093920436 0.0018784106 0.70936251
0.00094762578 0.00094762444 0.71052575
0.00095631019 -0 0.71172535
0.00096515537 -0.00096511841 0.71294713
0.00097427727 -0.0019485354 0.71420717
0.00098369038 -0.002951026 0.71550739
0.00099328731 -0.0039731264 0.71683306
0.0010032456 -0.0050162077 0.71820867
0.0010134819 -0.0060808659 0.71962261
0.0010239537 -0.0071676672 0.7210691
0.0010348926 -0.008279115 0.72258019
0.0010460716 -0.0094146132 0.72412431
0.0010576638 -0.010576606 0.72572565
0.0010696506 -0.011766106 0.72738135
0.0010819987 -0.012983978 0.72908711
0.001094869 -0.014233291 0.73086488
0.0011081235 -0.015513718 0.73269576
0.0011219863 -0.016829759 0.73461062
0.0011362828 -0.018180519 0.7365855
0.0011513005 -0.019572079 0.73865986
0.001166821 -0.021002769 0.74080384
0.0011831281 -0.022479415 0.74305642
0.0012001153 -0.024002284 0.74540281
0.0012179863 -0.025577724 0.74787146
0.0012367835 -0.027209222 0.75046796
0.00125652 -0.028899968 0.75319421
0.0012774013 -0.030657589 0.75607854
0.0012996299 -0.03249073 0.75914907
0.0013232989 -0.034405768 0.76241857
0.0013486224 -0.036412805 0.76591659
0.0013759199 -0.03852573 0.76968718
0.0014055335 -0.040760428 0.77377784
0.0014380472 -0.043141395 0.77826905
0.0014742098 -0.04570052 0.78326428
0.0015152739 -0.048488736 0.78893656
0.002292298 0.055015147 0.7379483
0.0021032402 0.049426168 0.72489077
0.0021027196 0.048362553 0.72485483
0.0021024968 0.04730618 0.72483945
0.0021022661 0.046249866 0.72482347
0.0021009224 0.04516983 0.72473061
0.0020988614 0.044076085 0.72458833
0.0020967969 0.042984337 0.72444582
0.0020939328 0.04187867 0.72424793
0.0020898422 0.040751964 0.72396541
0.0020854094 0.039622784 0.72365928
0.0020805802 0.038490742 0.72332573
0.0020745862 0.037342548 0.72291172
0.0020674544 0.036180496 0.7224192
0.0020596082 0.035013348 0.72187728
0.0020508943 0.033839792 0.72127545
0.0020410838 0.032657355 0.72059786
0.0020300492 0.031465769 0.71983576
0.0020181946 0.030272961 0.71901697
0.0020039293 0.029056966 0.7180317
0.001988434 0.027838081 0.71696156
0.0019715477 0.026615918 0.71579528
0.0019503946 0.02535516 0.71433431
0.001927508 0.024093866 0.71275353
0.0018988091 0.022785753 0.71077144
0.0018626382 0.02142036 0.70827329
0.0018243997 0.020068407 0.70563221
0.0018170982 0.019079566 0.70512807
0.0018166931 0.018166929 0.7051
0.0018201844 0.017291784 0.7053411
0.0018239631 0.016415685 0.70560211
0.0018269941 0.015529454 0.7058115
0.0018274488 0.014619619 0.70584285
0.0018274994 0.013706267 0.70584637
0.0018275724 0.012793034 0.70585138
0.0018277914 0.011880666 0.70586652
0.0018280105 0.010968089 0.70588166
0.001828387 0.010056138 0.70590764
0.0018287805 0.0091439188 0.70593488
0.0018292305 0.0082315505 0.70596588
0.0018297875 0.0073191822 0.70600438
0.0018303507 0.0064062476 0.70604324
0.0018313087 0.0054939389 0.70610946
0.0018345452 0.0045863688 0.70633298
0.0018412237 0.0036824644 0.70679414
0.001854363 0.0027815998 0.70770168
0.0018709874 0.0018709898 0.70884991
0.0018879065 0.00094395876 0.7100184
0.0019053235 2.9802322e-08 0.71122134
0.0019233197 -0.00096163154 0.71246433
0.0019416594 -0.0019416809 0.71373093
0.001960604 -0.0029408932 0.71503937
0.0019801462 -0.0039602816 0.71638918
0.0020000816 -0.005000174 0.71776599
0.0020208689 -0.006062597 0.71920162
0.0020421769 -0.0071476102 0.72067338
0.0020641109 -0.0082564056 0.72218829
0.0020869242 -0.0093911588 0.72376394
0.0021102619 -0.010551304 0.72537577
0.0021346868 -0.011740774 0.72706264
0.0021597543 -0.012958497 0.72879404
0.0021859235 -0.014208496 0.73060143
0.002212957 -0.015490681 0.73246849
0.0022411824 -0.016808808 0.73441792
0.0022704229 -0.018163353 0.73643756
0.0023010152 -0.019558638 0.73855042
0.0023328457 -0.020995557 0.74074882
0.0023663128 -0.022479951 0.74306023
0.002401219 -0.024012178 0.74547112
0.0024381299 -0.025600314 0.74802041
0.002476925 -0.027246177 0.75069988
0.0025179337 -0.028956234 0.75353217
0.0025615364 -0.030738413 0.75654364
0.0026080471 -0.032600582 0.75975597
0.0026577734 -0.034551054 0.76319039
0.0027113722 -0.036603481 0.76689225
0.0027697545 -0.038776547 0.77092457
0.0028339431 -0.041092157 0.77535784
0.0029053153 -0.043579698 0.78028727
0.0029866458 -0.04629302 0.78590441
0.0031812959 0.050900757 0.72610795
0.0031694183 0.049654216 0.72556114
0.0031697 0.048602104 0.72557408
0.0031698351 0.047547549 0.72558028
0.0031695985 0.046487451 0.72556937
0.0031674043 0.045399487 0.72546834
0.0031651009 0.044311434 0.7253623
0.0031623971 0.043219417 0.72523779
0.0031575509 0.042100728 0.72501469
0.0031523297 0.040980309 0.72477424
0.0031461937 0.039851785 0.72449172
0.0031391201 0.03871581 0.72416604
0.0031299249 0.037559092 0.7237426
0.003120041 0.036400497 0.72328752
0.0031092223 0.035237879 0.72278941
0.0030971661 0.034068853 0.72223431
0.0030832093 0.032887578 0.72159171
0.0030673516 0.031695992 0.72086143
0.0030500495 0.030500501 0.72006476
0.0030305104 0.029294968 0.71916521
0.0030078499 0.028073281 0.71812177
0.0029826909 0.026844233 0.71696341
0.0029551669 0.02561146 0.71569598
0.0029227647 0.024356395 0.71420407
0.0028856236 0.023085028 0.71249396
0.0028384998 0.021761835 0.71032423
0.0027783227 0.020374358 0.70755339
0.0027288652 0.019102097 0.70527613
0.0027210671 0.018140435 0.70491707
0.0027233677 0.017248005 0.70502305
0.0027295919 0.016377568 0.70530963
0.002735215 0.015499562 0.70556855
0.0027387836 0.014606863 0.70573282
0.0027392795 0.013696432 0.70575565
0.0027396078 0.012784839 0.70577079
0.0027400958 0.011873782 0.7057932
0.0027406851 0.010962754 0.70582038
0.0027413166 0.010051519 0.70584941
0.0027421338 0.0091404617 0.70588708
0.0027429685 0.0082289577 0.70592546
0.0027439217 0.0073171556 0.70596939
0.0027450023 0.0064050257 0.70601916
0.0027460838 0.0054921806 0.70606893
0.0027487231 0.004581213 0.70619047
0.0027566387 0.0036755502 0.70655495
0.002772331 0.002772361 0.70727748
0.0027959535 0.0018639863 0.7083652
0.0028217835 0.0009405911 0.70955449
0.0028480955 -0 0.71076596
0.0028751525 -0.00095838308 0.71201181
0.0029031634 -0.0019354224 0.7133016
0.0029317255 -0.0029317141 0.71461666
0.0029613168 -0.0039484203 0.71597922
0.0029918125 -0.0049863458 0.71738333
0.0030229839 -0.0060459375 0.71881866
0.0030555753 -0.0071296394 0.72031927
0.003088899 -0.0082370639 0.72185361
0.0031235036 -0.009370476 0.72344697
0.003159273 -0.010530919 0.72509396
0.0031962027 -0.011719376 0.7267943
0.0032347217 -0.012938857 0.72856796
0.0032744326 -0.014189214 0.73039639
0.0033160301 -0.015474796 0.73231173
0.0033589762 -0.01679486 0.73428917
0.0034040231 -0.01815477 0.73636329
0.0034508822 -0.019554973 0.73852086
0.0035000374 -0.021000236 0.74078423
0.0035516873 -0.022493988 0.74316239
0.003605657 -0.024037719 0.74564743
0.0036629152 -0.025640428 0.7482838
0.0037233571 -0.02730459 0.7510668
0.0037874186 -0.02903685 0.75401646
0.0038559211 -0.030847341 0.75717062
0.0039293342 -0.032744437 0.76055086
0.0040086205 -0.034741372 0.76420152
0.0040949276 -0.036854327 0.76817548
0.0041895728 -0.039102703 0.77253336
0.0042958208 -0.041526258 0.77742541
0.0044172211 -0.044172198 0.78301525
0.004561346 -0.047133893 0.78965139
0.004253041 0.051036537 0.7264986
0.004244952 0.04987821 0.7262193
0.0042457096 0.048825681 0.72624552
0.0042461185 0.047768861 0.72625959
0.0042458763 0.04670468 0.72625118
0.00424365 0.045619249 0.72617435
0.0042409264 0.044529736 0.7260803
0.0042371503 0.043430805 0.72594988
0.0042311819 0.042311847 0.72574383
0.0042247055 0.041190892 0.72552007
0.0042174864 0.040066153 0.72527081
0.0042071645 0.03891632 0.72491437
0.0041961824 0.037765682 0.72453523
0.0041840947 0.036610842 0.7241177
0.0041701901 0.035446644 0.72363758
0.0041535473 0.03426677 0.72306287
0.004135354 0.033082843 0.72243458
0.0041153259 0.03189376 0.72174293
0.0040927851 0.030695885 0.72096455
0.0040694037 0.029503196 0.72015703
0.0040403102 0.028282166 0.71915239
0.0040103989 0.027070194 0.71811944
0.0039741443 0.025831968 0.71686745
0.0039343322 0.024589568 0.71549261
0.0038890187 0.023334146 0.71392781
0.0038351312 0.02205202 0.71206689
0.0037664522 0.020715505 0.70969522
0.0036754955 0.019296378 0.70655417
0.003629894 0.018149525 0.70497936
0.0036243976 0.017215908 0.70478958
0.0036306584 0.016337991 0.70500582
0.0036390102 0.015465796 0.70529419
0.0036472778 0.014589161 0.70557976
0.0036501538 0.013688117 0.70567906
0.003650927 0.012778252 0.7057057
0.0036517114 0.011868089 0.70573282
0.003652788 0.010958403 0.70577002
0.0036538874 0.010048211 0.70580792
0.0036551561 0.0091378689 0.70585179
0.0036565491 0.0082272589 0.70589989
0.0036579997 0.0073159933 0.70594996
0.0036595976 0.0064043105 0.70600522
0.0036613322 0.0054920316 0.70606506
0.003663847 0.0045798421 0.7061519
0.0036714231 0.0036714673 0.70641351
0.0036864528 0.0027648509 0.70693254
0.0037153054 0.0018576384 0.70792896
0.0037496886 0.00093746185 0.70911634
0.003785413 -0 0.71035004
0.0038218242 -0.00095543265 0.71160734
0.0038593188 -0.0019296408 0.71290219
0.0038981563 -0.0029236078 0.71424335
0.0039377832 -0.0039377809 0.71561182
0.0039790096 -0.0049737394 0.71703547
0.0040213801 -0.0060320795 0.71849865
0.0040649679 -0.0071136653 0.7200039
0.0041104057 -0.0082207918 0.721573
0.0041569434 -0.0093531013 0.72318012
0.0042056325 -0.010514051 0.7248615
0.004255658 -0.011703044 0.72658902
0.0043080109 -0.012924016 0.72839695
0.0043620039 -0.014176488 0.7302615
0.0044185813 -0.015465051 0.73221534
0.0044771684 -0.016789407 0.73423851
0.0045388192 -0.018155247 0.73636746
0.0046028495 -0.019562095 0.73857868
0.0046705641 -0.021017522 0.74091709
0.0047414154 -0.022521704 0.7433638
0.0048161065 -0.024080515 0.74594307
0.004895363 -0.025700629 0.74868011
0.0049796049 -0.027387798 0.75158924
0.0050692367 -0.029148102 0.75468451
0.005165495 -0.030992955 0.7580086
0.0052695144 -0.032934457 0.76160073
0.005382651 -0.034987241 0.76550776
0.0055078841 -0.037178189 0.76983243
0.0056476779 -0.039533764 0.77465993
0.0058083893 -0.042110801 0.78020984
0.0060020741 -0.045015544 0.78689837
0.0053333291 0.051199943 0.72696906
