# .PCD v0.7 - Point Cloud Data file format
VERSION 0.7
FIELDS x y z
SIZE 4 4 4
TYPE F F F
COUNT 1 1 1
WIDTH 1348
HEIGHT 1
VIEWPOINT 0 0 0 1 0 0 0
POINTS 1348
DATA ascii
0.011524084 0.040974528 0.75650024
0.011462149 0.039480746 0.75554961
0.011400828 0.038002789 0.75460845
0.011340159 0.036540538 0.75367737
0.011280181 0.035093933 0.75275671
0.011220786 0.033662349 0.75184518
0.011162013 0.032245845 0.75094312
0.011103898 0.030844182 0.7500512
0.011046342 0.029456943 0.74916774
0.010989423 0.028084069 0.74829423
0.010933043 0.026725233 0.74742877
0.010877326 0.025380433 0.74657369
0.01082222 0.024049401 0.7457279
0.010767667 0.022731751 0.74489069
0.010713662 0.021427363 0.74406177
0.010660155 0.02013588 0.74324054
0.01060722 0.01885727 0.74242812
0.01055481 0.017591387 0.7416237
0.010502872 0.016337812 0.74082661
0.010451567 0.015096694 0.74003917
0.0104008 0.013867736 0.73926002
0.010350484 0.012650609 0.73848772
0.010300653 0.011445194 0.73772293
0.010251339 0.010251373 0.73696601
0.010202455 0.0090688467 0.73621571
0.010154075 0.0078976452 0.73547316
0.010106111 0.0067374408 0.73473704
0.010058676 0.0055881441 0.73400903
0.010011645 0.0044496655 0.73328722
0.009965091 0.0033217072 0.73257262
0.00991893 0.0022042096 0.73186421
0.0098732309 0.0010970235 0.73116279
0.0098279146 -0 0.73046732
0.0097830482 -0.0010870099 0.72977865
0.0097385552 -0.0021640956 0.7290957
0.0096944999 -0.0032314956 0.72841954
0.009650805 -0.0042892396 0.72774899
0.0096075386 -0.0053375363 0.72708493
0.0095646232 -0.0063764155 0.72642624
0.0095221242 -0.0074060857 0.72577393
0.0094799669 -0.0084266067 0.72512692
0.0094381822 -0.0094381571 0.72448564
0.0093968948 -0.010440975 0.72385192
0.0093559679 -0.011435091 0.72322375
0.0093153631 -0.012420446 0.72260058
0.0092751412 -0.013397396 0.72198319
0.0092352657 -0.014365941 0.72137129
0.0091957003 -0.015326142 0.72076398
0.0091565037 -0.016278237 0.72016239
0.0091176387 -0.017222196 0.71956587
0.0090790726 -0.018158138 0.71897399
0.0090408614 -0.019086242 0.71838748
0.009005364 -0.020011902 0.7178427
0.008987614 -0.02097109 0.7175703
0.0089813406 -0.021954417 0.71747398
0.0089752879 -0.022936821 0.717381
0.0089700231 -0.023920029 0.7173003
0.008966567 -0.024907112 0.71724725
0.0089630848 -0.02589336 0.71719378
0.0089606838 -0.026882023 0.71715689
0.0089597842 -0.027874857 0.71714312
0.0089588845 -0.028867513 0.71712929
0.0089594545 -0.029864848 0.71713805
0.0089611942 -0.030866355 0.71716475
0.0089632347 -0.031869292 0.71719605
0.0089597246 -0.032852322 0.71714222
0.0089365104 -0.03376013 0.71678591
0.0089074839 -0.034640193 0.71634042
0.0088789994 -0.035515994 0.71590322
0.0088307513 -0.036304206 0.71516269
0.0087957541 -0.037137598 0.71462554
0.0087708225 -0.038006902 0.71424294
0.0095084244 -0.042259634 0.7255637
0.0097251441 -0.044303387 0.72888994
0.0099520115 -0.046442717 0.73237193
0.010189716 -0.04868418 0.73602021
0.010439012 -0.051035166 0.73984647
0.010700855 -0.053504258 0.74386525
0.010976173 -0.056100428 0.7480908
0.011265936 -0.058833182 0.75253814
0.011426087 -0.060939133 0.75499618
0.011437464 -0.062270641 0.75517076
0.013684555 0.058843583 0.76865613
0.013605175 0.057141751 0.76755965
0.013526709 0.055459529 0.7664758
0.013449143 0.05379656 0.76540434
0.013372462 0.052152604 0.76434517
0.013296651 0.050527304 0.76329792
0.013221753 0.048920482 0.76226336
0.013147693 0.047331721 0.7612403
0.013074403 0.045760423 0.76022792
0.013002265 0.044207752 0.75923151
0.012930918 0.042672068 0.75824594
0.012860296 0.041152954 0.7572704
0.01279055 0.039650738 0.75630701
0.012721557 0.038164675 0.75535405
0.01265325 0.036694467 0.75441045
0.012585726 0.035240054 0.75347769
0.012518867 0.03380096 0.75255418
0.012452766 0.032377213 0.75164109
0.012387307 0.030968308 0.75073689
0.012322584 0.029574245 0.74984288
0.012258535 0.028194636 0.74895811
0.012195097 0.026829243 0.74808186
0.012132362 0.025478005 0.74721527
0.012070221 0.024140447 0.7463569
0.012008907 0.022816926 0.74550992
0.011948212 0.021506816 0.74467152
0.011888176 0.020209908 0.74384224
0.011828739 0.018925995 0.74302125
0.011769849 0.017654806 0.74220771
0.011711586 0.016396224 0.74140298
0.011653854 0.01515004 0.74060547
0.011596731 0.013916105 0.73981643
0.011540167 0.01269418 0.73903513
0.011484195 0.011484206 0.73826194
0.011428809 0.010285974 0.73749685
0.011373909 0.0090991557 0.73673856
0.011319536 0.0079236925 0.73598748
0.011265722 0.0067594349 0.7352441
0.011212375 0.0056061745 0.7345072
0.011159531 0.0044638216 0.73377723
0.011107266 0.0033322275 0.73305529
0.011055529 0.0022110939 0.73234069
0.011004232 0.0011004508 0.73163211
0.010953448 2.9802322e-08 0.73093057
0.01090313 -0.001090318 0.73023558
0.010853274 -0.0021706223 0.72954684
0.010803832 -0.0032411218 0.72886389
0.010754877 -0.0043019652 0.72818768
0.010706363 -0.0053531528 0.72751755
0.010658247 -0.0063948929 0.72685289
0.0106106 -0.0074274242 0.72619474
0.010563376 -0.0084506869 0.72554243
0.010516572 -0.0094648898 0.72489589
0.010470144 -0.010470122 0.72425455
0.010424159 -0.011466533 0.72361934
0.01037865 -0.012454361 0.72299075
0.010333572 -0.013433635 0.72236806
0.01028892 -0.014404446 0.72175127
0.010244616 -0.015366882 0.72113931
0.010200728 -0.016321152 0.72053307
0.010157179 -0.017267197 0.71993148
0.010114036 -0.018205255 0.71933556
0.010071222 -0.019135326 0.71874416
0.010029716 -0.020059407 0.71817088
0.010007677 -0.021016091 0.71786636
0.01000071 -0.022001565 0.71777016
0.0099941241 -0.022986501 0.7176792
0.009987914 -0.023970991 0.71759343
0.0099841924 -0.024960458 0.71754199
0.0099808751 -0.025950253 0.71749616
0.0099782972 -0.026941359 0.71746057
0.0099778948 -0.027938098 0.71745503
0.0099774254 -0.028934509 0.71744859
0.0099782627 -0.029934794 0.7174601
0.0099805398 -0.030939639 0.71749151
0.0099831196 -0.031945974 0.71752715
0.0099817794 -0.032939851 0.71750867
0.0099581825 -0.033857822 0.71718276
0.009926076 -0.034741253 0.71673918
0.0098943403 -0.035619587 0.71630085
0.0098404195 -0.036409497 0.71555603
0.0098015014 -0.037245661 0.71501839
0.0097685661 -0.038097411 0.71456349
0.010564916 -0.042259634 0.7255637
0.010805716 -0.044303387 0.72888994
0.01105779 -0.046442717 0.73237193
0.011321906 -0.04868418 0.73602021
0.011598902 -0.051035166 0.73984647
0.01188984 -0.053504258 0.74386525
0.012195747 -0.056100428 0.7480908
0.012517707 -0.058833182 0.75253814
0.012655511 -0.060746461 0.75444168
0.012660361 -0.062035739 0.75450867
0.015139252 0.059180766 0.76973915
0.015050448 0.057465374 0.76862395
0.014962612 0.055769801 0.76752096
0.014875794 0.054093838 0.76643074
0.014789978 0.052437186 0.76535308
0.014705212 0.050799847 0.76428866
0.014621348 0.049180925 0.76323551
0.014538434 0.047580361 0.76219434
0.01445652 0.045998037 0.76116574
0.01437546 0.044433266 0.76014781
0.014295491 0.042886466 0.75914359
0.014216407 0.041356862 0.75815046
0.014138378 0.039844543 0.75717056
0.014061321 0.038349062 0.756203
0.013985098 0.036869824 0.7552458
0.013909698 0.03540653 0.75429899
0.013835107 0.033958912 0.7533623
0.013761312 0.032526761 0.75243556
0.013688299 0.03110981 0.75151873
0.013616113 0.029707879 0.75061226
0.013544628 0.028320611 0.74971461
0.013473948 0.026947916 0.74882704
0.013403945 0.025589377 0.74794793
0.013334719 0.024244994 0.74707866
0.013266152 0.022914261 0.74621761
0.013198339 0.021597296 0.74536604
0.013131216 0.020293713 0.74452311
0.013064981 0.01900363 0.74369144
0.012999463 0.017726541 0.74286866
0.012934598 0.016462237 0.7420541
0.012870328 0.01521039 0.74124706
0.012806742 0.013971001 0.74044853
0.012743782 0.012743801 0.73965794
0.012681438 0.011528611 0.73887503
0.012619701 0.010325253 0.73809981
0.012558562 0.0091335475 0.73733205
0.01249806 0.007953316 0.73657227
0.012438092 0.0067844391 0.73581922
0.012378742 0.0056267381 0.73507392
0.012319911 0.0044800043 0.73433518
0.012261681 0.0033440888 0.73360389
0.012203954 0.0022189319 0.73287904
0.012146903 0.0011042953 0.73216259
0.012090428 2.9802322e-08 0.73145342
0.01203452 -0.0010940135 0.7307514
0.011979083 -0.0021780133 0.73005521
0.011924197 -0.0032520294 0.729366
0.011869812 -0.0043162704 0.72868305
0.011815879 -0.0053708255 0.72800577
0.011762476 -0.0064158738 0.72733516
0.01170951 -0.0074515045 0.72667003
0.011657062 -0.0084778666 0.7260114
0.011605041 -0.0094950199 0.72535819
0.011553522 -0.010503173 0.72471118
0.011502459 -0.011502445 0.72407001
0.011451804 -0.012492865 0.72343391
0.011401634 -0.013474643 0.72280389
0.01135198 -0.014447957 0.72218031
0.011302679 -0.015412718 0.72156119
0.011253959 -0.016369402 0.72094947
0.011205657 -0.017317832 0.72034287
0.011157731 -0.018258095 0.71974111
0.011110249 -0.019190401 0.71914476
0.011063807 -0.020116001 0.71856159
0.011035666 -0.021068096 0.71820819
0.011026887 -0.022053748 0.71809804
0.011020312 -0.02304244 0.71801543
0.011013744 -0.02402997 0.71793294
0.011009963 -0.025022626 0.71788549
0.011006297 -0.026014864 0.71783942
0.011003002 -0.027007312 0.71779805
0.01100315 -0.028008014 0.7177999
0.011003409 -0.029008985 0.71780324
0.011004594 -0.030012488 0.71781802
0.011007815 -0.031022012 0.71785843
0.011011038 -0.032032102 0.71789896
0.011011668 -0.03303498 0.71790683
0.010990139 -0.033969492 0.71763653
0.010954955 -0.034856647 0.71719474
0.010920214 -0.035738856 0.71675837
0.01086202 -0.036535859 0.71602768
0.010817374 -0.037369102 0.71546698
0.01077675 -0.038208455 0.71495688
0.011621407 -0.042259634 0.7255637
0.011886287 -0.044303387 0.72888994
0.012163569 -0.046442717 0.73237193
0.012454097 -0.04868418 0.73602021
0.012758792 -0.051035166 0.73984647
0.013078824 -0.053504258 0.74386525
0.013415323 -0.056100428 0.7480908
0.013769478 -0.058833182 0.75253814
0.013872243 -0.060533434 0.75382864
0.013868244 -0.061776698 0.7537784
0.016675834 0.059755087 0.77158415
0.01652457 0.057836056 0.76984298
0.016426757 0.056124777 0.76871705
0.016330242 0.05443418 0.76760602
0.016234783 0.052763045 0.76650727
0.016140504 0.051111639 0.76542199
0.016047243 0.049479038 0.76434845
0.015955124 0.047865421 0.76328802
0.015863987 0.046270013 0.76223898
0.015773956 0.044692874 0.76120257
0.015684869 0.043133408 0.76017714
0.015596854 0.041591644 0.75916398
0.01550982 0.040067017 0.75816214
0.015423951 0.038559884 0.75717372
0.015339159 0.037069649 0.75619769
0.015255363 0.035595834 0.75523305
0.015172604 0.034138352 0.75428045
0.015090737 0.032696635 0.75333798
0.015009814 0.031270474 0.75240648
0.01492969 0.029859394 0.75148427
0.014850418 0.028463334 0.75057167
0.014772044 0.027082086 0.74966955
0.014694434 0.025715262 0.7487762
0.014617634 0.024362743 0.74789214
0.01454175 0.023024499 0.74701858
0.014466709 0.021700084 0.74615479
0.01439244 0.020389318 0.74529988
0.014318929 0.019091934 0.74445367
0.014246164 0.017807752 0.7436161
0.014174136 0.016536534 0.742787
0.014103055 0.015278339 0.74196869
0.014032739 0.014032751 0.74115932
0.013963175 0.012799591 0.74035859
0.013894243 0.01157856 0.73956513
0.013825989 0.010369509 0.73877943
0.013758401 0.0091722906 0.73800147
0.013691525 0.0079867542 0.73723161
0.013625243 0.0068126619 0.73646867
0.013559651 0.0056498647 0.7357136
0.013494687 0.0044982433 0.7349658
0.013430293 0.0033575892 0.73422456
0.01336656 0.0022277832 0.73349094
0.01330338 0.0011086464 0.73276365
0.013240843 -0 0.7320438
0.013178892 -0.0010982156 0.73133063
0.01311771 -0.0021862686 0.7306264
0.013057142 -0.0032642484 0.72992921
0.01299713 -0.0043323338 0.72923833
0.01293762 -0.0053906441 0.72855341
0.012878699 -0.006439358 0.72787511
0.012820314 -0.0074784756 0.72720307
0.012762454 -0.0085082948 0.72653699
0.012705115 -0.0095288157 0.72587693
0.012648288 -0.010540247 0.72522283
0.012591924 -0.011542588 0.72457403
0.012536103 -0.012536079 0.72393149
0.012480775 -0.013520807 0.72329456
0.012425933 -0.014496893 0.72266328
0.012371571 -0.015464455 0.72203755
0.012317641 -0.016423494 0.72141677
0.012264347 -0.017374486 0.72080326
0.012211596 -0.018317372 0.72019601
0.012159254 -0.019252121 0.71959352
0.012107401 -0.020178974 0.71899664
0.012071608 -0.021125287 0.71858466
0.012060878 -0.022111565 0.71846116
0.012054197 -0.023103863 0.71838421
0.012047605 -0.024095178 0.71830833
0.012043661 -0.025090963 0.71826291
0.012040369 -0.026087463 0.71822506
0.012037081 -0.027083427 0.71818721
0.012037283 -0.02808699 0.71818954
0.012037649 -0.029090971 0.71819371
0.012039394 -0.030098498 0.7182138
0.012043905 -0.031113416 0.71826577
0.012048459 -0.032129198 0.7183181
0.012052325 -0.033143908 0.71836269
0.0120329 -0.034093231 0.71813905
0.01199448 -0.034983903 0.71769679
0.011955223 -0.035865635 0.71724486
0.011916779 -0.036743402 0.71680236
0.011844087 -0.037506282 0.71596563
0.011797533 -0.038341999 0.71542972
0.012677899 -0.042259634 0.7255637
0.012966859 -0.044303387 0.72888994
0.013269348 -0.046442717 0.73237193
0.013586287 -0.04868418 0.73602021
0.013918683 -0.051035166 0.73984647
0.014267808 -0.053504258 0.74386525
0.014634837 -0.05610019 0.74809015
0.015021249 -0.058833182 0.75253814
0.015077031 -0.060308099 0.75318021
0.015059471 -0.061492801 0.75297809
0.018036665 0.058272302 0.7712779
0.017927436 0.0565404 0.77011734
0.017819522 0.054829299 0.76897067
0.017712818 0.053138465 0.76783687
0.017607706 0.0514687 0.76672
0.017504547 0.049820632 0.76562387
0.017402511 0.048191577 0.76453972
0.017301736 0.046581596 0.76346886
0.017202044 0.044990003 0.76240957
0.017103495 0.043416589 0.76136237
0.017006144 0.041861296 0.76032805
0.016909819 0.040323436 0.75930458
0.01681458 0.038802892 0.75829256
0.01672041 0.037299365 0.75729191
0.016627502 0.035813123 0.75630468
0.01653569 0.034343362 0.75532919
0.016445236 0.032890499 0.75436807
0.016355839 0.03145358 0.75341809
0.016267404 0.030032128 0.75247848
0.016179923 0.028626025 0.75154901
0.016093377 0.027234942 0.75062937
0.01600782 0.025858819 0.74972022
0.0159231 0.024497122 0.74882001
0.015839336 0.023149818 0.74792999
0.015756389 0.021816581 0.74704868
0.015674366 0.020497292 0.74617708
0.015593193 0.019191653 0.7453146
0.015513169 0.017899811 0.74446422
0.015433961 0.016621202 0.74362266
0.015355558 0.015355557 0.74278957
0.015277888 0.014102668 0.74196422
0.015201058 0.012862474 0.74114788
0.015125116 0.011634737 0.74034095
0.015050046 0.010419279 0.73954332
0.01497566 0.009215802 0.7387529
0.014902005 0.0080241859 0.73797029
0.014829129 0.0068442523 0.73719597
0.014756905 0.0056757629 0.7364285
0.014685549 0.0045186281 0.73567033
0.014614879 0.003372699 0.73491943
0.014544887 0.0022376776 0.73417568
0.01447556 0.001113534 0.73343903
0.014406892 -0 0.73270947
0.014338873 -0.001102984 0.73198664
0.014271493 -0.0021955967 0.73127067
0.014204744 -0.0032779872 0.73056149
0.014138615 -0.0043503344 0.72985888
0.014073355 -0.005412817 0.72916538
0.014008696 -0.0064655244 0.72847837
0.013944678 -0.0075086653 0.72779816
0.013881243 -0.0085422695 0.72712409
0.013818332 -0.0095665157 0.72645557
0.013756039 -0.010581553 0.72579372
0.013694304 -0.011587471 0.72513771
0.013633072 -0.012584358 0.72448719
0.013572435 -0.013572454 0.7238428
0.013512286 -0.014551699 0.72320372
0.013452715 -0.015522361 0.72257072
0.013393668 -0.016484469 0.72194332
0.013335089 -0.017438203 0.72132087
0.013277068 -0.018383592 0.72070432
0.013219548 -0.019320846 0.72009313
0.013162659 -0.020250231 0.71948868
0.013118799 -0.021191865 0.71902263
0.013104081 -0.022176147 0.71886629
0.013097068 -0.023171723 0.71879172
0.013090017 -0.024166167 0.71871686
0.013086029 -0.025165409 0.71867448
0.013083461 -0.026166886 0.71864718
0.013080849 -0.027167886 0.71861941
0.013081469 -0.028175473 0.71862602
0.013082797 -0.029184699 0.71864009
0.013084169 -0.030194223 0.71865469
0.013090284 -0.03121531 0.71871966
0.01309658 -0.032237679 0.71878654
0.013102571 -0.033260345 0.71885026
0.013090992 -0.034237981 0.71872717
0.013048973 -0.035131842 0.71828067
0.013007354 -0.036020368 0.71783847
0.012966 -0.036903203 0.71739906
0.012887811 -0.037672043 0.71656823
0.012832629 -0.038497865 0.7159819
0.012874421 -0.039613605 0.71642601
0.014047431 -0.044303387 0.72888994
0.014375127 -0.046442717 0.73237193
0.014718479 -0.04868418 0.73602021
0.015078573 -0.051035166 0.73984647
0.015456792 -0.053504258 0.74386525
0.015854407 -0.05610019 0.74809015
0.016203929 -0.058583409 0.75180399
0.016264599 -0.060053885 0.75244862
0.01623523 -0.06119433 0.75213665
0.019471062 0.057022452 0.77174127
0.019351603 0.055290312 0.77056265
0.019233603 0.05357936 0.76939839
0.019117033 0.051889092 0.76824826
0.019001868 0.050219238 0.7671119
0.018888164 0.04856956 0.76599008
0.018775817 0.046939552 0.76488155
0.018665383 0.045330256 0.76379192
0.018556572 0.043740511 0.76271832
0.018449103 0.042169392 0.76165795
0.018342951 0.040616572 0.76061058
0.018237935 0.039081305 0.75957447
0.018134195 0.037563711 0.75855094
0.018031627 0.036063254 0.75753891
0.017930135 0.034579575 0.75653756
0.017829858 0.033112615 0.75554818
0.01773092 0.031662345 0.75457197
0.017633375 0.030228645 0.75360954
0.017536821 0.028810531 0.75265682
0.017441759 0.02740851 0.75171894
0.017347649 0.02602151 0.75079036
0.01725455 0.024649352 0.74987185
0.017162515 0.023292035 0.74896371
0.017071387 0.021948904 0.74806458
0.016981291 0.020620137 0.74717563
0.016892141 0.019305319 0.74629605
0.016803989 0.018004268 0.7454263
0.016716819 0.016716838 0.7445662
0.016630549 0.015442699 0.74371499
0.016545231 0.014181614 0.74287325
0.01646111 0.012933761 0.7420432
0.016377905 0.011698514 0.74122226
0.016295535 0.010475755 0.74040949
0.016213927 0.0092651248 0.73960435
0.016133197 0.0080666244 0.7388078
0.016053202 0.0068799555 0.73801857
0.015974119 0.0057050884 0.73723829
0.015895752 0.0045416653 0.73646504
0.01581821 0.0033895969 0.73569995
0.015741361 0.0022487938 0.73494172
0.015665492 0.0011189878 0.73419309
0.015590467 2.9802322e-08 0.73345286
0.015516099 -0.0011082888 0.73271912
0.015442492 -0.0022060573 0.7319929
0.015369584 -0.0032934844 0.73127353
0.01529736 -0.0043706596 0.73056096
0.015225811 -0.0054377615 0.72985494
0.015154928 -0.0064949393 0.72915566
0.015084703 -0.0075423419 0.72846276
0.015015287 -0.0085801482 0.72777778
0.014946508 -0.0096084774 0.72709918
0.01487841 -0.010627419 0.72642726
0.014811033 -0.011637241 0.72576255
0.014744265 -0.012637913 0.72510374
0.014678096 -0.013629645 0.72445083
0.014612518 -0.014612496 0.72380382
0.014547524 -0.015586615 0.72316253
0.014483104 -0.01655212 0.72252697
0.014419254 -0.017509073 0.72189701
0.014355963 -0.018457651 0.72127247
0.014293226 -0.019397914 0.72065347
0.014231035 -0.020330042 0.72003984
0.014178116 -0.021267176 0.71951777
0.014157531 -0.022247553 0.71931469
0.014150746 -0.023247629 0.71924764
0.014144064 -0.024246961 0.71918178
0.014139021 -0.02524823 0.71913201
0.014136764 -0.026253968 0.71910971
0.014135133 -0.027260602 0.71909368
0.014136236 -0.02827245 0.71910453
0.014138972 -0.029287845 0.71913153
0.014141758 -0.030303746 0.71915901
0.014148101 -0.031327933 0.71922165
0.014156424 -0.032357544 0.71930373
0.014164755 -0.033388317 0.71938586
0.014157482 -0.034382463 0.71931422
0.014117974 -0.03529489 0.71892434
0.014070977 -0.036182523 0.71846068
0.01402467 -0.037065178 0.71800375
0.013941782 -0.037841976 0.71718591
0.013885523 -0.03868106 0.71663082
0.013877516 -0.039650023 0.71655184
0.015128003 -0.044303387 0.72888994
0.015480906 -0.046442717 0.73237193
0.015850667 -0.04868418 0.73602021
0.016238462 -0.051035166 0.73984647
0.016645774 -0.053504258 0.74386525
0.017073978 -0.05610019 0.74809015
0.017365087 -0.058297038 0.75096244
0.017420596 -0.059727728 0.75151008
0.017400574 -0.060901999 0.75131261
0.021100454 0.057674617 0.77393854
0.020935869 0.055828989 0.77242285
0.02080377 0.054089814 0.77120638
0.020674478 0.052375346 0.77001584
0.020547349 0.050683469 0.76884508
0.020421775 0.049012274 0.76768863
0.020297725 0.047361404 0.76654637
0.020175174 0.045730382 0.76541781
0.020054094 0.04411903 0.76430273
0.019934459 0.042526871 0.76320106
0.019816419 0.040953994 0.76211405
0.019700378 0.039400756 0.76104546
0.019586202 0.037866652 0.75999403
0.019473344 0.03635025 0.75895476
0.019361779 0.034851193 0.7579273
0.019251484 0.033369273 0.75691164
0.019142522 0.03190425 0.75590819
0.019034704 0.03045553 0.75491536
0.018928252 0.029023319 0.75393504
0.018823147 0.027607292 0.75296724
0.018719358 0.026207119 0.75201136
0.018617174 0.024822891 0.75107044
0.018516099 0.023453772 0.75013959
0.018416118 0.022099346 0.74921888
0.018317282 0.020759612 0.74830866
0.018219577 0.019434273 0.74740893
0.018122839 0.018122882 0.74651814
0.01802719 0.016825408 0.7456373
0.017932549 0.015541583 0.74476576
0.017839182 0.014271379 0.74390596
0.017746922 0.013014436 0.74305636
0.017655682 0.011770487 0.74221611
0.017565304 0.010539174 0.74138391
0.017475849 0.0093204975 0.74056005
0.01738764 0.0081142485 0.73974776
0.017300382 0.0069201589 0.73894423
0.017213929 0.0057379901 0.73814809
0.017128402 0.0045675635 0.73736054
0.017043721 0.00340873 0.73658073
0.016960002 0.0022613704 0.73580974
0.016877038 0.0011251569 0.73504567
0.016794944 2.9802322e-08 0.73428971
0.016713584 -0.0011142492 0.73354048
0.016633069 -0.00221771 0.73279905
0.01655351 -0.0033106804 0.73206639
0.016474891 -0.0043933094 0.73134243
0.016397076 -0.0054656863 0.73062587
0.016319994 -0.0065279901 0.72991598
0.016243573 -0.0075803101 0.72921222
0.016167922 -0.0086228848 0.72851562
0.016092973 -0.0096557736 0.7278254
0.016018659 -0.010679096 0.72714102
0.015945084 -0.01169306 0.72646344
0.015872126 -0.012697697 0.72579169
0.015799945 -0.013693273 0.72512692
0.015728582 -0.014679998 0.72446978
0.015657974 -0.015657961 0.72381949
0.015587995 -0.016627163 0.72317511
0.015518638 -0.017587811 0.72253639
0.015449896 -0.018539846 0.72190338
0.015381761 -0.019483536 0.72127593
0.015314172 -0.020418882 0.72065347
0.0152503 -0.021350414 0.72006536
0.015222199 -0.022325873 0.71980655
0.015215606 -0.023330599 0.71974576
0.015209639 -0.024335414 0.71969092
0.015204456 -0.025340736 0.71964312
0.015202746 -0.026351422 0.71962738
0.015201192 -0.027362108 0.71961308
0.015202953 -0.028378874 0.71962935
0.015207565 -0.029401273 0.71967179
0.015212181 -0.030424356 0.71971428
0.015219291 -0.031453162 0.71977973
0.015229788 -0.032490194 0.71987647
0.015240557 -0.033529222 0.71997565
0.01524462 -0.034554452 0.72001302
0.015206943 -0.035482854 0.71966612
0.015157547 -0.036378115 0.71921116
0.015108624 -0.037267953 0.71876061
0.01501758 -0.038044482 0.71792227
0.014954399 -0.038881421 0.71734035
0.01491934 -0.039784878 0.71701753
0.016208574 -0.044303387 0.72888994
0.016586686 -0.046442717 0.73237193
0.016982859 -0.04868418 0.73602021
0.017398354 -0.051035166 0.73984647
0.01783476 -0.053504258 0.74386525
0.018293547 -0.05610019 0.74809015
0.018508572 -0.057993531 0.75007033
0.018543115 -0.059337944 0.75038838
0.018575236 -0.060679078 0.75068414
0.022599079 0.056497723 0.77473217
0.022442186 0.054702848 0.77337766
0.022297794 0.052957267 0.77213109
0.022155354 0.051234305 0.77090132
0.022014719 0.049533159 0.76968724
0.02187576 0.047853231 0.76848757
0.021738941 0.046195269 0.76730633
0.021605391 0.044561148 0.76615334
0.021473572 0.042947143 0.7650153
0.021343254 0.04135254 0.76389027
0.021214603 0.039777428 0.76277959
0.021087397 0.038220912 0.76168138
0.020961804 0.036683172 0.76059711
0.02083797 0.035164088 0.75952804
0.020716403 0.033664197 0.75847846
0.020596424 0.032181948 0.75744265
0.020478092 0.030717164 0.75642109
0.020361111 0.029269129 0.75541115
0.020245459 0.027837545 0.75441265
0.020131113 0.026422113 0.75342548
0.020018052 0.025022566 0.75244933
0.019906672 0.023639202 0.75148785
0.01979685 0.022271454 0.75053972
0.019688154 0.020918667 0.7496013
0.01958113 0.019581139 0.74867731
0.019475341 0.018258154 0.74776399
0.019370766 0.016949445 0.74686122
0.019267233 0.015654624 0.74596739
0.019164877 0.01437366 0.74508369
0.019063758 0.013106316 0.74421066
0.018963698 0.011852324 0.74334681
0.018864682 0.010611385 0.74249202
0.018766845 0.00938344 0.74164736
0.018670527 0.0081683993 0.74081582
0.018575195 0.0069657564 0.7399928
0.018480832 0.0057752728 0.73917818
0.018387422 0.004596889 0.73837161
0.018294882 0.0034303069 0.73757279
0.018203476 0.0022754669 0.73678362
0.018112982 0.0011321008 0.73600233
0.018023312 -0 0.73522818
0.017934998 -0.0011209249 0.73446578
0.017847549 -0.0022309422 0.73371077
0.017760945 -0.0033301711 0.73296314
0.017675245 -0.0044188201 0.73222327
0.017590303 -0.005496949 0.7314899
0.017506173 -0.006564796 0.73076355
0.017422909 -0.0076224804 0.73004472
0.017340621 -0.0086703002 0.72933435
0.017259233 -0.0097083449 0.72863168
0.017178668 -0.010736644 0.72793609
0.01709885 -0.011755437 0.72724706
0.017019831 -0.012764841 0.72656482
0.01694148 -0.013764948 0.72588849
0.016863907 -0.014755875 0.72521871
0.016786981 -0.015737772 0.7245546
0.016710812 -0.016710788 0.72389698
0.016635332 -0.017675042 0.72324532
0.016560761 -0.018630862 0.72260159
0.016486971 -0.019578248 0.72196448
0.01641389 -0.020517319 0.72133356
0.016342465 -0.021449447 0.72071695
0.01630204 -0.02241531 0.72036797
0.016293222 -0.023421496 0.72029185
0.016287867 -0.024431765 0.7202456
0.016282853 -0.025441915 0.72020227
0.016282517 -0.026459068 0.72019941
0.016282294 -0.02747637 0.72019744
0.016283186 -0.02849555 0.72020519
0.016290152 -0.029525906 0.72026533
0.016297128 -0.030557096 0.72032559
0.016305728 -0.031592369 0.7203998
0.016318701 -0.032637417 0.72051179
0.016332984 -0.033686757 0.72063512
0.016344823 -0.034732759 0.72073734
0.016316297 -0.035691887 0.72049105
0.016261872 -0.036589175 0.72002119
0.016206928 -0.037478507 0.71954679
0.016112264 -0.038266629 0.71872956
0.016043002 -0.039104789 0.7181316
0.015987536 -0.039968818 0.71765274
0.017289145 -0.044303387 0.72888994
0.017692465 -0.046442717 0.73237193
0.018115049 -0.04868418 0.73602021
0.018558243 -0.051035166 0.73984647
0.019023743 -0.053504258 0.74386525
0.019513117 -0.05610019 0.74809015
0.019625062 -0.057648599 0.74905664
0.019635914 -0.058907747 0.74915028
0.024169587 0.055447906 0.77601653
0.024006391 0.053661376 0.77469051
0.023845384 0.051898807 0.77338219
0.023686411 0.050159514 0.77209044
0.023530968 0.048446149 0.77082753
0.023379067 0.046758145 0.76959318
0.023229219 0.045092046 0.76837558
0.023081278 0.043447167 0.76717353
0.022935109 0.041822851 0.76598585
0.022790883 0.040219247 0.7648139
0.022649573 0.038637489 0.76366568
0.022510907 0.037076831 0.76253897
0.022374226 0.035535544 0.76142842
0.022239096 0.034012765 0.76033038
0.022105686 0.032508373 0.75924641
0.021973772 0.031021804 0.75817454
0.02184399 0.029553622 0.75712001
0.021716103 0.028103173 0.75608087
0.021590719 0.026670933 0.75506204
0.021466777 0.025255054 0.75405496
0.021344157 0.023855239 0.75305861
0.021223022 0.022471458 0.7520743
0.021103341 0.021103323 0.75110191
0.020985087 0.019750684 0.75014102
0.020868152 0.018413067 0.74919087
0.020753622 0.017091215 0.74826026
0.020640258 0.015783757 0.74733913
0.020528123 0.014490455 0.74642801
0.020417452 0.01321131 0.7455287
0.020307964 0.011945903 0.74463904
0.020199643 0.010693938 0.74375892
0.020092474 0.0094552934 0.74288809
0.019986991 0.0082299411 0.74203104
0.019882685 0.0070174336 0.74118352
0.019779541 0.0058175027 0.74034536
0.019677382 0.0046299994 0.7395153
0.019576579 0.003454715 0.73869622
0.019477103 0.002291441 0.73788798
0.019378558 0.0011399388 0.73708719
0.019281153 2.9802322e-08 0.73629576
0.019184794 -0.0011284947 0.73551279
0.019089395 -0.0022457838 0.73473763
0.018994939 -0.0033520162 0.73397017
0.018901413 -0.0044473708 0.73321021
0.018808944 -0.0055320263 0.73245883
0.018717859 -0.0066062808 0.73171878
0.018627655 -0.0076701939 0.73098576
0.018538311 -0.0087239146 0.73025984
0.018449826 -0.0097675323 0.72954088
0.018362178 -0.010801256 0.72882867
0.01827536 -0.011825204 0.72812319
0.018189358 -0.012839496 0.72742444
0.018104292 -0.01384446 0.72673321
0.018020274 -0.014840215 0.72605062
0.017937163 -0.015826851 0.72537518
0.017854875 -0.016804576 0.72470659
0.017773276 -0.017773271 0.72404355
0.017692421 -0.018733144 0.72338659
0.017612359 -0.019684404 0.72273606
0.017532958 -0.020626992 0.7220909
0.01745433 -0.021561205 0.721452
0.017399665 -0.022517174 0.72100782
0.017385842 -0.023522019 0.72089553
0.017380761 -0.024537534 0.72085422
0.017376998 -0.025554389 0.72082365
0.017377179 -0.026576847 0.72082514
0.01737891 -0.027601808 0.7208392
0.017380703 -0.028627038 0.72085375
0.017388772 -0.029663175 0.72091931
0.017398765 -0.030703694 0.72100049
0.017409012 -0.031745791 0.7210837
0.017425211 -0.032800376 0.72121537
0.017444031 -0.033861935 0.72136831
0.017461743 -0.034923434 0.7215122
0.017449029 -0.035924464 0.72140896
0.017394995 -0.036836445 0.72096986
0.017338146 -0.037735939 0.72050792
0.017281665 -0.038629591 0.72004902
0.017160535 -0.039368272 0.71906477
0.017087052 -0.040204823 0.71846771
0.018369718 -0.044303387 0.72888994
0.018798243 -0.046442717 0.73237193
0.019247239 -0.04868418 0.73602021
0.019718133 -0.051035166 0.73984647
0.020212729 -0.053504258 0.74386525
0.020612739 -0.055775642 0.74711549
0.020722913 -0.057292759 0.74801075
0.020701954 -0.058452547 0.7478404
0.025857843 0.054588795 0.77806181
0.025655717 0.052736789 0.77651066
0.025473688 0.050947398 0.7751137
0.025294341 0.049183458 0.77373749
0.025121275 0.047451317 0.77240932
0.024951028 0.045743585 0.77110285
0.024783187 0.044059008 0.76981485
0.024617475 0.042396814 0.76854312
0.024454631 0.040757716 0.76729351
0.024296358 0.039144129 0.76607889
0.024140554 0.037551999 0.76488316
0.023986736 0.035980105 0.76370287
0.023834866 0.034428179 0.76253736
0.023685221 0.032896161 0.76138902
0.023538789 0.031385064 0.76026529
0.023395384 0.029894114 0.75916469
0.023253512 0.028420985 0.75807601
0.023113452 0.026965708 0.75700116
0.022975067 0.025527894 0.75593925
0.022838233 0.024107039 0.75488913
0.022704368 0.022704393 0.7538619
0.022572536 0.021318555 0.75285017
0.022442512 0.01994893 0.75185233
0.02231407 0.01859507 0.75086671
0.022187179 0.017256707 0.74989295
0.022061726 0.015933454 0.74893022
0.021938222 0.01462552 0.74798238
0.021816358 0.013332218 0.74704731
0.02169602 0.01205337 0.74612379
0.021577695 0.010788888 0.74521565
0.02146074 0.0095381439 0.74431819
0.021344962 0.0083008111 0.74342978
0.021230763 0.0070769191 0.74255335
0.021117697 0.0058660209 0.74168575
0.02100591 0.0046679974 0.7408278
0.020895382 0.0034825802 0.73997962
0.02078682 0.00230968 0.73914647
0.020679459 0.0011488497 0.73832268
0.020573121 -0 0.73750663
0.020467872 -0.0011370778 0.73669893
0.020363849 -0.0022626817 0.73590064
0.020260954 -0.0033768117 0.73511106
0.020159246 -0.0044798255 0.73433053
0.020059006 -0.0055719316 0.73356128
0.019959757 -0.0066532493 0.73279965
0.019861484 -0.0077238679 0.73204541
0.01976425 -0.0087840855 0.73129928
0.01966789 -0.0098339319 0.73055983
0.019572679 -0.010873675 0.72982913
0.019478669 -0.011903614 0.72910768
0.019385839 -0.012923867 0.72839534
0.019293819 -0.013934404 0.72768915
0.01920267 -0.014935374 0.72698969
0.019112378 -0.015926987 0.72629678
0.019022929 -0.016909242 0.72561038
0.018934317 -0.017882407 0.72493029
0.01884659 -0.018846571 0.72425711
0.018760201 -0.019802421 0.72359419
0.018674597 -0.020749539 0.72293723
0.018589772 -0.021688074 0.72228628
0.018517429 -0.02263239 0.72173113
0.018494846 -0.023632288 0.7215578
0.01849095 -0.024654597 0.72152787
0.018487819 -0.025677502 0.72150391
0.018488776 -0.02670601 0.72151119
0.01849312 -0.027739674 0.72154456
0.018497465 -0.028773814 0.72157794
0.018505843 -0.029814959 0.7216422
0.018519543 -0.030865908 0.7217474
0.018533263 -0.031918377 0.72185266
0.01855202 -0.032981366 0.72199661
0.018575903 -0.034055799 0.72217983
0.018600108 -0.035133511 0.72236562
0.018609159 -0.03618446 0.72243506
0.018559031 -0.037118047 0.72205037
0.018494846 -0.038017154 0.72155786
0.018431166 -0.03891024 0.72106916
0.018306995 -0.039665103 0.7201162
0.018228944 -0.040508747 0.71951729
0.018240126 -0.041546941 0.71960306
0.019904023 -0.046442717 0.73237193
0.020379432 -0.04868418 0.73602021
0.020878024 -0.051035166 0.73984647
0.021401711 -0.053504258 0.74386525
0.021663709 -0.055362791 0.74587584
0.021756507 -0.05680865 0.74658799
0.021757569 -0.058020175 0.7465961
0.027446056 0.052003056 0.77916437
0.027235452 0.050170571 0.77763331
0.027028184 0.048366249 0.77612644
0.026823921 0.046588957 0.77464139
0.026628871 0.044848621 0.77322334
0.0264375 0.043134868 0.77183211
0.026248984 0.041445792 0.77046156
0.026063979 0.039781898 0.76911652
0.025885357 0.038146883 0.76781785
0.02570975 0.036534935 0.76654124
0.025536511 0.034944713 0.76528174
0.025366047 0.033376396 0.76404244
0.025200203 0.031831831 0.76283669
0.025037736 0.030308843 0.76165557
0.024877565 0.028805643 0.76049107
0.024719326 0.027321368 0.7593407
0.024563299 0.025856078 0.75820637
0.024411339 0.02441135 0.7571016
0.024261769 0.022984862 0.75601411
0.024114532 0.021576196 0.75494379
0.023969075 0.020184517 0.75388628
0.023825662 0.018809766 0.75284368
0.023684651 0.017451853 0.75181848
0.023545986 0.01611045 0.75081033
0.023410002 0.01478526 0.74982172
0.023275578 0.013475329 0.74884444
0.023142407 0.012180239 0.74787623
0.023010937 0.010899931 0.74692047
0.022880953 0.0096341074 0.74597543
0.02275371 0.0083829761 0.74505037
0.022628238 0.0071457922 0.74413818
0.022504054 0.0059221685 0.74323535
0.022381578 0.0047118962 0.74234492
0.022260606 0.0035148561 0.74146545
0.022140848 0.0023306608 0.74059474
0.022023227 0.0011591315 0.73973966
0.021906851 2.9802322e-08 0.73889357
0.021791782 -0.0011469424 0.73805702
0.021678081 -0.0022818744 0.73723042
0.021566138 -0.0034051538 0.73641658
0.021455344 -0.0045168698 0.73561108
0.021346007 -0.0056173801 0.73481619
0.021237696 -0.0067066252 0.73402876
0.02113056 -0.0077849329 0.73324984
0.021024421 -0.0088523626 0.73247814
0.020919807 -0.0099093616 0.73171759
0.020816687 -0.010956138 0.73096794
0.020714581 -0.011992633 0.73022562
0.020613547 -0.013019055 0.72949106
0.020513419 -0.014035463 0.7287631
0.020414259 -0.015042067 0.72804224
0.020316053 -0.016038984 0.72732824
0.020219367 -0.017026812 0.72662532
0.020123811 -0.01800549 0.72593063
0.020029154 -0.01897499 0.72524244
0.019935384 -0.019935369 0.72456068
0.019842487 -0.020886809 0.72388536
0.019750521 -0.021829516 0.72321677
0.019662002 -0.022766501 0.72257322
0.019623287 -0.023754478 0.72229177
0.019620765 -0.024784118 0.72227335
0.019619131 -0.025814623 0.72226149
0.019619878 -0.026848227 0.72226691
0.019627582 -0.027891785 0.72232294
0.019635288 -0.028936207 0.72237903
0.019644778 -0.029984146 0.72244793
0.019662619 -0.031046212 0.72257769
0.019681042 -0.032111168 0.72271162
0.01970252 -0.033183157 0.72286773
0.019732656 -0.034272492 0.72308683
0.019764476 -0.035367966 0.72331822
0.019793902 -0.036462426 0.72353214
0.019763093 -0.037445843 0.72330815
0.019696889 -0.038357079 0.72282684
0.019631537 -0.03926307 0.72235167
0.019501047 -0.040028453 0.721403
0.01941121 -0.040865719 0.72074991
0.019355027 -0.041766077 0.72034144
0.021009803 -0.046442717 0.73237193
0.021511622 -0.04868418 0.73602021
0.022037828 -0.051034987 0.73984575
0.022520738 -0.053338587 0.7433567
0.022684926 -0.054921389 0.74455029
0.022721047 -0.056204677 0.74481291
0.029282866 0.049780875 0.78187376
0.029015029 0.047874808 0.78002393
0.028753158 0.0460051 0.77821523
0.028511683 0.044193119 0.77654743
0.028274229 0.042411327 0.77490753
0.028046779 0.040667862 0.77333653
0.027828818 0.038960338 0.77183121
0.027614217 0.037279218 0.77034897
0.027407827 0.035630167 0.76892352
0.027208356 0.03401044 0.76754594
0.027011646 0.032414019 0.76618725
0.026818968 0.030841827 0.76485646
0.026633669 0.029297054 0.76357669
0.026451739 0.027774364 0.76232016
0.026272275 0.026272267 0.76108068
0.026096947 0.024792135 0.75986975
0.025926093 0.02333349 0.7586897
0.025758687 0.021894902 0.75753355
0.02559343 0.020474762 0.75639212
0.025431039 0.019073278 0.7552706
0.025271771 0.017690241 0.7541706
0.025116393 0.016325712 0.75309747
0.02496323 0.014977962 0.75203955
0.024811821 0.013646543 0.75099385
0.024662338 0.012331218 0.74996144
0.02451616 0.011032283 0.74895191
0.024372306 0.0097489655 0.7479583
0.024230821 0.0084808171 0.74698114
0.024091261 0.007227391 0.74601722
0.023953397 0.0059883595 0.74506509
0.023818053 0.0047636032 0.74413031
0.023684138 0.0035526454 0.74320537
0.02355228 0.0023552477 0.74229467
0.023422988 0.0011711717 0.74140167
0.02329511 2.9802322e-08 0.74051845
0.023168618 -0.0011583865 0.73964489
0.023043405 -0.0023043156 0.73878002
0.022919448 -0.0034378767 0.73792392
0.022798304 -0.0045596361 0.73708719
0.022678606 -0.0056695938 0.73626047
0.022560073 -0.006768018 0.73544186
0.022442773 -0.0078549683 0.73463166
0.022327106 -0.0089308321 0.73383284
0.02221279 -0.0099956989 0.73304331
0.022100296 -0.011050135 0.73226637
0.021988936 -0.012093902 0.73149723
0.021878771 -0.013127208 0.73073637
0.021769628 -0.014150232 0.7299825
0.021661883 -0.015163302 0.72923839
0.021555746 -0.016166776 0.72850531
0.021450799 -0.017160624 0.72778046
0.021346943 -0.018144876 0.72706318
0.021244016 -0.01911962 0.72635233
0.021142149 -0.020085007 0.72564876
0.021041181 -0.021041155 0.72495139
0.020941688 -0.02198872 0.7242642
0.020843569 -0.02292791 0.72358656
0.020779708 -0.023896664 0.72314548
0.020771798 -0.024926156 0.72309089
0.020773251 -0.025966525 0.7231009
0.020775208 -0.027007759 0.72311437
0.020785445 -0.028060347 0.72318512
0.02079729 -0.029116184 0.72326696
0.020809224 -0.030173331 0.72334933
0.020831672 -0.031247497 0.72350442
0.020856142 -0.032327026 0.7236734
0.020881182 -0.033409864 0.72384632
0.020919813 -0.034517676 0.72411317
0.020959694 -0.035631448 0.7243886
0.021002989 -0.036755234 0.72468764
0.021014938 -0.037826896 0.72477013
0.02095017 -0.038757801 0.7243228
0.020880375 -0.039672703 0.72384083
0.020811118 -0.040581703 0.72336245
0.02064061 -0.041281193 0.72218478
0.020546207 -0.042119712 0.72153282
0.022115497 -0.046442509 0.73237133
0.022643726 -0.048683971 0.73601961
0.023197714 -0.051034987 0.73984575
0.023469292 -0.052805871 0.74172151
0.023652963 -0.054401785 0.74299002
0.023643093 -0.055561274 0.74292189
0.03074035 0.042450964 0.78182995
0.030321859 0.040429175 0.77907723
0.029982395 0.038548797 0.77684426
0.029676653 0.036742508 0.7748332
0.02939022 0.034988374 0.7729491
0.029129218 0.033290535 0.77123231
0.028876819 0.03162697 0.76957208
0.028639652 0.030003458 0.76801211
0.028411387 0.028411388 0.76651061
0.028187877 0.026845604 0.7650404
0.027976628 0.025312215 0.76365089
0.027770001 0.023802906 0.76229173
0.027567988 0.022316962 0.76096296
0.027373452 0.020855993 0.75968331
0.027183769 0.019417018 0.75843567
0.026997048 0.01799804 0.75720745
0.026814833 0.016599685 0.75600886
0.026638014 0.015221745 0.7548458
0.02646452 0.013862401 0.75370461
0.026293382 0.012520671 0.75257891
0.026126849 0.011197239 0.7514835
0.025962951 0.0098906755 0.75040543
0.025803016 0.0086010098 0.74935341
0.025645144 0.0073272288 0.74831498
0.025490129 0.0060690939 0.74729532
0.025336975 0.0048260987 0.74628788
0.025188193 0.0035983324 0.74530923
0.025041144 0.002384901 0.74434197
0.024896003 0.0011855364 0.74338728
0.024752535 2.9802322e-08 0.74244356
0.024611972 -0.0011719465 0.74151897
0.024473859 -0.0023308694 0.74061048
0.024337288 -0.0034767091 0.73971224
0.024202794 -0.0046100318 0.73882753
0.024070151 -0.0057309866 0.73795509
0.02393987 -0.0068399608 0.73709804
0.023810994 -0.0079369545 0.73625034
0.023683585 -0.0090222955 0.7354123
0.023558067 -0.010096282 0.73458666
0.02343484 -0.01115942 0.73377615
0.023312895 -0.012211502 0.73297405
0.023192298 -0.013252735 0.73218077
0.023072857 -0.01428321 0.73139513
0.022954473 -0.015302956 0.73061639
0.022838883 -0.016313463 0.72985607
0.02272437 -0.017313778 0.72910279
0.02261108 -0.018304199 0.72835767
0.022498835 -0.019284695 0.72761929
0.022387775 -0.020255595 0.72688878
0.022278287 -0.021217406 0.72616857
0.022170492 -0.022170484 0.72545952
0.022063814 -0.023114473 0.72475779
0.021973068 -0.024065733 0.72416091
0.021948434 -0.025083899 0.7239989
0.021953218 -0.026134759 0.72403038
0.021958929 -0.027187228 0.72406793
0.021970825 -0.028248191 0.72414619
0.021988153 -0.029317528 0.72426015
0.022005508 -0.030388534 0.72437435
0.022032136 -0.031474441 0.72454947
0.022063971 -0.03257063 0.72475886
0.022098556 -0.033674002 0.72498637
0.0221429 -0.03479594 0.72527802
0.022194602 -0.03593412 0.72561812
0.022251142 -0.037085205 0.72599006
0.022307012 -0.038240582 0.72635758
0.022280116 -0.03925541 0.72618067
0.02220344 -0.040177643 0.7256763
0.022127604 -0.041094095 0.72517741
0.021945966 -0.04180184 0.72398269
0.021841509 -0.042642921 0.72329557
0.021827081 -0.043654144 0.72320068
0.023728756 -0.048587441 0.73570943
0.024090668 -0.050475657 0.73808998
0.024369955 -0.052221328 0.73992705
0.024438042 -0.053530931 0.74037492
0.024631387 -0.055127382 0.74164671
0.030811356 0.028010368 0.77308476
0.030400479 0.026254982 0.77050495
0.030067004 0.024600327 0.76841116
0.029767018 0.02300182 0.76652765
0.029491821 0.021448612 0.76479971
0.02923381 0.019932181 0.76317978
0.028990932 0.0184488 0.76165473
0.028757112 0.016992837 0.76018667
0.028537359 0.015565842 0.75880688
0.02832094 0.014160484 0.75744808
0.028113456 0.012778848 0.7561453
0.027913038 0.011418998 0.75488693
0.027716748 0.010078847 0.75365448
0.027526442 0.0087584257 0.75245959
0.027342161 0.0074569881 0.75130248
0.027161568 0.006173104 0.75016862
0.026984014 0.0049062073 0.74905384
0.026811074 0.0036560893 0.74796796
0.026642399 0.0024220645 0.7469089
0.026476258 0.0012034774 0.74586576
0.02631313 -0 0.74484146
0.026154196 -0.0011888146 0.74384356
0.025997067 -0.002363354 0.74285698
0.025843551 -0.0035240948 0.74189311
0.025692644 -0.004671365 0.74094552
0.025544085 -0.0058054626 0.74001282
0.025397237 -0.0069265366 0.7390908
0.025253819 -0.0080353022 0.73819029
0.025112689 -0.0091318786 0.73730421
0.024973128 -0.010216236 0.7364279
0.024835203 -0.011288702 0.73556191
0.024699725 -0.012349844 0.73471129
0.024566917 -0.013400108 0.73387742
0.024435529 -0.014439166 0.73305243
0.024305539 -0.015467167 0.73223627
0.024177462 -0.016484618 0.73143208
0.024051875 -0.017492235 0.73064357
0.023927676 -0.01848951 0.72986376
0.02380475 -0.019476593 0.72909194
0.023683082 -0.020453542 0.72832805
0.023563331 -0.021421164 0.72757614
0.023445625 -0.022379875 0.7268371
0.023329087 -0.023329049 0.72610533
0.023214858 -0.024270028 0.72538817
0.023160128 -0.025265574 0.72504455
0.023164146 -0.026322871 0.72506976
0.023175141 -0.027388811 0.72513878
0.023189845 -0.028460264 0.72523105
0.023213292 -0.029544145 0.72537833
0.023238687 -0.030632794 0.72553778
0.023269929 -0.031731695 0.72573388
0.023311051 -0.032847345 0.72599208
0.023359489 -0.033977389 0.72629619
0.023409804 -0.035114706 0.72661221
0.02347987 -0.036287069 0.72705209
0.023555355 -0.037474394 0.72752607
0.02364303 -0.03868857 0.72807658
0.023709344 -0.039874792 0.72849292
0.023660814 -0.04086864 0.72818822
0.023580061 -0.041801006 0.72768116
0.023503063 -0.042732835 0.72719771
0.023258347 -0.043345094 0.72566122
0.023133595 -0.044164121 0.72487795
0.023339074 -0.045617253 0.72616804
0.024846708 -0.049693376 0.73563409
0.025002712 -0.051141888 0.73661363
0.025198575 -0.052687913 0.73784345
0.030876476 0.014767021 0.76506472
0.030473301 0.013249248 0.76264334
0.030144544 0.011795729 0.76066887
0.029850006 0.010382622 0.75889993
0.029585334 0.0090042651 0.75731039
0.02933223 0.0076518953 0.75579029
0.029096039 0.0063252151 0.75437176
0.028869104 0.0050207376 0.75300884
0.028653359 0.0037374198 0.75171316
0.028444601 0.0024734437 0.75045943
0.028240845 0.0012278855 0.74923563
0.028045734 -0 0.74806392
0.027855344 -0.001211077 0.74692041
0.02767032 -0.0024060905 0.74580926
0.027488841 -0.0035854876 0.74471933
0.027313652 -0.0047501624 0.74366713
0.027141653 -0.0059003532 0.74263418
0.02697202 -0.0070361793 0.74161536
0.026807539 -0.008158803 0.74062753
0.026646195 -0.0092682242 0.73965853
0.026486984 -0.010364473 0.73870242
0.026331291 -0.011448354 0.73776734
0.026179016 -0.012520403 0.73685277
0.026028493 -0.013580084 0.7359488
0.025880573 -0.014628112 0.73506045
0.025736067 -0.015665412 0.73419249
0.025593454 -0.016691357 0.73333603
0.025452413 -0.017706037 0.73248899
0.025313947 -0.018710315 0.73165745
0.025178278 -0.019704729 0.73084259
0.025044147 -0.020688623 0.73003703
0.024911346 -0.021662027 0.72923946
0.024780396 -0.022625566 0.72845304
0.024652503 -0.023580641 0.72768492
0.024525836 -0.024525821 0.72692418
0.024424858 -0.025486767 0.7263177
0.024411436 -0.02653411 0.72623712
0.024430007 -0.027616531 0.72634864
0.024452539 -0.02870512 0.726484
0.024479842 -0.029801518 0.72664797
0.024517924 -0.030913889 0.72687662
0.02455974 -0.032034427 0.72712779
0.024610462 -0.033170581 0.72743243
0.024674647 -0.034329921 0.72781795
0.024747225 -0.035506874 0.72825384
0.024831133 -0.036706895 0.72875768
0.02493914 -0.037950873 0.72940642
0.025065346 -0.039232701 0.73016435
0.02521996 -0.040571213 0.73109293
0.025382709 -0.041936636 0.73207039
0.025415812 -0.043096364 0.73226917
0.025323318 -0.044040531 0.73171365
0.025241273 -0.044995308 0.73122096
0.024805648 -0.045297265 0.72860467
0.024664948 -0.046112716 0.7277596
0.02500606 -0.047837645 0.72980833
0.025623944 -0.050133765 0.73351914
0.030936548 0.0025780797 0.75768387
0.030540358 0.0012725294 0.75540364
0.030216102 -0 0.7535373
0.029929372 -0.0012470484 0.75188708
0.029671328 -0.0024726093 0.75040185
0.029424002 -0.003677994 0.74897838
0.029193057 -0.0048654974 0.74764913
0.028973117 -0.0060360432 0.74638325
0.028760523 -0.0071900785 0.74515963
0.028558794 -0.0083296597 0.74399865
0.0283601 -0.0094533563 0.74285507
0.028169932 -0.010563701 0.74176049
0.027983941 -0.01165995 0.74069005
0.027803425 -0.012743175 0.73965108
0.027627787 -0.013813883 0.73864019
0.027454672 -0.014871269 0.73764384
0.027287886 -0.015917927 0.73668396
0.027123528 -0.016952187 0.73573792
0.026961135 -0.017974049 0.7348032
0.026804399 -0.018986434 0.73390114
0.026649775 -0.019987315 0.73301119
0.026496824 -0.020976633 0.73213089
0.026348149 -0.021956772 0.7312752
0.026202001 -0.022926718 0.730434
0.026057366 -0.023885876 0.72960156
0.025914697 -0.024834901 0.72878051
0.025776098 -0.025776058 0.72798276
0.025711378 -0.026782691 0.72761023
0.025732884 -0.027877271 0.72773403
0.02576586 -0.028986573 0.72792381
0.025801441 -0.030101657 0.72812855
0.025853964 -0.031240195 0.72843093
0.025911499 -0.032389373 0.72876209
0.02598054 -0.03355819 0.72915941
0.026066788 -0.034755707 0.7296558
0.026168859 -0.035982162 0.73024333
0.026292728 -0.037248015 0.73095626
0.026448322 -0.038570464 0.73185182
0.026660029 -0.039990038 0.73307025
0.026965411 -0.041571647 0.73482788
0.030991763 -0.0086776614 0.75086665
0.030602189 -0.0097926557 0.74871421
0.030283222 -0.010901958 0.74695182
0.030005062 -0.012001991 0.74541485
0.029751005 -0.013090402 0.74401116
0.029509058 -0.014164329 0.74267429
0.029284848 -0.015228093 0.74143553
0.029069588 -0.016278923 0.74024606
0.028862961 -0.017317742 0.73910439
0.028664773 -0.018345445 0.73800939
0.02847256 -0.019361317 0.7369473
0.028285382 -0.020365447 0.73591316
0.028105216 -0.02135995 0.73491764
0.027927542 -0.022341996 0.73393589
0.027756969 -0.023315877 0.73299348
0.027588876 -0.024278224 0.73206472
0.027423922 -0.02522999 0.73115325
0.027264524 -0.026173949 0.73027253
0.027118338 -0.027118325 0.72946489
0.02709719 -0.028181076 0.72934794
0.027146164 -0.029317856 0.72961855
0.027203372 -0.030467778 0.72993469
0.027264325 -0.031626642 0.73027146
0.027355006 -0.032825977 0.7307725
0.027457848 -0.034047723 0.73134077
0.02757813 -0.035299987 0.73200536
0.027738744 -0.036615133 0.73289275
0.027957998 -0.038022846 0.73410422
0.02827011 -0.03957814 0.73582876
0.03104303 -0.019103408 0.74455297
0.030660335 -0.020047158 0.74251974
0.030348539 -0.021010488 0.74086326
0.03007539 -0.02197814 0.73941207
0.029825047 -0.022942364 0.73808205
0.02959016 -0.023899734 0.73683417
0.029371098 -0.024852455 0.73567033
0.029158993 -0.025794446 0.73454338
0.028959144 -0.026731521 0.73348165
0.028763302 -0.027657002 0.73244119
0.02861079 -0.028610796 0.73163092
0.028622229 -0.029723048 0.73169172
0.02871001 -0.030918449 0.73215812
