# .PCD v0.7 - Point Cloud Data file format
VERSION 0.7
FIELDS x y z
SIZE 4 4 4
TYPE F F F
COUNT 1 1 1
WIDTH 1305
HEIGHT 1
VIEWPOINT 0 0 0 1 0 0 0
POINTS 1305
DATA ascii
-0.044869982 -0.042065591 0.77331561
-0.045176916 -0.043765128 0.7746405
-0.045411676 -0.045411646 0.7756539
-0.045720823 -0.047149599 0.77698839
-0.0430087 0.0069369078 0.77126986
-0.042062126 0.0054273903 0.76705205
-0.041491199 0.0040152967 0.76450807
-0.041074719 0.0026499927 0.76265228
-0.040751908 0.0013146102 0.76121384
-0.040490951 2.9802322e-08 0.76005107
-0.040276557 -0.0012992322 0.75909573
-0.040098749 -0.0025870502 0.75830352
-0.039950013 -0.0038661063 0.75764066
-0.039827995 -0.0051391125 0.75709701
-0.039726738 -0.0064074993 0.7566458
-0.039646272 -0.0076734722 0.75628722
-0.0395821 -0.0089378357 0.75600129
-0.039533559 -0.010202229 0.75578499
-0.039500359 -0.011467844 0.75563705
-0.039479721 -0.012735367 0.75554514
-0.039471947 -0.014006197 0.75551045
-0.039474484 -0.015280396 0.75552177
-0.039488856 -0.016559809 0.75558579
-0.039515257 -0.017845571 0.75570345
-0.039551873 -0.019138008 0.75586665
-0.039598931 -0.020438135 0.75607628
-0.039655991 -0.021746814 0.75633055
-0.039723311 -0.02306512 0.75663054
-0.039800655 -0.024393946 0.75697517
-0.03988779 -0.025734067 0.75736338
-0.039985705 -0.027087063 0.75779974
-0.040094391 -0.028454095 0.75828403
-0.040212613 -0.029835105 0.75881076
-0.040341944 -0.031232446 0.75938708
-0.040482063 -0.032646805 0.76001143
-0.040633362 -0.034079552 0.76068568
-0.040799879 -0.035535336 0.76142758
-0.04119328 -0.037206829 0.76318055
-0.04186881 -0.039167583 0.76619065
-0.042833257 -0.041451514 0.77048814
-0.0436396 -0.04363957 0.77408111
-0.043984585 -0.045403421 0.77561837
-0.044220876 -0.047073841 0.77667123
-0.041450001 0.0082900226 0.77048099
-0.040496133 0.0067493916 0.76608902
-0.039936557 0.0053248703 0.76351249
-0.039531514 0.0039531589 0.76164746
-0.039216314 0.0026144087 0.76019621
-0.038961824 0.0012987256 0.7590245
-0.038753498 2.9802322e-08 0.75806516
-0.03858022 -0.0012859702 0.75726736
-0.038435455 -0.0025623739 0.7566008
-0.038315952 -0.0038315654 0.75605053
-0.03821715 -0.0050956011 0.75559562
-0.038137428 -0.0063562393 0.75522852
-0.038074601 -0.0076149106 0.75493926
-0.038026247 -0.0088727474 0.75471658
-0.037991431 -0.010131061 0.75455636
-0.037970413 -0.011391103 0.75445956
-0.037961368 -0.012653738 0.7544179
-0.037962336 -0.013919502 0.75442231
-0.037974291 -0.015189707 0.75447744
-0.037996609 -0.016465157 0.75458014
-0.038029972 -0.017747283 0.75473374
-0.038072981 -0.019036472 0.75493181
-0.038126018 -0.020333856 0.75517607
-0.038188521 -0.021640152 0.75546378
-0.038260579 -0.022956342 0.75579554
-0.038342301 -0.024283439 0.75617188
-0.038433474 -0.025622308 0.75659168
-0.038534228 -0.026973963 0.75705558
-0.038645059 -0.028339684 0.75756592
-0.038766462 -0.029720932 0.75812489
-0.038897786 -0.031118214 0.75872958
-0.03903991 -0.032533258 0.75938392
-0.039193057 -0.033967286 0.76008904
-0.039357651 -0.035421878 0.76084697
-0.039536946 -0.036901087 0.7616725
-0.039959989 -0.038627982 0.76362038
-0.040698782 -0.040698767 0.76702213
-0.041871153 -0.043266833 0.77242023
-0.042463422 -0.045294285 0.7751472
-0.042815961 -0.047097534 0.77677053
-0.043096405 -0.048842579 0.77806181
-0.039906297 0.0096325874 0.76970923
-0.038949143 0.0080584586 0.76515013
-0.038398907 0.0066204965 0.76252925
-0.038005155 0.0052421391 0.76065373
-0.037697833 0.0038997829 0.75918984
-0.037451137 0.0025828183 0.7580148
-0.037248146 0.0012844503 0.75704795
-0.03707936 -0 0.75624394
-0.036938973 -0.0012737513 0.75557524
-0.036821634 -0.0025393963 0.75501639
-0.036725678 -0.0037991703 0.75455928
-0.03664656 -0.0050546825 0.75418246
-0.036584843 -0.0063077211 0.75388849
-0.03653726 -0.0075594187 0.75366187
-0.036502466 -0.0088109076 0.75349605
-0.036479462 -0.010063261 0.7533865
-0.03646959 -0.011318147 0.75333953
-0.036468972 -0.012575507 0.75333655
-0.036478695 -0.013836712 0.7533828
-0.036498606 -0.015102834 0.75347769
-0.03652798 -0.016374588 0.75361764
-0.036567472 -0.017653257 0.7538057
-0.036615908 -0.018939227 0.75403643
-0.036673985 -0.020233929 0.75431305
-0.036741164 -0.0215379 0.75463307
-0.036817234 -0.022852033 0.75499535
-0.036902618 -0.024177551 0.75540209
-0.036996651 -0.02551493 0.75584996
-0.037100255 -0.026865661 0.75634348
-0.037213273 -0.028230727 0.75688183
-0.037335865 -0.0296112 0.75746572
-0.037469525 -0.031009257 0.75810236
-0.037613001 -0.032425016 0.75878584
-0.037767496 -0.033860534 0.75952172
-0.037932944 -0.035316885 0.76030976
-0.038110454 -0.036796302 0.76115525
-0.038307149 -0.03830713 0.76209217
-0.038801074 -0.040139019 0.76444483
-0.03964052 -0.042374343 0.76844329
-0.040954217 -0.045190841 0.7747007
-0.041349273 -0.047052622 0.77658242
-0.041656438 -0.048838556 0.77804548
-0.038387407 0.010967851 0.76900464
-0.037420347 0.0093551278 0.76423395
-0.036879577 0.0079027712 0.76156616
-0.036495373 0.0065170825 0.75967073
-0.03619729 0.0051710606 0.75820011
-0.035957519 0.0038526356 0.75701725
-0.035760019 0.0025542974 0.75604296
-0.035595845 0.0012712777 0.75523305
-0.035459876 2.9802322e-08 0.75456232
-0.03534504 -0.0012623072 0.75399572
-0.03525167 -0.0025179386 0.75353515
-0.035174683 -0.0037687123 0.75315535
-0.035112835 -0.0050160885 0.75285023
-0.035066113 -0.006261766 0.75261962
-0.035031591 -0.007506758 0.75244939
-0.035007734 -0.0087519288 0.75233173
-0.034996111 -0.009998858 0.75227439
-0.034994051 -0.011248082 0.75226426
-0.035001848 -0.012500614 0.75230265
-0.035019215 -0.013757557 0.75238836
-0.035045892 -0.015019625 0.75251997
-0.035081621 -0.016287863 0.75269628
-0.035125725 -0.017562866 0.75291377
-0.035179589 -0.018846214 0.75317955
-0.035241526 -0.020137995 0.75348508
-0.035312511 -0.021439701 0.75383526
-0.035392061 -0.022752017 0.7542277
-0.035480123 -0.024075776 0.75466216
-0.035577141 -0.025412202 0.75514072
-0.03568279 -0.026762098 0.75566196
-0.035797529 -0.028126627 0.75622803
-0.035921685 -0.029507041 0.75684047
-0.036055606 -0.03090477 0.75750113
-0.03620059 -0.03232196 0.75821644
-0.036355957 -0.033759117 0.7589829
-0.036522266 -0.035217881 0.75980341
-0.036700778 -0.036700785 0.76068401
-0.036891669 -0.0382092 0.76162571
-0.037112646 -0.03976351 0.76271588
-0.037719693 -0.04176107 0.76571059
-0.038792457 -0.044334203 0.77100295
-0.039872587 -0.04699266 0.77633154
-0.040281877 -0.048913687 0.77835077
-0.040624212 -0.050780237 0.78003955
-0.036885161 0.012295067 0.76833308
-0.035906576 0.010639012 0.76332664
-0.035377096 0.0091718733 0.76061785
-0.035002057 0.0077782273 0.75869912
-0.034712892 0.0064283013 0.75721973
-0.034480359 0.0051082075 0.75603008
-0.034288507 0.0038098693 0.75504857
-0.034129214 0.002528131 0.7542336
-0.033997718 0.0012591779 0.7535609
-0.033886384 2.9802322e-08 0.75299126
-0.033794679 -0.0012516379 0.75252211
-0.033720173 -0.0024977624 0.75214094
-0.033659112 -0.0037398934 0.75182861
-0.033612475 -0.0049796104 0.75158995
-0.03357818 -0.006218195 0.75141454
-0.033554044 -0.0074564517 0.75129104
-0.033540867 -0.0086957812 0.75122368
-0.033537649 -0.009937048 0.75120717
-0.033543389 -0.011181086 0.7512365
-0.033558533 -0.012429059 0.75131398
-0.033582531 -0.01368174 0.75143671
-0.033614866 -0.014939904 0.75160217
-0.033655725 -0.016204596 0.75181127
-0.033704747 -0.017476529 0.75206208
-0.033761997 -0.018756628 0.75235492
-0.033828136 -0.020046264 0.7526933
-0.033901695 -0.021345496 0.75306964
-0.033983763 -0.022655815 0.75348949
-0.034074616 -0.023978412 0.75395429
-0.034173224 -0.025313497 0.75445884
-0.034280751 -0.026662767 0.75500882
-0.034396905 -0.028027087 0.75560313
-0.034522314 -0.029407889 0.75624472
-0.034657009 -0.030806214 0.75693387
-0.034802109 -0.032224149 0.75767612
-0.034957562 -0.033662826 0.75847149
-0.035124853 -0.035124838 0.75932735
-0.035303682 -0.036611199 0.76024222
-0.035494853 -0.038124084 0.76122022
-0.035700638 -0.039667338 0.76227301
-0.035968661 -0.041297317 0.76364428
-0.036777209 -0.043587774 0.7677809
-0.038384236 -0.046914041 0.77600247
-0.038867496 -0.048944235 0.77847481
-0.03921333 -0.050832093 0.78024411
-0.03541071 0.013619512 0.76775759
-0.034407455 0.01191029 0.76242757
-0.033890344 0.010427833 0.75968021
-0.033525348 0.0090260804 0.75774097
-0.033244852 0.0076719522 0.7562508
-0.033019833 0.0063500106 0.75505537
-0.032833911 0.0050514042 0.75406754
-0.03268043 0.0037707984 0.75325215
-0.032552205 0.0025040209 0.75257093
-0.032444298 0.001247853 0.75199765
-0.032355107 -0 0.75152379
-0.032282431 -0.0012416244 0.75113761
-0.032222569 -0.0024786592 0.75081962
-0.032176308 -0.0037126243 0.75057381
-0.032142334 -0.0049449503 0.75039333
-0.032117903 -0.0061765015 0.75026357
-0.0321039 -0.0074086189 0.75018913
-0.032099236 -0.0086420774 0.75016439
-0.032102965 -0.0098778307 0.75018418
-0.032115769 -0.011116982 0.75025225
-0.03213726 -0.012360454 0.75036633
-0.032166671 -0.013608962 0.75052261
-0.032204185 -0.014863461 0.75072193
-0.032249313 -0.016124606 0.75096166
-0.032302529 -0.017393678 0.75124449
-0.032363232 -0.018671095 0.75156695
-0.032431513 -0.019957811 0.75192964
-0.032508276 -0.021255374 0.75233752
-0.032592133 -0.022563785 0.75278306
-0.032684296 -0.023884654 0.75327271
-0.032784909 -0.025219142 0.75380725
-0.032893412 -0.026567757 0.75438368
-0.033010669 -0.027932078 0.75500661
-0.033136718 -0.029313207 0.75567627
-0.033271886 -0.030712485 0.75639445
-0.033416539 -0.032131255 0.75716293
-0.03357251 -0.033572465 0.75799155
-0.033739656 -0.035037309 0.75887966
-0.03391844 -0.036527514 0.75982946
-0.034109965 -0.038045704 0.76084697
-0.034315076 -0.039594293 0.76193672
-0.034536395 -0.041177988 0.76311255
-0.034967139 -0.043036461 0.76540101
-0.036098421 -0.045817226 0.7714113
-0.037429046 -0.048945636 0.77848065
-0.037832297 -0.050928086 0.78062302
-0.033957787 0.014941424 0.76725495
-0.032925714 0.013170302 0.76155239
-0.032418776 0.011670768 0.75875145
-0.032064494 0.010260642 0.75679386
-0.031792607 0.0089019239 0.75529164
-0.031575624 0.0075781643 0.75409269
-0.031396683 0.0062793791 0.75310409
-0.031247707 0.0049996376 0.75228089
-0.031123051 0.0037347972 0.7515921
-0.031019175 0.0024815798 0.75101817
-0.030932192 0.001237303 0.75053757
-0.03086132 2.9802322e-08 0.75014597
-0.030803144 -0.0012321174 0.74982458
-0.03075714 -0.0024605691 0.74957037
-0.030723209 -0.0036867559 0.74938285
-0.030698851 -0.0049117804 0.74924833
-0.030684154 -0.0061368048 0.74916708
-0.030678838 -0.0073629022 0.74913776
-0.030680608 -0.0085905492 0.74914747
-0.030690994 -0.0098211169 0.74920487
-0.030710008 -0.011055589 0.74930996
-0.030736672 -0.01229465 0.74945724
-0.030770762 -0.013539135 0.74964559
-0.030812589 -0.014790028 0.7498768
-0.030861575 -0.016047984 0.7501474
-0.030917915 -0.017314017 0.75045866
-0.030981431 -0.018588841 0.75080961
-0.031052468 -0.019873589 0.75120217
-0.031130612 -0.021168828 0.75163388
-0.031216092 -0.02247557 0.75210619
-0.031309292 -0.023795038 0.75262117
-0.031410612 -0.025128454 0.75318104
-0.031520076 -0.02647683 0.75378579
-0.031637702 -0.027841151 0.75443566
-0.031764083 -0.029222935 0.75513399
-0.031899408 -0.030623406 0.75588179
-0.032044455 -0.032044441 0.75668317
-0.032199334 -0.03348729 0.75753891
-0.032366138 -0.034955412 0.75846058
-0.032544933 -0.036450297 0.75944847
-0.032735802 -0.037973493 0.76050305
-0.032940593 -0.039528668 0.76163459
-0.033161562 -0.04112035 0.76285553
-0.033404272 -0.042757452 0.76419657
-0.034134895 -0.045058042 0.76823348
-0.036010209 -0.048973829 0.77859515
-0.036495239 -0.05109334 0.78127515
-0.032540768 0.016270399 0.76691705
-0.031460863 0.014419585 0.76070166
-0.030963391 0.012901396 0.75783843
-0.030620413 0.011482686 0.75586432
-0.030357983 0.010119349 0.75435394
-0.030147184 0.0087929666 0.75314069
-0.029975124 0.007493794 0.75215042
-0.029831054 0.0062148273 0.7513212
-0.029710108 0.0049516857 0.75062507
-0.029610028 0.0037012398 0.75004905
-0.029525513 0.0024604797 0.74956262
-0.029456666 0.0012274086 0.74916637
-0.029400125 -0 0.74884093
-0.029355023 -0.0012230873 0.74858135
-0.029320898 -0.0024433732 0.74838495
-0.029296707 -0.0036620498 0.74824572
-0.029281562 -0.0048802793 0.74815857
-0.029275438 -0.0060990155 0.74812329
-0.029275917 -0.0073189735 0.74812609
-0.029284446 -0.0085413158 0.74817514
-0.029300675 -0.0097668767 0.74826854
-0.02932439 -0.01099664 0.74840504
-0.02935599 -0.012231618 0.74858689
-0.029393708 -0.01347211 0.74880403
-0.029438807 -0.014719367 0.74906361
-0.02949111 -0.015974343 0.74936461
-0.029550083 -0.017237544 0.74970406
-0.029615926 -0.018509954 0.75008297
-0.029688606 -0.019792378 0.75050133
-0.029768348 -0.021085888 0.75096023
-0.029855011 -0.02239126 0.75145906
-0.029949088 -0.023709685 0.75200057
-0.030050594 -0.025042117 0.7525847
-0.030159796 -0.026389778 0.75321323
-0.030277627 -0.027754486 0.75389141
-0.03040402 -0.029137194 0.75461888
-0.030539053 -0.030539006 0.75539607
-0.030683862 -0.031962335 0.75622952
-0.030838571 -0.033408433 0.75712001
-0.031003874 -0.034879357 0.75807136
-0.03118185 -0.036378801 0.75909579
-0.031372637 -0.037908584 0.76019382
-0.031576242 -0.039470285 0.76136565
-0.031796809 -0.041070849 0.76263517
-0.0320337 -0.042711556 0.76399857
-0.032383829 -0.044527769 0.7660138
-0.034526322 -0.048912287 0.77834499
-0.03523241 -0.051380605 0.78240889
-0.031204963 0.01763761 0.76703751
-0.030009646 0.015657216 0.75985873
-0.029524293 0.01412034 0.75694376
-0.029191528 0.012691975 0.75494528
-0.028938599 0.011323839 0.75342619
-0.028734969 0.0099947751 0.75220335
-0.028569346 0.0086950362 0.7512086
-0.02843006 0.0074165463 0.75037205
-0.028314022 0.0061552525 0.74967515
-0.028216844 0.00490731 0.74909157
-0.028135484 0.003669858 0.74860287
-0.028067946 0.0024407208 0.74819726
-0.028013345 0.0012179911 0.74786937
-0.027969358 -0 0.7476052
-0.027935775 -0.0012145638 0.7474035
-0.027911266 -0.0024270415 0.74725634
-0.027895443 -0.0036385357 0.74716127
-0.02788862 -0.0048501492 0.74712026
-0.027888052 -0.006062597 0.74711692
-0.027895102 -0.0072769523 0.74715924
-0.027909216 -0.0084940791 0.747244
-0.027930414 -0.0097149014 0.74737126
-0.027958954 -0.010940433 0.74754268
-0.027992938 -0.012170821 0.74774683
-0.028035045 -0.013408035 0.74799973
-0.028082466 -0.014651686 0.74828452
-0.028137336 -0.015903711 0.74861407
-0.028198002 -0.017163992 0.74897838
-0.028265467 -0.018433958 0.74938357
-0.028339716 -0.019714564 0.74982947
-0.028420135 -0.021006167 0.75031245
-0.028507669 -0.022310317 0.75083816
-0.028602198 -0.023627877 0.75140589
-0.02870398 -0.024959981 0.75201714
-0.028813042 -0.026307553 0.7526722
-0.028930152 -0.027672321 0.75337547
-0.029055623 -0.029055625 0.75412905
-0.029190406 -0.030459553 0.75493848
-0.029334368 -0.031885147 0.75580311
-0.029488144 -0.033334404 0.75672668
-0.029652795 -0.034809798 0.75771552
-0.029829178 -0.036313772 0.75877488
-0.030018864 -0.037849873 0.7599141
-0.03022206 -0.039420068 0.76113439
-0.030441295 -0.041029572 0.76245111
-0.030677762 -0.042682081 0.76387131
-0.030934289 -0.044383943 0.76541191
-0.031806853 -0.047018796 0.77065229
-0.033888012 -0.051568657 0.78315127
-0.028572129 0.016883522 0.75902522
-0.028099693 0.015327126 0.75605887
-0.027777467 0.013888747 0.75403571
-0.027533973 0.012515455 0.75250685
-0.027338276 0.011183858 0.7512781
-0.027178718 0.0098831654 0.75027633
-0.02704514 0.0086053014 0.74943757
-0.026933474 0.0073454976 0.74873644
-0.02683912 0.0060998201 0.74814403
-0.026761068 0.004865706 0.74765396
-0.026695663 0.0036403239 0.74724329
-0.026642289 0.0024220347 0.74690819
-0.026599722 0.0012090802 0.74664086
-0.026566887 5.9604645e-08 0.74643469
-0.026542637 -0.0012064576 0.74628246
-0.026526388 -0.0024114847 0.74618047
-0.026518432 -0.0036161244 0.74613053
-0.026516819 -0.0048212409 0.74612039
-0.026522301 -0.0060277879 0.74615479
-0.026534565 -0.0072366595 0.74623179
-0.026553625 -0.008448869 0.74635148
-0.026579082 -0.0096651316 0.74651134
-0.02661054 -0.010886103 0.74670881
-0.026648583 -0.012112975 0.74694771
-0.026692178 -0.013346046 0.74722141
-0.026742911 -0.014587015 0.74754
-0.026798446 -0.015835434 0.74788868
-0.026861487 -0.017093629 0.74828446
-0.026929593 -0.018361062 0.74871206
-0.027004397 -0.019639552 0.74918175
-0.027085783 -0.020929933 0.7496928
-0.027173413 -0.022232771 0.75024301
-0.027267978 -0.023549587 0.75083667
-0.027369497 -0.024881333 0.75147414
-0.027478235 -0.026229233 0.75215691
-0.027594475 -0.027594447 0.75288677
-0.027718863 -0.028978765 0.75366771
-0.027852556 -0.0303846 0.75450718
-0.027995329 -0.031812876 0.75540358
-0.028148292 -0.033266127 0.75636405
-0.028311137 -0.034745485 0.75738645
-0.028486045 -0.036254942 0.75848472
-0.028674686 -0.037798405 0.75966913
-0.028876545 -0.039377123 0.7609365
-0.029094713 -0.040997058 0.76230639
-0.029330527 -0.042662591 0.76378703
-0.029587178 -0.044380754 0.7653985
-0.030024095 -0.046400875 0.76814175
-0.032617096 -0.05189082 0.78442264
-0.027151035 0.018100709 0.75822037
-0.026689582 0.016522169 0.75518501
-0.026378786 0.015073597 0.75314069
-0.026144568 0.013694793 0.75160003
-0.025956476 0.012360245 0.75036281
-0.025803231 0.011058569 0.74935478
-0.025675401 0.0097811222 0.748514
-0.025568083 0.0085227191 0.7478081
-0.025477858 0.0072793961 0.74721462
-0.025402004 0.0060481131 0.74671561
-0.025339238 0.0048265159 0.74630278
-0.025287323 0.0036124885 0.74596131
-0.025245618 0.0024043322 0.74568701
-0.025213614 0.0012006462 0.74547642
-0.025189919 -0 0.74532062
-0.025173167 -0.001198709 0.74521041
-0.025164343 -0.0023965836 0.74515235
-0.02516201 -0.0035945475 0.74513704
-0.025165964 -0.0047934949 0.74516302
-0.025176514 -0.0059943795 0.7452324
-0.025193375 -0.0071980953 0.74534333
-0.025216363 -0.008405447 0.74549448
-0.025244903 -0.0096170902 0.74568224
-0.025279544 -0.010834068 0.74591011
-0.025319822 -0.012057006 0.74617505
-0.0253661 -0.013286978 0.74647951
-0.025417821 -0.01452443 0.74681962
-0.025475571 -0.015770584 0.74719954
-0.025538493 -0.01702565 0.74761349
-0.0256075 -0.018291056 0.74806732
-0.025682688 -0.019567758 0.74856186
-0.025763951 -0.020856529 0.74909639
-0.025851613 -0.022158533 0.74967301
-0.025945695 -0.023474663 0.75029188
-0.026046652 -0.024806321 0.750956
-0.026154531 -0.026154548 0.75166559
-0.026269937 -0.027520865 0.75242472
-0.026393278 -0.028906882 0.75323594
-0.026525328 -0.030314654 0.75410461
-0.026666561 -0.031745911 0.75503361
-0.026817596 -0.033202708 0.75602704
-0.026979439 -0.034687817 0.75709164
-0.027152214 -0.036202937 0.75822812
-0.027339181 -0.037754089 0.75945795
-0.027539786 -0.039342523 0.76077741
-0.027756549 -0.040973932 0.76220322
-0.027991423 -0.042653561 0.76374823
-0.02824831 -0.044390202 0.76543796
-0.028533403 -0.046196938 0.76731324
-0.031429853 -0.052383065 0.78636539
-0.025744416 0.019308329 0.75743496
-0.025293587 0.01770553 0.75432122
-0.024994701 0.016246557 0.75225699
-0.024769455 0.014861673 0.75070125
-0.024589438 0.013524204 0.74945796
-0.024442414 0.012221187 0.74844253
-0.024320386 0.010944217 0.74759972
-0.024217797 0.0096871555 0.74689114
-0.024131432 0.008446008 0.74629462
-0.024058323 0.0072174966 0.74578977
-0.023997948 0.0059995055 0.74537277
-0.023948189 0.0047896504 0.74502909
-0.023907471 0.0035861433 0.74474788
-0.023875995 0.0023876131 0.74453044
-0.023852726 0.0011926591 0.74436975
-0.023835808 2.9802322e-08 0.74425286
-0.023826165 -0.0011912882 0.74418628
-0.023823397 -0.002382338 0.74416721
-0.023825878 -0.0035738647 0.74418432
-0.023834758 -0.0047669113 0.74424559
-0.023849571 -0.0059623718 0.74434799
-0.02387015 -0.007161051 0.74449015
-0.023896042 -0.0083636045 0.7446689
-0.023927668 -0.0095710158 0.74488735
-0.023964591 -0.01078403 0.7451424
-0.024006957 -0.012003481 0.74543494
-0.024054628 -0.013230026 0.7457642
-0.024107665 -0.014464617 0.74613053
-0.024165943 -0.015707821 0.74653298
-0.024229834 -0.016960859 0.74697429
-0.024299024 -0.018224239 0.7474522
-0.024374004 -0.019499183 0.74796999
-0.024454877 -0.020786613 0.7485286
-0.024541551 -0.022087425 0.74912721
-0.02463486 -0.023403108 0.7497716
-0.02473495 -0.024734944 0.75046295
-0.02484156 -0.026083589 0.75119931
-0.024955899 -0.027451456 0.75198901
-0.025077848 -0.028839529 0.75283128
-0.025207723 -0.030249298 0.75372827
-0.02534705 -0.031683773 0.75469053
-0.025496447 -0.033145368 0.75572228
-0.025656134 -0.034635782 0.75682521
-0.025827361 -0.036158293 0.75800788
-0.026012035 -0.037717432 0.75928336
-0.026210567 -0.03931582 0.76065445
-0.026426001 -0.040960282 0.76214248
-0.026660051 -0.042656064 0.7637589
-0.02691691 -0.044412851 0.76553297
-0.027200146 -0.04624024 0.76748919
-0.03018919 -0.052831054 0.78813344
-0.024350744 0.020505875 0.75666106
-0.023912577 0.0188784 0.75347555
-0.023624644 0.017407626 0.75138223
-0.023408741 0.016016543 0.74981248
-0.023237484 0.014676332 0.74856746
-0.023096621 0.013371766 0.74754345
-0.022980055 0.012094796 0.74669588
-0.022882156 0.010838926 0.7459842
-0.022799706 0.0095998943 0.74538481
-0.02272973 0.0083741248 0.74487603
-0.022671638 0.0071594715 0.74445367
-0.022623889 0.0059536994 0.74410653
-0.022584556 0.0047546625 0.74382055
-0.022553727 0.0035611391 0.74359649
-0.022530703 0.0023716986 0.74342912
-0.022514008 0.0011849701 0.74330771
-0.022504143 2.9802322e-08 0.74323601
-0.022500647 -0.0011842549 0.74321055
-0.022501903 -0.0023685992 0.74321967
-0.022508984 -0.0035540164 0.74327117
-0.022521904 -0.0047414303 0.74336511
-0.02254023 -0.005931586 0.74349833
-0.022564173 -0.0071254969 0.74367237
-0.022592321 -0.0083234608 0.74387705
-0.022626245 -0.0095268488 0.7441237
-0.022664817 -0.010735929 0.74440408
-0.02270863 -0.011951923 0.74472266
-0.022757377 -0.013175309 0.74507701
-0.022811029 -0.014406949 0.74546707
-0.022869838 -0.015647769 0.74589467
-0.022933699 -0.016898483 0.74635887
-0.023002882 -0.018160135 0.74686182
-0.023077473 -0.019433618 0.74740416
-0.023157677 -0.020720005 0.74798721
-0.023243506 -0.022020131 0.74861127
-0.023335367 -0.023335367 0.74927914
-0.023433495 -0.024666816 0.74999249
-0.023538925 -0.026016682 0.75075895
-0.023651538 -0.02738598 0.75157773
-0.023771437 -0.02877596 0.75244939
-0.023899833 -0.030189246 0.7533828
-0.024036368 -0.031626791 0.75437552
-0.024183372 -0.033093005 0.75544417
-0.0243412 -0.034590095 0.75659156
-0.02450992 -0.036119848 0.75781828
-0.024692319 -0.037688226 0.75914431
-0.024889071 -0.039298534 0.76057482
-0.025103027 -0.04095754 0.76213026
-0.025335681 -0.042670608 0.76382166
-0.025592839 -0.0444507 0.76569128
-0.025878599 -0.046309054 0.7677688
-0.026602417 -0.049004465 0.77303106
-0.022969449 0.021693379 0.75589609
-0.022545824 0.020040751 0.75264519
-0.022269141 0.018557608 0.7505219
-0.022062544 0.01715976 0.74893647
-0.021899719 0.01581648 0.74768698
-0.021765798 0.014510542 0.74665922
-0.02165442 0.013233274 0.74580449
-0.02156101 0.011978358 0.74508762
-0.021482531 0.010741264 0.74448544
-0.021415753 0.0095181167 0.74397302
-0.021360207 0.0083067715 0.74354672
-0.021314282 0.0071047843 0.74319428
-0.021276329 0.0059100986 0.74290305
-0.021246437 0.0047214329 0.7426737
-0.021223776 0.0035373271 0.74249977
-0.021207381 0.00235641 0.74237388
-0.02119722 0.0011776686 0.74229592
-0.021193191 2.9802322e-08 0.74226505
-0.021193611 -0.0011774302 0.74226826
-0.021199403 -0.0023554862 0.74231273
-0.021210406 -0.0035350621 0.74239713
-0.021226555 -0.0047169924 0.74252111
-0.021248208 -0.0059022605 0.74268723
-0.021273287 -0.0070910752 0.74287969
-0.021304611 -0.0082851052 0.74312007
-0.021339262 -0.0094840825 0.74338603
-0.02137983 -0.010689884 0.74369729
-0.021424066 -0.011902273 0.74403679
-0.021473568 -0.013122737 0.74441671
-0.021527367 -0.014351577 0.74482954
-0.021586047 -0.015589923 0.74527985
-0.021649778 -0.0168387 0.7457689
-0.02171829 -0.018098563 0.74629462
-0.021792114 -0.019370735 0.74686122
-0.021871176 -0.020656109 0.74746794
-0.021955857 -0.021955818 0.74811774
-0.022046279 -0.023271054 0.74881172
-0.02214276 -0.024603039 0.74955207
-0.022245821 -0.025953412 0.75034297
-0.022356285 -0.027324349 0.75119066
-0.02247436 -0.02871722 0.75209677
-0.022600079 -0.030133396 0.75306153
-0.022734741 -0.031576008 0.75409496
-0.02287874 -0.03304705 0.75520003
-0.023033788 -0.034550667 0.75638986
-0.023200098 -0.036089003 0.75766617
-0.023379851 -0.037667513 0.7590456
-0.023574241 -0.039290369 0.76053733
-0.023786571 -0.040965736 0.76216674
-0.024018485 -0.042699546 0.76394647
-0.024275424 -0.044504911 0.7659182
-0.024564268 -0.046399146 0.76813483
-0.024922568 -0.048460513 0.77088445
-0.021604467 0.022875369 0.75517374
-0.021191975 0.021191984 0.75182211
-0.020927237 0.019696265 0.74967092
-0.020730985 0.018292069 0.74807632
-0.020575745 0.016944766 0.74681485
-0.020448832 0.015637368 0.74578369
-0.020342773 0.014359623 0.74492192
-0.020253943 0.013105541 0.74420011
-0.02017949 0.011870295 0.74359518
-0.020116059 0.010649711 0.74307978
-0.020063132 0.0094414949 0.74264979
-0.020019202 0.0082432032 0.74229276
-0.019982802 0.0070527792 0.74199694
-0.01995378 0.0058687627 0.74176115
-0.019931598 0.0046897829 0.74158096
-0.019915501 0.0035145283 0.74145013
-0.01990523 0.0023418069 0.74136668
-0.019900842 0.001170665 0.74133098
-0.01990045 -0 0.74132782
-0.019905074 -0.0011708438 0.74136537
-0.01991456 -0.00234285 0.74144244
-0.019928768 -0.0035168231 0.7415579
-0.019948032 -0.0046936274 0.74171448
-0.019970885 -0.0058737695 0.74190015
-0.019998929 -0.0070584118 0.74212801
-0.020030543 -0.0082478821 0.74238491
-0.020067435 -0.0094434917 0.7426846
-0.020107498 -0.010645121 0.74301016
-0.020153264 -0.011854857 0.7433821
-0.020201905 -0.013071805 0.74377733
-0.020255648 -0.014298052 0.74421394
-0.020314166 -0.015534341 0.7446894
-0.020377044 -0.016781062 0.74520034
-0.020444779 -0.018039495 0.74575073
-0.020517379 -0.019310445 0.74634069
-0.020595107 -0.020595074 0.7469722
-0.020678246 -0.021894634 0.74764776
-0.02076675 -0.0232099 0.74836695
-0.020861438 -0.024542838 0.74913627
-0.020962641 -0.02589497 0.74995857
-0.021069832 -0.02726686 0.75082964
-0.021185314 -0.028662473 0.75176787
-0.021308804 -0.030082971 0.75277132
-0.021440193 -0.031529695 0.75383896
-0.021581596 -0.033007085 0.7549879
-0.02173356 -0.034517974 0.75622272
-0.02189678 -0.03606531 0.75754893
-0.02207374 -0.037655175 0.75898683
-0.022265738 -0.039292455 0.76054692
-0.022476079 -0.040985763 0.76225603
-0.02270766 -0.042743832 0.76413769
-0.022965217 -0.044579536 0.76623052
-0.023257108 -0.046514183 0.76860219
-0.023599287 -0.048586726 0.77138257
-0.02025149 0.024048686 0.75446475
-0.01985136 0.022332788 0.7510103
-0.019598953 0.020823926 0.74883121
-0.019412968 0.019412994 0.74722552
-0.019265594 0.018061548 0.7459532
-0.019145753 0.016752541 0.74491858
-0.019045139 0.01547417 0.74404991
-0.018961279 0.014220983 0.74332595
-0.018890446 0.012987167 0.74271446
-0.018830491 0.011769086 0.7421968
-0.018780101 0.01056385 0.7417618
-0.018738242 0.0093691647 0.74140036
-0.018703626 0.0081828535 0.74110162
-0.018675731 0.0070034266 0.7408607
-0.018654352 0.0058295131 0.74067616
-0.018638788 0.0046597123 0.74054182
-0.018628353 0.0034928024 0.74045175
-0.018623397 0.0023279488 0.7404089
-0.018622302 0.0011639297 0.74039948
-0.018625801 2.9802322e-08 0.74042964
-0.018633824 -0.0011645854 0.74049902
-0.018646386 -0.00233078 0.74060732
-0.018663278 -0.0034993589 0.74075323
-0.018683944 -0.0046709776 0.74093163
-0.018709142 -0.0058465898 0.74114919
-0.018737949 -0.007026732 0.7413978
-0.018771213 -0.0082123876 0.74168503
-0.018808013 -0.0094040036 0.74200273
-0.018849289 -0.010602683 0.7423591
-0.01889397 -0.011808723 0.74274486
-0.018943163 -0.013023406 0.74316961
-0.018996328 -0.014247239 0.74362856
-0.019053757 -0.015481174 0.74412435
-0.019115528 -0.016726077 0.74465764
-0.019181797 -0.0179829 0.74522972
-0.019252812 -0.019252807 0.74584287
-0.019328905 -0.020536929 0.74649978
-0.019409802 -0.021836013 0.74719816
-0.019496486 -0.023152083 0.74794656
-0.019589027 -0.024486244 0.74874556
-0.019687176 -0.025839418 0.74959284
-0.01979257 -0.027214766 0.75050277
-0.01990434 -0.028612435 0.7514677
-0.020024538 -0.030036807 0.75250542
-0.020153452 -0.03148976 0.75361836
-0.020290868 -0.032972634 0.75480473
-0.020439651 -0.034491897 0.75608921
-0.020599902 -0.036049873 0.75747275
-0.020773834 -0.037652522 0.75897431
-0.020963095 -0.039305806 0.76060826
-0.021171371 -0.041019529 0.76240635
-0.021402484 -0.042804927 0.76440156
-0.021661848 -0.044677556 0.76664078
-0.021959148 -0.046663195 0.76920748
-0.022309713 -0.048802525 0.77223396
-0.018909961 0.025213271 0.7537666
-0.018523173 0.023462713 0.75020474
-0.018284475 0.021941394 0.74800658
-0.018108346 0.020522803 0.74638468
-0.017969172 0.019167155 0.745103
-0.017856319 0.01785633 0.74406379
-0.01776183 0.01657775 0.74319363
-0.017682415 0.015324801 0.74246228
-0.017615246 0.014092237 0.7418437
-0.017558945 0.0128766 0.74132526
-0.01751104 0.011674047 0.74088413
-0.017471332 0.010482818 0.74051851
-0.01743855 0.0093005896 0.74021661
-0.017412003 0.0081256032 0.73997217
-0.017391572 0.0069566369 0.739784
-0.017376397 0.005792141 0.73964429
-0.017365843 0.0046309233 0.73954701
-0.017360438 0.0034721196 0.7394973
-0.017358882 0.002314508 0.73948294
-0.017361315 0.0011574328 0.73950529
-0.017368075 -0 0.73956764
-0.017378969 -0.0011585355 0.73966789
-0.017393807 -0.0023191869 0.73980463
-0.01741248 -0.0034824908 0.73997653
-0.017434867 -0.0046492815 0.74018264
-0.017461006 -0.0058203042 0.74042338
-0.017490856 -0.0069963336 0.74069828
-0.017524386 -0.0081780255 0.74100709
-0.017561639 -0.0093661845 0.74135011
-0.017602524 -0.010561496 0.74172664
-0.017647229 -0.011764824 0.74213833
-0.0176956 -0.012976766 0.74258375
-0.017747981 -0.014198363 0.74306607
-0.017804222 -0.015430301 0.74358404
-0.017864686 -0.016673714 0.74414086
-0.017929304 -0.017929286 0.7447359
-0.017998388 -0.019198239 0.74537206
-0.018071959 -0.020481527 0.74604952
-0.01815071 -0.021780849 0.74677479
-0.01823492 -0.023097545 0.74755025
-0.018324357 -0.024432451 0.74837387
-0.0184203 -0.025788426 0.74925739
-0.018521942 -0.027165473 0.75019336
-0.018631248 -0.028567851 0.75119996
-0.01874768 -0.029996246 0.75227225
-0.018872758 -0.031454563 0.75342399
-0.01900721 -0.032945782 0.75466216
-0.019151971 -0.034473538 0.75599527
-0.01930848 -0.036042482 0.75743645
-0.019479295 -0.037659943 0.75900948
-0.019665377 -0.039330721 0.76072311
-0.019871678 -0.041068107 0.76262295
-0.020102262 -0.042884797 0.76474631
-0.020364068 -0.044800967 0.76715732
-0.02066806 -0.046847582 0.76995671
-0.021037564 -0.049087614 0.77335942
-0.017582368 0.026373565 0.75310624
-0.017209476 0.024584979 0.74942702
-0.016982745 0.023048073 0.74719
-0.016816953 0.021621823 0.74555409
-0.016685868 0.020261437 0.74426079
-0.016580084 0.018948704 0.74321705
-0.016491821 0.017669827 0.74234623
-0.016417038 0.016417056 0.74160832
-0.016354166 0.015186012 0.74098802
-0.01630096 0.013972282 0.74046308
-0.016256088 0.012772679 0.74002028
-0.016218413 0.01158461 0.73964858
-0.0161872 0.010406077 0.73934066
-0.016162127 0.0092355311 0.73909324
-0.016142579 0.0080713034 0.7389003
-0.016128007 0.006911993 0.73875666
-0.016117582 0.005756259 0.73865378
-0.016111594 0.0046033263 0.73859471
-0.016109725 0.0034520924 0.73857623
-0.016111344 0.0023016334 0.73859221
-0.016116958 0.0011512041 0.73864758
-0.016126322 -0 0.73873997
-0.016139325 -0.0011527538 0.73886824
-0.016156295 -0.0023080111 0.73903567
-0.016175879 -0.0034662485 0.73922896
-0.016199671 -0.0046284497 0.73946369
-0.016226185 -0.0057950318 0.73972529
-0.016256787 -0.0069671869 0.74002719
-0.016290117 -0.0081450343 0.74035609
-0.016327359 -0.009329915 0.74072349
-0.016367603 -0.010522008 0.74112058
-0.016411409 -0.011722416 0.74155283
-0.016458897 -0.012931973 0.74202132
-0.016509868 -0.014151275 0.74252427
-0.016564783 -0.015381545 0.74306613
-0.016623378 -0.016623348 0.74364424
-0.016686069 -0.017877907 0.74426281
-0.016753007 -0.019146293 0.74492323
-0.01682429 -0.020429462 0.74562657
-0.016900368 -0.021729022 0.74637723
-0.016981775 -0.023046672 0.7471804
-0.017068028 -0.024382859 0.74803144
-0.017160252 -0.025740355 0.74894136
-0.017259127 -0.027121454 0.74991691
-0.017364144 -0.028526813 0.75095314
-0.017477196 -0.029960901 0.75206852
-0.017598493 -0.031425893 0.75326532
-0.017728429 -0.032924205 0.75454736
-0.01786942 -0.034462422 0.75593853
-0.018022105 -0.03604421 0.75744498
-0.018189173 -0.037677586 0.7590934
-0.018372577 -0.039369792 0.760903
-0.018576358 -0.041133374 0.76291358
-0.018806687 -0.042986661 0.76518619
-0.019071324 -0.044953823 0.76779723
-0.019387018 -0.047082752 0.77091205
-0.019785095 -0.049462706 0.77483976
-0.016267063 0.027528912 0.7524749
-0.0159079 0.02569738 0.74865854
-0.015693581 0.024143994 0.74638128
-0.015538295 0.022709817 0.74473131
-0.015415929 0.021345168 0.74343097
-0.015317049 0.020029992 0.74238038
-0.015234842 0.018750608 0.74150687
-0.015165222 0.017498374 0.74076712
-0.015106323 0.016268373 0.74014127
-0.015056435 0.015056431 0.73961127
-0.015014451 0.01385954 0.73916507
-0.014979199 0.012674719 0.73879057
-0.014950006 0.011500031 0.73848033
-0.014926169 0.010333508 0.73822707
-0.014907521 0.0091738701 0.73802888
-0.014893452 0.0080195367 0.7378794
-0.014883075 0.0068691373 0.73776913
-0.01487706 0.0057219267 0.73770523
-0.014875058 0.0045769811 0.73768395
-0.014875801 0.0034328997 0.73769188
-0.01488021 0.0022892952 0.73773873
-0.014888176 0.0011452436 0.73782331
-0.014899421 -0 0.73794281
-0.01491471 -0.0011473 0.7381053
-0.014931761 -0.0022971928 0.73828644
-0.014953302 -0.0034507513 0.73851532
-0.014976704 -0.0046081841 0.73876399
-0.015004488 -0.0057709515 0.73905921
-0.015034127 -0.0069388151 0.73937422
-0.015067937 -0.0081134737 0.7397334
-0.015103844 -0.0092946589 0.74011493
-0.015143363 -0.010483861 0.7405349
-0.015186191 -0.011681646 0.74098992
-0.015232261 -0.012888789 0.7414794
-0.015281752 -0.014106184 0.74200535
-0.015334667 -0.015334636 0.74256754
-0.015391259 -0.016575158 0.74316889
-0.015451788 -0.017829001 0.74381208
-0.015516033 -0.019096613 0.74449468
-0.015584834 -0.020380169 0.74522579
-0.015658114 -0.021680415 0.7460044
-0.015735801 -0.022998482 0.74682993
-0.015819248 -0.024337292 0.74771655
-0.015907638 -0.025696963 0.7486558
-0.016002385 -0.027080923 0.74966252
-0.016104037 -0.028491735 0.75074261
-0.016212218 -0.029930234 0.75189215
-0.016329449 -0.031402767 0.75313777
-0.016455317 -0.032910615 0.75447524
-0.016591894 -0.034460068 0.75592637
-0.016740318 -0.036056042 0.75750351
-0.016903315 -0.037707388 0.75923538
-0.017083693 -0.039423883 0.76115209
-0.017285338 -0.041218877 0.76329458
-0.017515808 -0.043115824 0.76574361
-0.017786238 -0.045149684 0.76861703
-0.018116958 -0.047382802 0.77213109
-0.018577922 -0.050017476 0.7770291
-0.014962176 0.028677523 0.75185817
-0.014618052 0.026799798 0.74789691
-0.01441715 0.02523002 0.74558431
-0.014272259 0.023787111 0.74391639
-0.014159176 0.022418708 0.74261475
-0.014066811 0.021100223 0.74155164
-0.013990765 0.019820273 0.74067616
-0.013926286 0.018568397 0.73993397
-0.013871669 0.017339617 0.73930526
-0.0138254 0.016129643 0.73877263
-0.013786145 0.014935017 0.73832071
-0.013753259 0.013753295 0.73794222
-0.013726122 0.012582272 0.73762989
-0.013703669 0.011419743 0.73737139
-0.013685906 0.010264486 0.73716694
-0.013672431 0.0091149807 0.73701185
-0.013662434 0.0079697371 0.73689675
-0.013656422 0.0068282187 0.73682755
-0.013654174 0.0056892633 0.73680162
-0.013654332 0.0045514703 0.73680347
-0.013657886 0.0034144819 0.7368443
-0.013664527 0.0022774637 0.73692077
-0.013674317 0.0011395514 0.73703355
-0.013687534 -0 0.73718572
-0.013702722 -0.001141876 0.73736048
-0.013721689 -0.002286911 0.73757875
-0.01374256 -0.0034356415 0.73781908
-0.013767212 -0.0045890212 0.73810285
-0.013793765 -0.0057473779 0.73840845
-0.013823953 -0.0069119334 0.738756
-0.01385605 -0.0080826879 0.73912543
-0.01389154 -0.0092610121 0.73953402
-0.01392982 -0.010447353 0.73997468
-0.013971101 -0.011642545 0.74044991
-0.014015489 -0.012847543 0.74096078
-0.014062932 -0.014062941 0.74150687
-0.014113652 -0.015289754 0.74209076
-0.014168002 -0.016529292 0.74271631
-0.01422572 -0.017782152 0.74338078
-0.014287342 -0.019049764 0.74409014
-0.014353194 -0.020333678 0.74484813
-0.01442286 -0.021634281 0.74565005
-0.014497563 -0.022954464 0.74651003
-0.014576556 -0.024294257 0.7474193
-0.014661653 -0.025657862 0.74839878
-0.014752137 -0.027045578 0.74944037
-0.014849121 -0.028460771 0.75055683
-0.014953399 -0.02990675 0.75175709
-0.015065446 -0.031386316 0.75304693
-0.015186484 -0.032903999 0.75444019
-0.015318552 -0.034466714 0.7559604
-0.015461975 -0.036077917 0.75761139
-0.015620884 -0.037750483 0.7594406
-0.015797766 -0.039494425 0.7614767
-0.015997967 -0.041328073 0.76378119
-0.01622954 -0.043278784 0.76644689
-0.016506916 -0.045394003 0.76963973
-0.016866323 -0.047787875 0.77377689
-0.013670452 0.029826462 0.75129461
-0.013339831 0.027892381 0.74714279
-0.013152916 0.026305854 0.74479556
-0.013018863 0.024854183 0.74311227
-0.012914939 0.023481727 0.74180728
-0.012829595 0.022160202 0.74073553
-0.01275944 0.02087912 0.73985451
-0.012700195 0.019627601 0.73911059
-0.012649908 0.018399894 0.73847914
-0.012607251 0.017191768 0.73794341
-0.012570916 0.015999347 0.7374872
-0.012540509 0.014820606 0.73710531
-0.012515225 0.01365298 0.73678786
-0.012494242 0.012494296 0.73652428
-0.012477514 0.011343181 0.73631436
-0.012464679 0.010198385 0.73615307
-0.012455234 0.0090583563 0.73603451
-0.012449263 0.007922262 0.73595953
-0.012446847 0.0067891777 0.73592913
-0.012446515 0.0056575239 0.73592502
-0.012449215 0.0045269728 0.73595893
-0.012454809 0.0033967793 0.73602915
-0.012463206 0.0022660792 0.73613459
-0.012474565 0.0011340976 0.73627722
-0.012487946 -0 0.73644525
-0.01250451 -0.00113675 0.73665321
-0.012523082 -0.0022768676 0.7368865
-0.012544692 -0.0034212768 0.73715788
-0.012568453 -0.0045703351 0.73745626
-0.012595019 -0.0057249963 0.73778987
-0.012623841 -0.0068857074 0.73815179
-0.012655389 -0.0080533922 0.73854792
-0.012689456 -0.0092286766 0.73897576
-0.012726283 -0.010412425 0.73943818
-0.012765813 -0.011605263 0.73993456
-0.012808197 -0.012808174 0.74046683
-0.012853387 -0.014021873 0.74103433
-0.012901696 -0.015247434 0.74164099
-0.012953036 -0.016485661 0.74228567
-0.013007786 -0.017737865 0.74297321
-0.013066182 -0.019005328 0.74370646
-0.01312874 -0.020289838 0.74449205
-0.013194933 -0.021591723 0.7453233
-0.013265345 -0.02291289 0.74620748
-0.013340919 -0.0242562 0.7471565
-0.013420937 -0.025621742 0.74816132
-0.013507215 -0.027014405 0.74924481
-0.013599641 -0.028435618 0.75040543
-0.013698501 -0.029887617 0.75164688
-0.013805622 -0.031376362 0.75299197
-0.013921596 -0.032905549 0.75444835
-0.014048217 -0.034482002 0.75603843
-0.014186938 -0.036112189 0.75778043
-0.014340988 -0.037808061 0.7597149
-0.014514375 -0.039584637 0.7618922
-0.014712818 -0.041463375 0.76438415
-0.014946613 -0.043481052 0.7673201
-0.015238687 -0.045716047 0.77098781
-0.015652614 -0.048380762 0.77618569
-0.012390559 0.030976444 0.75078177
-0.012073603 0.028976649 0.74640357
-0.011901449 0.027373344 0.74402559
-0.011778053 0.025911748 0.74232113
-0.01168297 0.024534255 0.74100769
-0.011604876 0.023209751 0.73992896
-0.011540614 0.021927178 0.73904127
-0.011486591 0.020675898 0.73829508
-0.011440679 0.019449174 0.73766083
-0.011401687 0.018242747 0.73712218
-0.011368431 0.01705265 0.73666286
-0.011340514 0.01587671 0.73627728
-0.011317166 0.014712304 0.73595476
-0.011297734 0.013557315 0.7356863
-0.011282177 0.012410432 0.73547137
-0.011270077 0.011270106 0.7353043
-0.011261285 0.010135174 0.73518282
-0.011255617 0.0090045035 0.7351045
-0.011252891 0.0078770518 0.73506689
-0.011252295 0.0067513883 0.73505867
-0.011254255 0.0056271255 0.73508567
-0.011258771 0.0045035481 0.73514807
-0.011265893 0.003379792 0.73524648
-0.011275503 0.0022551119 0.73537922
-0.0112874 0.001128763 0.73554361
-0.01130147 2.9802322e-08 0.73573792
-0.011318028 -0.001131773 0.73596662
-0.011336709 -0.0022673309 0.73622465
-0.011357881 -0.0034073591 0.73651713
-0.011381048 -0.004552424 0.73683715
-0.011406671 -0.0057033002 0.73719108
-0.011434389 -0.0068606138 0.73757398
-0.011464495 -0.0080251396 0.73798978
-0.01149707 -0.0091975927 0.7384398
-0.011531978 -0.010378778 0.738922
-0.011569393 -0.011569381 0.73943877
-0.011609362 -0.012770265 0.73999089
-0.011652073 -0.013982445 0.74058086
-0.011697583 -0.015206844 0.74120957
-0.011746001 -0.016444355 0.74187833
-0.011797582 -0.017696381 0.74259084
-0.011852736 -0.01896432 0.74335265
-0.011910792 -0.020248324 0.74415463
-0.011973419 -0.021552145 0.74501973
-0.01203973 -0.022875458 0.74593574
-0.012110427 -0.024220854 0.7469123
-0.012186402 -0.025591403 0.74796176
-0.01226713 -0.026987672 0.74907684
-0.012354374 -0.028415054 0.75028193
-0.012448179 -0.029875606 0.75157773
-0.012549665 -0.031374127 0.75297964
-0.012660037 -0.032916099 0.7545042
-0.012780821 -0.034508198 0.7561726
-0.012914186 -0.036159724 0.7580148
-0.013063031 -0.037882775 0.76007086
-0.013232342 -0.039697021 0.76240957
-0.013429527 -0.04163155 0.76513338
-0.013669585 -0.043742657 0.76844943
-0.013986588 -0.046155721 0.77282822
-0.014593297 -0.049617201 0.78120887
-0.011120553 0.032126069 0.75030679
-0.010819594 0.03005442 0.7456876
-0.010661641 0.028431088 0.74326336
-0.010549319 0.02695936 0.74153948
-0.010463048 0.025576323 0.7402153
-0.010392481 0.024249166 0.73913223
-0.01033414 0.022964776 0.7382369
-0.010285336 0.021713495 0.73748779
-0.010243884 0.020487785 0.73685163
-0.010208603 0.019282907 0.73631012
-0.010178439 0.018095016 0.73584712
-0.010153035 0.016921759 0.73545718
-0.010131781 0.015760571 0.73513103
-0.010113941 0.014609039 0.7348572
-0.010099629 0.013466209 0.7346375
-0.01008859 0.012330472 0.73446816
-0.010080496 0.011200607 0.73434389
-0.010074995 0.010075003 0.73425949
-0.010072075 0.0089529753 0.73421466
-0.010071241 0.0078332126 0.73420185
-0.01007253 0.0067150593 0.73422164
-0.010076208 0.0055979192 0.73427808
-0.010082128 0.004480958 0.73436898
-0.010090187 0.0033634007 0.7344926
-0.010100658 0.0022445917 0.73465335
-0.010112603 0.001123637 0.7348367
-0.010127142 -0 0.73505986
-0.010143108 -0.0011270046 0.73530483
-0.010161745 -0.0022581518 0.73559093
-0.010181731 -0.0033938885 0.7358976
-0.010204323 -0.004535228 0.73624438
-0.010228304 -0.005682379 0.7366125
-0.010254598 -0.0068363845 0.73701608
-0.010283082 -0.0079979002 0.73745322
-0.010313632 -0.0091676712 0.73792207
-0.010346363 -0.010346353 0.73842442
-0.010381397 -0.01153487 0.73896211
-0.010418775 -0.012734085 0.73953587
-0.010458672 -0.013944864 0.74014825
-0.010501018 -0.01516813 0.74079812
-0.010546201 -0.016405165 0.74149156
-0.010594373 -0.01765728 0.74223089
-0.010645273 -0.018924892 0.74301213
-0.010699957 -0.020211011 0.74385142
-0.010757498 -0.021514982 0.74473459
-0.010819551 -0.022841245 0.74568701
-0.010885554 -0.024190068 0.74669999
-0.01095609 -0.025564164 0.74778259
-0.011031999 -0.026967108 0.74894768
-0.011113304 -0.02840066 0.7501955
-0.011201064 -0.029869497 0.75154251
-0.011296796 -0.031379998 0.75301176
-0.011400683 -0.032935321 0.75460625
-0.011515457 -0.034546345 0.7563678
-0.011642737 -0.036221832 0.75832129
-0.011786342 -0.037978202 0.76052541
-0.011951756 -0.039839149 0.76306421
-0.01214895 -0.041846395 0.76609075
-0.012399055 -0.044085532 0.76992935
-0.012775813 -0.046844661 0.77571189
-0.0098639941 0.033290982 0.74994522
-0.0095764222 0.03112334 0.7449798
-0.0094333133 0.029479146 0.74250877
-0.009332628 0.027997881 0.74077028
-0.0092550814 0.026608378 0.73943138
-0.0091922898 0.025278836 0.73834711
-0.0091399206 0.0239923 0.73744297
-0.0090962406 0.022740632 0.73668867
-0.0090592494 0.021515757 0.73604995
-0.0090277279 0.020312369 0.7355057
-0.0090007121 0.019126564 0.73503923
-0.0089779226 0.01795584 0.73464572
-0.0089587886 0.016797751 0.73431534
-0.0089427931 0.015649885 0.73403919
-0.0089298366 0.014511049 0.73381543
-0.0089197922 0.013379693 0.73364204
-0.0089123752 0.012254536 0.73351395
-0.0089071039 0.011133879 0.73342299
-0.0089041367 0.010017216 0.73337173
-0.0089031365 0.0089031756 0.73335445
-0.0089039365 0.0077909827 0.73336822
-0.0089068031 0.006680131 0.73341775
-0.0089116404 0.0055697858 0.73350132
-0.0089183552 0.0044592023 0.73361719
-0.0089274235 0.0033477843 0.73377383
-0.0089373505 0.0022343695 0.73394525
-0.0089499587 0.0011187494 0.73416293
-0.0089634461 2.9802322e-08 0.73439574
-0.0089796502 -0.0011224151 0.73467553
-0.0089966282 -0.0022491217 0.73496872
-0.0090163006 -0.0033810735 0.73530841
-0.0090368148 -0.0045183897 0.73566258
-0.0090596285 -0.0056622326 0.73605657
-0.0090841884 -0.0068130791 0.73648059
-0.0091105904 -0.0079717338 0.73693651
-0.009138938 -0.009138912 0.73742592
-0.0091691921 -0.010315329 0.7379483
-0.0092014987 -0.011501849 0.73850614
-0.0092358962 -0.012699336 0.7391001
-0.00927254 -0.013908774 0.7397328
-0.0093116248 -0.015131384 0.74040765
-0.009353173 -0.016368002 0.74112511
-0.009397395 -0.017620087 0.74188864
-0.0094443969 -0.018888772 0.74270022
-0.0094942208 -0.020175189 0.74356049
-0.0095477533 -0.021482438 0.74448478
-0.0096041393 -0.022809803 0.74545842
-0.0096651595 -0.024162889 0.74651194
-0.0097303428 -0.02554214 0.74763751
-0.009800002 -0.026950002 0.74884021
-0.0098754168 -0.028391808 0.75014246
-0.0099570006 -0.029870987 0.75155115
-0.010045837 -0.03139323 0.75308502
-0.010143056 -0.032964915 0.75476366
-0.010250913 -0.034596831 0.75662595
-0.010371747 -0.036301076 0.75871235
-0.010509606 -0.038097322 0.76109272
-0.010671005 -0.040016264 0.76387954
-0.010870116 -0.042121679 0.76731747
-0.011142475 -0.04456988 0.77202022
-0.0086195236 0.034478128 0.74971879
-0.0083438037 0.03218326 0.74427795
-0.0082161976 0.03051731 0.7417599
-0.00812741 0.029026479 0.74000782
-0.0080588851 0.027630478 0.73865563
-0.0080038263 0.026298314 0.73756909
-0.0079578413 0.025010377 0.73666167
-0.0079192743 0.023757815 0.73590064
-0.0078866631 0.022533327 0.73525709
-0.0078589143 0.0213314 0.7347095
-0.0078351628 0.020147592 0.73424083
-0.0078150146 0.018979341 0.73384327
-0.0077980366 0.017824113 0.73350823
-0.0077838954 0.016679794 0.7332291
-0.0077724159 0.015544862 0.7330026
-0.0077634887 0.014417917 0.73282647
-0.0077567194 0.01329726 0.7326929
-0.0077517801 0.012181401 0.73259538
-0.0077488655 0.011069834 0.73253793
-0.0077478862 0.0099615753 0.73251855
-0.0077482318 0.0088551342 0.73252541
-0.0077504236 0.0077504516 0.73256862
-0.0077542923 0.0066465437 0.73264503
-0.0077598416 0.0055427551 0.73275453
-0.0077673988 0.0044385195 0.7329036
-0.007775696 0.0033324659 0.73306739
-0.007786341 0.0022247136 0.73327738
-0.007797773 0.001113981 0.73350304
-0.0078113787 -0 0.73377144
-0.007825885 -0.0011179745 0.73405772
-0.0078424243 -0.0022406876 0.73438418
-0.0078599835 -0.0033685267 0.7347306
-0.0078793494 -0.0045024753 0.73511279
-0.0079002203 -0.0056430101 0.73552465
-0.0079227109 -0.0067909062 0.73596847
-0.0079468144 -0.0079468191 0.73644412
-0.0079725916 -0.0091115236 0.73695278
-0.008000073 -0.010285765 0.73749506
-0.0080293864 -0.011470526 0.73807347
-0.0080605699 -0.012666613 0.73868883
-0.0080936952 -0.013874888 0.73934245
-0.0081289643 -0.015096605 0.74003845
-0.0081668179 -0.01633361 0.74078548
-0.0082064159 -0.017585158 0.7415669
-0.0082490798 -0.018855006 0.74240869
-0.0082942704 -0.020143241 0.74330056
-0.0083422987 -0.021451622 0.74424827
-0.0083940672 -0.022783875 0.74526983
-0.0084488802 -0.024139673 0.74635148
-0.0085080648 -0.025524199 0.74751937
-0.0085716825 -0.026939541 0.74877477
-0.0086403796 -0.028389782 0.75013041
-0.0087151118 -0.029880345 0.75160503
-0.0087965699 -0.031416267 0.75321251
-0.0088863876 -0.033006549 0.75498492
-0.0089864302 -0.034661919 0.75695908
-0.0091000739 -0.036400288 0.75920165
-0.0092312591 -0.038243771 0.76179039
-0.0093896454 -0.040241331 0.76491582
-0.0095947729 -0.042491108 0.76896369
-0.0099364594 -0.045423776 0.77570623
-0.0073946537 0.035740852 0.74986827
-0.0071216039 0.033234179 0.74358207
-0.0070104152 0.031546891 0.74102223
-0.0069335434 0.03004539 0.73925251
-0.0068742186 0.028642565 0.73788679
-0.0068269828 0.027307957 0.73679924
-0.0067874589 0.02601859 0.73588932
