# .PCD v0.7 - Point Cloud Data file format
VERSION 0.7
FIELDS x y z
SIZE 4 4 4
TYPE F F F
COUNT 1 1 1
WIDTH 1338
HEIGHT 1
VIEWPOINT 0 0 0 1 0 0 0
POINTS 1338
DATA ascii
0 -0.016207516 0.70400476
0 -0.017092496 0.70389265
0 -0.018581241 0.7079618
0 -0.019612312 0.70863241
0 -0.020654231 0.70931041
0 -0.021707088 0.70999527
0 -0.02277112 0.71068776
0 -0.023846537 0.71138728
0 -0.024933577 0.71209466
0 -0.026032239 0.71280926
0 -0.027142912 0.71353209
0 -0.028265595 0.71426225
0 -0.029400706 0.71500099
0 -0.030548334 0.71574789
0 -0.031708628 0.71650261
0 -0.032881916 0.71726614
0 -0.034068257 0.71803772
0 -0.035268098 0.7188186
0 -0.03648147 0.71960789
0 -0.037708819 0.72040659
0 -0.038950056 0.72121394
0 -0.040205657 0.72203064
0 -0.041475922 0.72285736
0 -0.042761087 0.72369361
0 -0.044061124 0.72453922
0 -0.045376569 0.72539485
0 -0.046707928 0.72626168
0 -0.047917455 0.72671586
0 -0.048938811 0.72658533
0 -0.049725026 0.72576928
0 -0.050787002 0.72578073
0.0015439074 0.054036796 0.7928918
0.0015062792 0.051213503 0.7876941
0.0014721811 0.048581988 0.78298402
0.0014409807 0.046111405 0.77867424
0.0014121808 0.043777585 0.77469611
0.0013853869 0.041561633 0.7709949
0.0013603992 0.03945154 0.76754332
0.0013369216 0.037433803 0.76430023
0.0013147055 0.035497069 0.76123148
0.0012936712 0.033635497 0.75832599
0.0012737794 0.031844497 0.75557828
0.00125476 0.030114233 0.75295103
0.0012366292 0.028442502 0.75044662
0.0012193047 0.026824743 0.74805355
0.0012027363 0.025257468 0.74576491
0.0011868487 0.023736984 0.74357027
0.0011715278 0.022258997 0.74145401
0.0011568583 0.020823449 0.73942763
0.0011426613 0.019425273 0.73746657
0.0011290314 0.018064559 0.73558378
0.0011158694 0.016738057 0.73376566
0.0011031211 0.015443712 0.73200476
0.001090861 0.014181256 0.73031121
0.0010789055 0.012946904 0.72865975
0.0010674277 0.011741728 0.72707433
0.0010562101 0.010562122 0.72552478
0.0010454097 0.0094087124 0.72403288
0.0010348603 0.0082789361 0.72257566
0.0010246733 0.0071727633 0.72116852
0.0010147198 0.0060883462 0.71979368
0.0010051037 0.0050255358 0.71846533
0.00099568826 0.0039827824 0.71716475
0.00098659145 0.0029597878 0.71590823
0.00097765622 0.0019553602 0.71467394
0.00096926349 0.00096929073 0.71351463
0.0009641822 2.9802322e-08 0.71281272
0.00096097938 -0.00096094608 0.71237034
0.000957807 -0.0019156039 0.71193212
0.00095473224 -0.002864182 0.71150744
0.00095202436 -0.0038080513 0.71113336
0.00094933185 -0.0047466755 0.71076143
0.00094666955 -0.0056799948 0.71039367
0.00094442687 -0.0066109598 0.71008384
0.00094219478 -0.0075375438 0.70977557
0.00093997322 -0.0084597468 0.70946866
0.00093812594 -0.0093812644 0.7092135
0.00093633309 -0.010299683 0.7089659
0.00093463814 -0.011215627 0.70873165
0.00093288493 -0.012127489 0.70848954
0.00093012193 -0.013021678 0.70810789
0.00092523446 -0.013878495 0.70743275
0.00092024717 -0.014723957 0.7067439
0.00091531331 -0.015560299 0.70606232
0.00090672367 -0.016321033 0.70487583
0.00090146321 -0.017127752 0.70414919
0.00090170099 -0.018034011 0.70418203
0.00093148532 -0.019561172 0.70829618
0.00093636854 -0.02060008 0.70897073
0.00094130012 -0.021649897 0.70965201
0.00094628701 -0.02271086 0.71034086
0.00095132395 -0.023783088 0.71103662
0.00095641782 -0.024866819 0.7117402
0.00096156349 -0.025962174 0.71245098
0.00096676796 -0.027069479 0.71316993
0.00097202597 -0.028188735 0.71389621
0.00097734458 -0.0293203 0.71463084
0.00098272169 -0.030464381 0.71537369
0.00098815514 -0.03162095 0.71612418
0.00099365227 -0.032790512 0.71688354
0.00099920749 -0.033973068 0.71765089
0.0010048287 -0.035169005 0.71842736
0.0010105065 -0.036378235 0.71921164
0.0010162558 -0.037601441 0.72000581
0.001022071 -0.038838714 0.7208091
0.0010279495 -0.040090024 0.72162116
0.0010338996 -0.041355997 0.72244298
0.0010399191 -0.042636693 0.72327447
0.0010460016 -0.04393205 0.72411472
0.0010521633 -0.045242995 0.72496575
0.0010583978 -0.046569496 0.72582698
0.0010584883 -0.047631949 0.7258395
0.0010576675 -0.048652679 0.72572613
0.0010505168 -0.049374282 0.72473842
0.0030617947 0.053581446 0.79109472
0.0029923404 0.050869823 0.78629768
0.0029288055 0.04832533 0.78190958
0.0028701543 0.045922488 0.77785873
0.0028155113 0.043640435 0.77408481
0.0027642837 0.041464269 0.77054667
0.0027162631 0.039385825 0.76723003
0.0026710695 0.037395 0.76410872
0.0026280866 0.035479188 0.76113999
0.0025872637 0.033634424 0.75832051
0.0025485412 0.031856775 0.75564611
0.0025114485 0.03013742 0.75308418
0.0024760899 0.028475076 0.75064212
0.0024421541 0.026863724 0.74829829
0.0024097215 0.025302082 0.74605834
0.0023784623 0.023784608 0.74389941
0.0023484118 0.022309959 0.74182391
0.0023195089 0.020875573 0.73982769
0.0022916002 0.019478619 0.73790014
0.0022647087 0.018117726 0.7360428
0.0022387612 0.016790748 0.73425066
0.0022135908 0.015495151 0.73251235
0.002189351 0.014230788 0.73083818
0.0021657546 0.012994558 0.72920841
0.0021429854 0.011786431 0.72763586
0.0021208185 0.010604113 0.72610486
0.0020993948 0.0094473064 0.72462517
0.002078508 0.0083140433 0.72318262
0.0020583251 0.0072041452 0.72178864
0.0020385724 0.0061157346 0.72042441
0.0020195104 0.0050487816 0.71910787
0.0020008083 0.0040016174 0.71781617
0.0019827469 0.0029741824 0.71656871
0.0019650084 0.0019650161 0.71534359
0.0019478591 0.0009739399 0.71415913
0.0019337685 -0 0.71318597
0.0019262721 -0.00096312165 0.71266824
0.0019201037 -0.0019200742 0.71224225
0.0019140975 -0.0028711259 0.71182734
0.0019084107 -0.0038168132 0.7114346
0.0019032506 -0.0047581196 0.71107823
0.0018981971 -0.0056945682 0.71072924
0.0018933691 -0.006626755 0.71039575
0.0018891057 -0.0075564086 0.71010125
0.0018849748 -0.0084823668 0.70981598
0.0018809036 -0.0094044805 0.70953476
0.0018775668 -0.010326594 0.70930433
0.0018743126 -0.011245877 0.7090795
0.0018712581 -0.012163162 0.70886862
0.0018682195 -0.013077497 0.7086587
0.0018617869 -0.013963372 0.7082144
0.001852117 -0.01481691 0.70754659
0.0018425526 -0.015661687 0.70688605
0.0018278981 -0.016451061 0.70587391
0.0018164269 -0.017256021 0.70508158
0.0018064362 -0.01806435 0.70439154
0.0018080341 -0.018984348 0.70450193
0.001867844 -0.020546257 0.70863283
0.0018776556 -0.021593034 0.70931041
0.001887571 -0.022650838 0.70999527
0.0018975914 -0.023719877 0.71068734
0.001907725 -0.02480042 0.71138728
0.0019179614 -0.025892496 0.71209419
0.0019283142 -0.026996374 0.71280926
0.0019387732 -0.028112173 0.71353161
0.0019493527 -0.029240251 0.71426231
0.0019600482 -0.030380726 0.71500099
0.0019708553 -0.031533718 0.71574748
0.0019817888 -0.032699525 0.71650255
0.0019928375 -0.033878237 0.71726567
0.0020040171 -0.03507027 0.71803772
0.0020153157 -0.036275625 0.71881813
0.0020267495 -0.037494838 0.71960783
0.0020383138 -0.038727939 0.72040653
0.0020500037 -0.039975047 0.72121388
0.0020618357 -0.041236699 0.72203112
0.0020738051 -0.042512983 0.72285777
0.0020859067 -0.04380402 0.72369361
0.002098158 -0.045110375 0.72453976
0.0021049818 -0.04630959 0.72501105
0.0021039615 -0.047339112 0.72494054
0.0020938001 -0.048157364 0.72423875
0.0020906136 -0.049129397 0.72401869
0.0045628627 0.053233415 0.78972125
0.0044657742 0.050612152 0.78525084
0.0043761637 0.048137784 0.78112483
0.0042927 0.045788825 0.77728176
0.0042144293 0.04354912 0.77367783
0.0041406909 0.041406959 0.77028263
0.0040711225 0.039354205 0.76707935
0.0040055071 0.037384748 0.76405823
0.0039428789 0.035485983 0.7611745
0.0038833283 0.033655524 0.75843257
0.0038266322 0.031888634 0.75582206
0.0037722855 0.030178279 0.75331968
0.0037204693 0.028523594 0.75093389
0.0036704347 0.026916564 0.74862999
0.003622669 0.025358707 0.7464307
0.0035765893 0.023843944 0.74430901
0.0035322688 0.022371054 0.74226826
0.0034895376 0.020937234 0.74030077
0.0034483345 0.019540548 0.73840362
0.003408497 0.018178672 0.73656929
0.0033700401 0.016850203 0.73479855
0.0033327774 0.015552998 0.73308283
0.0032967315 0.014285833 0.73142314
0.0032617552 0.01304704 0.72981268
0.0032279338 0.011835784 0.72825539
0.003195001 0.010649979 0.72673905
0.0031632043 0.0094896257 0.72527498
0.0031321002 0.0083522797 0.7238428
0.0031021091 0.0072382689 0.72246188
0.0030727077 0.0061454177 0.72110814
0.0030443151 0.0050738752 0.71980083
0.0030164735 0.0040220022 0.71851885
0.0029895469 0.0029895604 0.71727908
0.0029631166 0.0019754171 0.71606213
0.0029375267 0.00097921491 0.7148838
0.0029126031 -0 0.71373624
0.0028966786 -0.00096556544 0.71300298
0.0028873791 -0.0019249022 0.71257484
0.0028785386 -0.0028785169 0.71216774
0.0028700472 -0.0038267076 0.71177679
0.0028622947 -0.0047704875 0.71141982
0.0028548392 -0.0057096481 0.71107656
0.0028477865 -0.0066448152 0.71075177
0.0028412838 -0.0075767338 0.71045238
0.0028352523 -0.0085057318 0.71017468
0.0028295785 -0.0094319284 0.70991337
0.0028241505 -0.010355204 0.70966351
0.0028195989 -0.011278361 0.70945394
0.0028152927 -0.012199581 0.70925564
0.0028111236 -0.013118565 0.70906365
0.0028066135 -0.014033049 0.70885599
0.0027971719 -0.014918238 0.70842135
0.0027833583 -0.015772343 0.70778525
0.0027697233 -0.016618341 0.70715743
0.0027474875 -0.017400742 0.7061336
0.002730987 -0.018206567 0.70537382
0.0027167501 -0.01901722 0.70471835
0.0027192093 -0.019940823 0.7048316
0.0028090966 -0.02153638 0.70897031
0.0028239004 -0.022591174 0.70965195
0.0028388519 -0.023657054 0.71034038
0.0028539719 -0.024734437 0.71103656
0.0028692442 -0.025823176 0.71173978
0.0028846906 -0.026923746 0.71245104
0.0029002945 -0.028036147 0.71316946
0.0029160779 -0.029160768 0.71389616
0.0029320337 -0.030297697 0.7146309
0.0029481554 -0.031446964 0.71537322
0.0029644654 -0.032609135 0.71612418
0.0029809468 -0.033784032 0.71688306
0.0029976226 -0.034972221 0.71765089
0.0030144758 -0.036173701 0.71842688
0.00303153 -0.037388831 0.71921211
0.0030487678 -0.0386177 0.72000581
0.0030662131 -0.039860755 0.72080904
0.0030838486 -0.041117966 0.7216211
0.0031016991 -0.04238987 0.72244304
0.0031197572 -0.043676585 0.72327447
0.0031367361 -0.044959873 0.7240563
0.0031355789 -0.0459885 0.72400296
0.0031333102 -0.046999633 0.72389853
0.0031129105 -0.04773128 0.72295922
0.0061909924 0.055718958 0.79342228
0.006055912 0.052989215 0.78875756
0.0059335465 0.050435185 0.78453189
0.0058193854 0.048009962 0.78058958
0.0057129618 0.045703709 0.77691442
0.0056127962 0.043499172 0.77345538
0.0055178739 0.041384071 0.77017736
0.0054280148 0.039353132 0.76707423
0.0053429785 0.037400901 0.76413763
0.0052615665 0.035515577 0.76132631
0.0051842472 0.033697635 0.7586562
0.0051103076 0.031939447 0.75610286
0.005039366 0.030236214 0.75365305
0.0049714264 0.028585732 0.75130677
0.0049060225 0.026983142 0.74904823
0.0048433426 0.02542758 0.74688363
0.004782917 0.023914605 0.74479699
0.0047246744 0.022442192 0.74278569
0.0046685664 0.021008581 0.74084806
0.0046142582 0.019610643 0.7389726
0.0045618638 0.018247485 0.73716331
0.0045110909 0.016916573 0.73540992
0.0044619543 0.015616834 0.73371315
0.0044144336 0.014346957 0.73207206
0.0043682191 0.013104677 0.73047614
0.0043236376 0.011890024 0.72893655
0.004280034 0.010700107 0.72743082
0.004238056 0.0095356405 0.72598118
0.0041969228 0.0083938539 0.72456068
0.0041571907 0.0072751045 0.72318864
0.0041183317 0.0061775148 0.72184676
0.004080697 0.0051008761 0.72054708
0.0040437574 0.0040437579 0.71927148
0.0040081153 0.0030061305 0.71804059
0.0039730957 0.001986593 0.71683127
0.0039391657 0.00098478794 0.7156595
0.0039058868 -0 0.71451032
0.0038764474 -0.00096908212 0.71349365
0.0038602578 -0.0019301176 0.71293461
0.0038487802 -0.0028865337 0.71253824
0.0038375068 -0.003837496 0.71214896
0.0038270375 -0.0047837794 0.7117874
0.0038175317 -0.0057263076 0.7114591
0.003808073 -0.0066640973 0.71113247
0.0037993647 -0.0075987279 0.71083176
0.0037916387 -0.008531183 0.71056497
0.0037841485 -0.0094603598 0.71030635
0.0037773116 -0.010387599 0.71007019
0.0037709535 -0.011312842 0.70985067
0.0037655937 -0.012238145 0.70966554
0.0037605583 -0.013161957 0.70949167
0.003755738 -0.014084011 0.70932519
0.0037500551 -0.015000194 0.70912892
0.0037380005 -0.015886515 0.7087127
0.0037203599 -0.016741604 0.70810348
0.003703 -0.017589241 0.70750397
0.0036749505 -0.018374741 0.70653534
0.0036543589 -0.019185364 0.7058242
0.0036344298 -0.019989341 0.70513606
0.0036360517 -0.020907283 0.70519203
0.0037553112 -0.022531837 0.70931041
0.0037751419 -0.023594588 0.70999521
0.0037951949 -0.024668783 0.71068776
0.00381545 -0.025754273 0.71138722
0.0038359351 -0.026851535 0.71209466
0.0038566284 -0.027960539 0.71280921
0.0038775592 -0.029081702 0.71353209
0.0038987182 -0.030215025 0.71426272
0.0039200964 -0.031360745 0.71500099
0.0039417236 -0.032519221 0.71574795
0.0039635776 -0.033690363 0.71650255
0.0039856886 -0.034874767 0.71726614
0.0040080342 -0.036072254 0.71803772
0.0040306454 -0.037283421 0.7188186
0.0040534991 -0.038508236 0.71960783
0.0040766275 -0.039747119 0.72040653
0.0040999935 -0.040999919 0.7212134
0.0041236714 -0.042267621 0.72203112
0.0041476102 -0.043549895 0.72285777
0.0041502435 -0.044615149 0.72294873
0.0041506924 -0.045657575 0.72296423
0.0041229995 -0.046383709 0.72200787
0.0041317204 -0.047514737 0.72230905
0.0077016251 0.055451721 0.79239696
0.0075454977 0.052818537 0.78808367
0.007399844 0.050318927 0.78405982
0.007263111 0.047936529 0.78028232
0.0071347267 0.045662254 0.77673548
0.0070139109 0.043486267 0.7733978
0.0068988781 0.04139328 0.7702198
0.0067896345 0.039379895 0.76720178
0.0066860807 0.037442058 0.76434094
0.0065866886 0.035568148 0.76159507
0.0064923898 0.033760458 0.75898999
0.0064015249 0.032007635 0.75647968
0.0063146157 0.030310184 0.75407863
0.0062310793 0.02866298 0.75177073
0.006150818 0.027063638 0.74955344
0.0060734907 0.025508672 0.74741727
0.0059992452 0.023997009 0.74536604
0.0059272656 0.022523642 0.74337757
0.0058581233 0.021089286 0.74146736
0.0057909363 0.019689202 0.73961121
0.0057261772 0.018323779 0.73782212
0.0056634541 0.016990364 0.73608929
0.0056026177 0.015687346 0.73440862
0.0055439011 0.014414191 0.73278642
0.0054865852 0.013167828 0.73120308
0.0054313741 0.011949062 0.72967774
0.0053773797 0.010754764 0.72818601
0.0053252117 0.0095854104 0.72674483
0.0052742884 0.0084388852 0.72533798
0.005224918 0.0073148906 0.72397411
0.0051766071 0.0062119365 0.72263938
0.0051298891 0.0051298738 0.72134876
0.0050840415 0.0040672123 0.72008216
0.0050396896 0.003023833 0.71885681
0.0049961214 0.0019984841 0.71765321
0.0049539604 0.00099080801 0.71648842
0.004912586 2.9802322e-08 0.71534538
0.0048723281 -0.00097444654 0.71423322
0.0048414888 -0.0019365847 0.71338129
0.0048253224 -0.0028951764 0.71293461
0.0048117847 -0.003849417 0.71256059
0.0047984929 -0.0047984719 0.71219343
0.0047863838 -0.0057436526 0.71185887
0.0047753933 -0.0066855252 0.71155524
0.0047644684 -0.0076231658 0.7112534
0.0047544292 -0.0085579455 0.71097606
0.00474578 -0.0094915628 0.71073711
0.0047371928 -0.010421813 0.71049988
0.0047295992 -0.011351019 0.71029007
0.0047227042 -0.012279004 0.71009958
0.0047168466 -0.013207138 0.70993781
0.0047114217 -0.014134258 0.70978791
0.0047065751 -0.015060991 0.70965397
0.0047010547 -0.015983552 0.7095015
0.0046873768 -0.016874552 0.70912367
0.0046669864 -0.017734557 0.70856035
0.0046466715 -0.018586636 0.70799911
0.0046265176 -0.019431382 0.70744234
0.0045867874 -0.020181835 0.70634466
0.0045628184 -0.020988941 0.70568252
0.0045599639 -0.021887809 0.70560366
0.0045817839 -0.022908896 0.70620644
0.0047314349 -0.024603426 0.71034086
0.0047566351 -0.025685787 0.71103698
0.0047820737 -0.026779592 0.71173978
0.0048078019 -0.027885228 0.71245056
0.004833824 -0.029002935 0.71316946
0.0048601297 -0.0301328 0.71389621
0.0048867064 -0.031274915 0.71463042
0.0049135922 -0.032429695 0.71537322
0.0049407594 -0.033597142 0.71612376
0.004968245 -0.034777701 0.71688306
0.0049960213 -0.035971344 0.71765041
0.0050241267 -0.037178516 0.71842682
0.0050525498 -0.038399369 0.71921217
0.0050812969 -0.039634079 0.72000629
0.0051103728 -0.040882945 0.72080958
0.0051397653 -0.042146057 0.72162157
0.0051445668 -0.043214351 0.72175425
0.0051469351 -0.044263631 0.7218197
0.0051168795 -0.045028508 0.72098929
0.005118764 -0.046068847 0.72104138
0.0092143649 0.055286229 0.79176188
0.0090359813 0.052709907 0.78765512
0.0088685583 0.050255179 0.78380072
0.0087105427 0.047907978 0.78016287
0.008561343 0.045660526 0.77672791
0.0084207049 0.04350698 0.77349013
0.0082864193 0.041432142 0.77039862
0.0081587369 0.039433897 0.76745909
0.0080373548 0.037507683 0.76466465
0.0079204813 0.035642147 0.76197398
0.0078095533 0.033841401 0.75942016
0.007702488 0.032093734 0.75695521
0.0076000988 0.030400425 0.75459802
0.0075013102 0.028755069 0.75232375
0.007406686 0.027157873 0.75014526
0.0073149288 0.025602281 0.74803287
0.0072271735 0.024090618 0.74601251
0.007141727 0.022615492 0.74404538
0.0070596738 0.02117905 0.74215627
0.0069800583 0.019776851 0.74032336
0.0069030994 0.018408269 0.73855168
0.0068287859 0.017071962 0.73684078
0.0067563364 0.015764832 0.73517281
0.0066865608 0.014487594 0.73356646
0.0066184327 0.01323688 0.73199797
0.0065525449 0.012013018 0.73048109
0.0064884038 0.010814041 0.72900444
0.0064261779 0.009639293 0.7275719
0.0063654287 0.0084872544 0.72617328
0.0063065761 0.0073576868 0.72481835
0.0062490199 0.0062490404 0.72349328
0.0061932141 0.0051610172 0.7222085
0.0061385655 0.0040923953 0.72095042
0.0060855988 0.0030428171 0.71973103
0.0060335589 0.0020112097 0.71853292
0.0059832437 0.00099721551 0.71737456
0.0059338007 2.9802322e-08 0.71623629
0.0058857505 -0.00098091364 0.71513003
0.0058390452 -0.0019463599 0.71405482
0.0058092573 -0.0029046237 0.71336901
0.0057927929 -0.0038618445 0.71298999
0.0057776757 -0.0048147142 0.71264195
0.0057628034 -0.0057627559 0.71229959
0.0057492862 -0.0067074895 0.71198845
0.0057372521 -0.0076496303 0.71171135
0.0057252687 -0.0085878968 0.71143544
0.0057142861 -0.0095238388 0.71118259
0.0057050786 -0.010459244 0.71097064
0.0056958999 -0.011391819 0.71075934
0.0056878929 -0.012323737 0.71057498
0.005680813 -0.013255209 0.71041197
0.0056749592 -0.014187366 0.71027726
0.0056696939 -0.015119165 0.71015602
0.0056651398 -0.016051203 0.71005118
0.0056604133 -0.016981244 0.70994234
0.0056489268 -0.017888248 0.70967793
0.005625526 -0.018751711 0.70913923
0.0056030042 -0.019610465 0.70862067
0.0055820583 -0.02046755 0.70813841
0.005537143 -0.021225691 0.70710444
0.0055085458 -0.022034138 0.70644599
0.0054946532 -0.022894382 0.70612621
0.0055098045 -0.023875833 0.70647502
0.0056927926 -0.02561751 0.71068776
0.0057231938 -0.026708215 0.71138763
0.0057539209 -0.027810574 0.71209508
0.0057849619 -0.028924763 0.71280968
0.0058163577 -0.030051172 0.71353251
0.0058480771 -0.03118971 0.71426272
0.0058801644 -0.032340884 0.71500146
0.0059125661 -0.033504516 0.71574748
0.0059453663 -0.03468129 0.71650261
0.005978513 -0.035871059 0.71726567
0.0060120509 -0.037074298 0.71803772
0.0060459678 -0.038291126 0.7188186
0.0060802489 -0.039521635 0.71960783
0.0061076158 -0.040717423 0.72023791
0.0061143339 -0.041781276 0.72039258
0.0061201849 -0.042841315 0.72052729
0.006081596 -0.043584764 0.71963882
0.0060888589 -0.044651628 0.71980608
0.010731253 0.055189282 0.79139006
0.010531313 0.052656591 0.78744465
0.010343207 0.05023846 0.78373271
0.010164979 0.047920614 0.78021574
0.0099957632 0.045694917 0.77687651
0.0098360851 0.04355979 0.77372557
0.0096833641 0.041500151 0.7707119
0.0095378458 0.039513946 0.76784027
0.009398886 0.03759557 0.76509815
0.0092653194 0.035737664 0.76246244
0.0091380617 0.033941388 0.75995123
0.009015345 0.032197684 0.75752968
0.0088978205 0.030506849 0.75521052
0.0087842094 0.028862417 0.75296867
0.0086753434 0.0272654 0.75082028
0.0085698115 0.02570945 0.74873781
0.0084682982 0.024195164 0.74673462
0.0083701042 0.022718877 0.74479699
0.0082751149 0.021278888 0.74292254
0.0081835445 0.019874305 0.74111557
0.0080943871 0.018501461 0.73935622
0.0080085378 0.017161161 0.73766208
0.0079248212 0.01584965 0.73601007
0.0078438716 0.014567196 0.73441267
0.0077652261 0.013311833 0.73286074
0.0076888227 0.012082458 0.7313531
0.0076145204 0.010877907 0.72988683
0.0075423243 0.0096972883 0.72846222
0.0074719666 0.0085393786 0.72707379
0.0074035944 0.0074036121 0.72572452
0.0073369527 0.0062888563 0.72440952
0.0072721359 0.0051943958 0.72313046
0.0072087781 0.0041193068 0.72188026
0.0071472758 0.0030631423 0.72066653
0.0070868619 0.0020248592 0.71947443
0.0070284097 0.00100407 0.71832097
0.0069709378 -0 0.71718687
0.0069151791 -0.00098785758 0.71608651
0.0068604858 -0.0019600987 0.71500731
0.0068100798 -0.002918601 0.71401256
0.0067815729 -0.0038751662 0.71345007
0.0067642312 -0.0048315823 0.71310788
0.0067476779 -0.0057837069 0.71278119
0.0067317719 -0.0067317784 0.71246731
0.0067172833 -0.0076768696 0.71218145
0.0067045628 -0.0086201131 0.71193039
0.0066919765 -0.0095599294 0.71168202
0.0066804443 -0.010497838 0.71145451
0.0066711106 -0.011436194 0.71127033
0.006661803 -0.012371927 0.71108663
0.0066539249 -0.01330781 0.71093112
0.0066470201 -0.014243603 0.71079493
0.0066418247 -0.015181303 0.71069235
0.0066373562 -0.016119272 0.71060419
0.0066335914 -0.017057806 0.71052992
0.0066301688 -0.017996162 0.71046245
0.0066213333 -0.018918097 0.71028805
0.0066005494 -0.019801646 0.70987791
0.0065762792 -0.020668298 0.70939893
0.0065527642 -0.021530509 0.7089349
0.0065057669 -0.022305459 0.70800745
0.0064758961 -0.023128211 0.70741808
0.0064482749 -0.023950726 0.706873
0.006452092 -0.024886638 0.70694834
0.006479484 -0.025917917 0.70748883
0.006676781 -0.027660936 0.71138221
0.0067309663 -0.028846949 0.7124514
0.0067673977 -0.029969901 0.71317041
0.0068042036 -0.031104892 0.71389663
0.0068414346 -0.032252461 0.71463132
0.0068790521 -0.033412516 0.71537364
0.0069171088 -0.034585536 0.71612465
0.0069555659 -0.035771489 0.71688354
0.0069944761 -0.036970794 0.71765131
0.0070280307 -0.038152158 0.71831346
0.007041438 -0.039230824 0.71857804
0.0070548006 -0.040313125 0.71884173
0.0070617408 -0.0413616 0.71897864
0.0070140837 -0.042084455 0.7180382
0.0070418422 -0.043257028 0.71858597
0.012256328 0.055153519 0.79125267
0.012035055 0.052653342 0.78743207
0.011827096 0.050265163 0.78384131
0.01162927 0.047970742 0.78042555
0.011440924 0.045763761 0.7771734
0.011262898 0.043643773 0.77409947
0.01109188 0.041594565 0.7711466
0.010929137 0.039618134 0.76833665
0.01077315 0.037706047 0.76564324
0.010623499 0.03585434 0.76305926
0.010480256 0.034060836 0.7605859
0.010342262 0.032319605 0.75820327
0.010209739 0.030629247 0.75591505
0.010081808 0.028985202 0.7537061
0.0099585839 0.027386129 0.75157839
0.009839721 0.025829285 0.74952602
0.0097247744 0.02431193 0.74754131
0.0096140746 0.022833437 0.74562997
0.0095063616 0.021389365 0.74377006
0.0094027426 0.019980848 0.74198097
0.0093018692 0.018603742 0.7402392
0.0092043104 0.017258108 0.73855466
0.0091097187 0.015942037 0.73692143
0.0090177702 0.014653891 0.7353338
0.008928529 0.013392836 0.7337929
0.0088417279 0.01215741 0.73229414
0.0087574041 0.01094678 0.73083812
0.0086752111 0.0097596347 0.72941899
0.0085955402 0.008595556 0.72804332
0.0085177142 0.0074530244 0.72669947
0.0084420657 0.0063315928 0.7253933
0.0083682779 0.0052302182 0.72411925
0.0082962606 0.0041481256 0.72287583
0.0082262121 0.0030848384 0.72166628
0.0081576165 0.0020394325 0.72048187
0.0080910632 0.0010114312 0.7193327
0.0080255596 -0 0.7182017
0.007962307 -0.00099527836 0.71710956
0.0079000173 -0.0019749999 0.71603405
0.007839418 -0.0029397607 0.71498764
0.0077866674 -0.0038933158 0.71407676
0.0077594686 -0.0048496723 0.71360719
0.0077410638 -0.0058057904 0.71328938
0.0077233729 -0.0067579448 0.71298397
0.0077068862 -0.0077068806 0.71269929
0.0076921103 -0.0086536109 0.71244413
0.0076788776 -0.0095985532 0.71221566
0.0076661347 -0.010540903 0.7119956
0.007654469 -0.011481673 0.71179414
0.0076455399 -0.012423992 0.71164
0.0076366565 -0.013364166 0.71148664
0.0076294569 -0.014305234 0.71136236
0.0076231495 -0.015246272 0.7112534
0.0076192925 -0.016190976 0.71118683
0.0076160245 -0.017136067 0.71113038
0.0076140743 -0.018083423 0.7110967
0.007613197 -0.019032955 0.71108156
0.0076098368 -0.019975781 0.71102357
0.0075970311 -0.020891815 0.71080238
0.0075737662 -0.02177456 0.71040076
0.0075505474 -0.022651643 0.7099998
0.0075277803 -0.023524284 0.70960671
0.0074720331 -0.024284065 0.70864415
0.0074435826 -0.025122106 0.70815289
0.0074205752 -0.025972009 0.70775568
0.0074328627 -0.026944101 0.70796776
0.0074644377 -0.027991623 0.70851302
0.0075135399 -0.029114932 0.70936084
0.0077076098 -0.030830443 0.71271181
0.0077619497 -0.032018006 0.71364999
0.0078087226 -0.033187062 0.71445769
0.0078501524 -0.034344405 0.71517301
0.0078827422 -0.035472333 0.71573567
0.0079138661 -0.036601603 0.71627307
0.0079375226 -0.037703216 0.7166816
0.0079388991 -0.038702101 0.71670532
0.0079010399 -0.039505154 0.71605164
0.0079331556 -0.040657431 0.71660614
0.0079885339 -0.041939765 0.71756232
0.013800455 0.055201858 0.7914381
0.013550679 0.052697062 0.78760463
0.0133233 0.050332487 0.78411472
0.013106697 0.048057914 0.78079027
0.012899511 0.04586494 0.77761042
0.012703535 0.043756664 0.77460253
0.01251483 0.041716099 0.77170628
0.012335341 0.039747238 0.76895142
0.012162698 0.037839502 0.76630175
0.011997346 0.035992056 0.7637639
0.011838263 0.034199446 0.76132226
0.011685384 0.032459438 0.75897586
0.011537844 0.03076762 0.75671142
0.011396023 0.029123217 0.75453466
0.011258781 0.027521491 0.75242829
0.011126887 0.02596277 0.750404
0.010998635 0.024441391 0.74843562
0.010875337 0.022959054 0.74654317
0.010755465 0.021510929 0.74470341
0.010639518 0.020096868 0.74292386
0.010527411 0.018715411 0.74120319
0.010418248 0.017363727 0.73952776
0.010312639 0.016041934 0.73790687
0.010209888 0.01474762 0.73632979
0.010110158 0.013480216 0.73479915
0.010013032 0.012238145 0.73330843
0.0099188928 0.011021018 0.73186362
0.0098268315 0.0098268688 0.73045063
0.0097378464 0.0086558759 0.72908491
0.0096506318 0.0075060427 0.72774631
0.009565956 0.0063773692 0.72644669
0.0094831912 0.0052684247 0.72517639
0.0094028367 0.0041790307 0.72394317
0.0093242554 0.0031080842 0.72273707
0.0092476783 0.0020550489 0.72156173
0.0091730095 0.0010192692 0.72041571
0.0090997536 2.9802322e-08 0.71929139
0.0090287849 -0.001003176 0.71820217
0.0089589143 -0.0019908249 0.71712977
0.00889121 -0.0029637218 0.71609068
0.0088246958 -0.0039220452 0.71506971
0.0087695876 -0.0048719943 0.71422398
0.0087436615 -0.0058290958 0.71382606
0.0087248497 -0.0067859888 0.71353734
0.0087066013 -0.0077391863 0.71325719
0.0086898385 -0.0086898208 0.71299994
0.0086751645 -0.0096390247 0.71277475
0.0086619416 -0.010586768 0.71257174
0.0086496249 -0.011532813 0.71238279
0.0086381799 -0.012477368 0.71220708
0.0086302143 -0.013424724 0.71208477
0.0086222896 -0.014370471 0.71196324
0.0086165722 -0.015318334 0.71187544
0.0086111668 -0.016265512 0.71179247
0.0086094774 -0.017218918 0.7117666
0.0086083421 -0.018173158 0.7117492
0.0086091179 -0.019131333 0.711761
0.0086111668 -0.020092726 0.71179253
0.0086141042 -0.021056712 0.71183759
0.0086139655 -0.022013426 0.71183544
0.0086004864 -0.022934616 0.71162856
0.0085807992 -0.02383551 0.71132642
0.0085616959 -0.024733782 0.71103317
0.0085433591 -0.025630057 0.71075177
0.008484914 -0.026397467 0.70985478
0.0084626479 -0.027268529 0.70951307
0.0084404713 -0.028134882 0.70917267
0.0084439861 -0.029084831 0.70922661
0.0084733097 -0.030127347 0.70967668
0.0085126283 -0.031212986 0.71028012
0.0085582463 -0.032331139 0.7109803
0.0086061005 -0.033468157 0.71171474
0.0086542396 -0.034616947 0.7124536
0.0087017035 -0.035773635 0.71318209
0.0087496629 -0.036943018 0.71391815
0.0088013941 -0.038139373 0.71471214
0.0088673802 -0.039410561 0.71572489
0.015081735 0.052786112 0.78795582
0.01483505 0.050439179 0.78454828
0.014599743 0.048179179 0.78129792
0.014374426 0.045998186 0.77818549
0.014160809 0.043898523 0.77523476
0.013954759 0.041864306 0.77238858
0.013759009 0.039901137 0.76968461
0.01356979 0.037995398 0.76707089
0.013389139 0.036150724 0.76457548
0.013214292 0.034357131 0.7621603
0.013046929 0.032617331 0.75984842
0.012884756 0.030923456 0.75760829
0.012729344 0.029277503 0.75546151
0.012578221 0.027672082 0.75337404
0.012433087 0.026109487 0.75136924
0.012292178 0.024584353 0.74942285
0.012155918 0.023096234 0.74754071
0.012024445 0.021644056 0.7457245
0.011896355 0.020223826 0.74395525
0.011772738 0.018836409 0.7422477
0.011652391 0.017478615 0.74058527
0.01153569 0.016149968 0.73897326
0.011422313 0.014849007 0.73740709
0.011312217 0.01357469 0.73588634
0.011204856 0.012325376 0.73440337
0.011100924 0.011100948 0.73296773
0.010999144 0.0098992586 0.73156178
0.010900613 0.0087205172 0.73020077
0.010804264 0.007562995 0.7288698
0.010710759 0.0064264834 0.72757828
0.010618973 0.0053094923 0.72631043
0.010530462 0.0042122304 0.72508776
0.01044334 0.0031330287 0.72388434
0.010358768 0.002071768 0.72271609
0.010276015 0.0010276437 0.721573
0.010195307 -0 0.72045815
0.010116615 -0.0010116696 0.7193712
0.010039399 -0.0020079017 0.71830463
0.009964589 -0.0029893219 0.71727121
0.0098908516 -0.0039563179 0.71625268
0.0098193977 -0.0049096644 0.71526569
0.0097628254 -0.0058576465 0.71448416
0.009736361 -0.0068154633 0.71411866
0.0097173052 -0.0077738166 0.71385539
0.0096990196 -0.0087290704 0.71360284
0.0096825678 -0.0096825659 0.71337557
0.0096683083 -0.010635138 0.71317863
0.0096556889 -0.011586815 0.71300429
0.0096444162 -0.012537718 0.71284854
0.0096336696 -0.01348713 0.71270013
0.0096273394 -0.014440984 0.71261269
0.0096211722 -0.015393883 0.71252751
0.0096176257 -0.016349971 0.71247852
0.0096143605 -0.017305821 0.7124334
0.0096150441 -0.018268555 0.71244282
0.0096171582 -0.0192343 0.71247208
0.0096215149 -0.02020517 0.71253228
0.0096278694 -0.021181285 0.71262002
0.0096361982 -0.022163212 0.71273506
0.0096467007 -0.023152053 0.71288007
0.0096538709 -0.024134666 0.7129792
0.0096559394 -0.025105447 0.71300775
0.0096453549 -0.026042461 0.71286154
0.0096360734 -0.026980996 0.71273333
0.0096319849 -0.027932733 0.71267682
0.0096343253 -0.028902948 0.71270913
0.0095797358 -0.02969715 0.71195513
0.0095720282 -0.030630469 0.71184874
0.0095773609 -0.031605303 0.71192229
0.0095941992 -0.032620251 0.71215498
0.0096195536 -0.033668399 0.7125051
0.0096886549 -0.034879148 0.71345967
0.0098575102 -0.036472738 0.71579206
0.010518841 -0.03997159 0.72492725
0.016630813 0.052916259 0.78846943
0.016365167 0.050583273 0.7851336
0.016111603 0.048334837 0.78194946
0.015868472 0.046162844 0.77889627
0.015637649 0.044069767 0.77599776
0.015414462 0.042039454 0.77319509
0.015202641 0.040079683 0.77053511
0.014997251 0.038174868 0.76795596
0.014801153 0.036330134 0.76549339
0.014611226 0.034535646 0.76310843
0.014429547 0.032794446 0.76082695
0.014253014 0.031097502 0.75861013
0.014083657 0.029447675 0.75648344
0.013919345 0.027838707 0.7544201
0.013760675 0.02627039 0.75242758
0.013607731 0.024741322 0.750507
0.013458537 0.023246586 0.74863344
0.013315126 0.021788418 0.74683261
0.013175429 0.02036202 0.74507838
0.013040088 0.01896745 0.74337876
0.012908875 0.01760301 0.74173105
0.012781174 0.016266972 0.7401275
0.012657298 0.01495862 0.73857188
0.012536809 0.013676554 0.73705888
0.012419392 0.012419432 0.73558438
0.012305313 0.011186689 0.73415184
0.012194402 0.0099772513 0.73275906
0.012086319 0.0087900758 0.7314018
0.011981145 0.0076243877 0.73008114
0.011878649 0.0064793229 0.72879398
0.011778315 0.0053537786 0.727534
0.011681037 0.0042476654 0.72631252
0.011585723 0.0031597614 0.7251156
0.011493285 0.0020896792 0.7239548
0.011402389 0.0010365844 0.72281337
0.011314484 -0 0.72170949
0.011228079 -0.0010207295 0.72062445
0.011143933 -0.0020261705 0.71956778
0.011061824 -0.0030168295 0.71853673
0.01098132 -0.0039931834 0.71752584
0.010903254 -0.0049560368 0.71654546
0.010826289 -0.005905211 0.71557891
0.010766818 -0.0068515837 0.71483219
0.010738897 -0.007810086 0.71448153
0.010720562 -0.0087713599 0.71425134
0.010702674 -0.0097296834 0.71402669
0.010686975 -0.010686964 0.71382952
0.010673551 -0.011643857 0.71366096
0.010662384 -0.012600988 0.71352077
0.010652767 -0.01355803 0.71340001
0.010643964 -0.014514476 0.71328938
0.01063922 -0.015475214 0.71322984
0.010636004 -0.016437471 0.71318942
0.010635381 -0.017403334 0.71318167
0.010635935 -0.018371135 0.71318859
0.010638874 -0.019343376 0.71322548
0.010645903 -0.020323962 0.71331376
0.01065464 -0.021309257 0.71342349
0.010667008 -0.0223037 0.71357882
0.010681846 -0.023305804 0.71376514
0.010699838 -0.024317801 0.71399105
0.010721722 -0.025342256 0.71426588
0.010747294 -0.026379675 0.71458697
0.010772917 -0.027421951 0.71490878
0.010802194 -0.028478473 0.71527636
0.010834212 -0.02954784 0.71567851
0.010871007 -0.03063646 0.71614051
0.010927947 -0.031790376 0.71685553
0.011009482 -0.033028424 0.71787941
0.011113344 -0.034350336 0.71918368
0.011230623 -0.035733759 0.72065639
0.011370525 -0.03721261 0.72241324
0.011566634 -0.038905919 0.72487587
0.01194126 -0.04125157 0.72958016
0.018201185 0.053086817 0.78914261
0.017916815 0.050764352 0.78586924
0.017645471 0.048525065 0.78274572
0.017384762 0.04635936 0.77974474
0.017136911 0.044270396 0.77689165
0.016897067 0.042242706 0.77413082
0.016668981 0.040283382 0.77150536
0.016447879 0.038378417 0.76896012
0.016236776 0.03653273 0.76653016
0.016031817 0.03473559 0.76417089
0.01583555 0.032990754 0.76191163
0.015645195 0.031290412 0.75972044
0.015461774 0.029635102 0.75760907
0.015284764 0.028022081 0.75557148
0.015112657 0.026447177 0.75359035
0.014947199 0.02491203 0.75168574
0.014785876 0.023410976 0.7498287
0.014630097 0.021945149 0.74803555
0.014479271 0.020512342 0.74629939
0.014332097 0.019109458 0.74460524
0.014190085 0.017737627 0.74297059
0.014051525 0.016393483 0.74137557
0.013917 0.015076756 0.7398271
0.013786199 0.013786197 0.73832142
0.013659087 0.01252082 0.73685825
0.013534863 0.011279076 0.73542827
0.013415096 0.010061324 0.73404968
0.013297382 0.0088649094 0.73269457
0.013183224 0.0076902509 0.73138052
0.013071585 0.0065358281 0.73009539
0.012963279 0.0054013729 0.7288487
0.01285731 0.0042857826 0.72762889
0.012754244 0.0031885803 0.72644252
0.01265367 0.0021089315 0.72528476
0.012555155 0.0010462999 0.72415078
0.012459685 2.9802322e-08 0.72305179
0.012365784 -0.0010304749 0.72197092
0.012274977 -0.00204584 0.72092563
0.012185577 -0.0030463636 0.71989655
0.012098946 -0.0040329695 0.71889931
0.012013943 -0.0050058067 0.7179209
0.011930922 -0.0059654117 0.71696514
0.011850145 -0.0069125593 0.71603537
0.011784173 -0.0078561008 0.71527588
0.011753783 -0.0088153481 0.71492612
0.011736427 -0.0097803473 0.71472633
0.011719776 -0.010743111 0.7145347
0.011705554 -0.011705548 0.71437097
0.011693242 -0.012667656 0.71422923
0.01168436 -0.013631731 0.714127
0.011677288 -0.014596581 0.71404558
0.011671674 -0.015562207 0.71398091
0.01166862 -0.016530544 0.71394581
0.011669651 -0.017504454 0.71395767
0.011672895 -0.018482059 0.71399504
0.011678739 -0.019464552 0.71406233
0.011686235 -0.02045089 0.71414858
0.011698034 -0.021446347 0.7142843
0.011713738 -0.022451282 0.71446514
0.011732916 -0.023465812 0.71468592
0.011756765 -0.024493247 0.71496046
0.0117846 -0.025533259 0.71528089
0.011817418 -0.026589155 0.71565866
0.011856128 -0.027664244 0.71610427
0.011901598 -0.028762162 0.71662766
0.011954863 -0.02988714 0.71724081
0.012017746 -0.031045824 0.71796465
0.012092633 -0.032246977 0.71882665
0.012182748 -0.033502549 0.71986395
0.012294048 -0.034833133 0.72114515
0.012434245 -0.036266536 0.72275901
0.012631143 -0.037893414 0.72502548
0.012966907 -0.039981276 0.72889048
0.019796196 0.05329749 0.78997403
0.019493461 0.050982922 0.78675729
0.019204425 0.048749715 0.7836861
0.018926613 0.0465886 0.78073418
0.018661587 0.044500738 0.7779181
0.018405458 0.042474151 0.77519661
0.018161468 0.040514082 0.77260405
0.017924776 0.03860721 0.77008909
0.017698385 0.036758214 0.76768351
0.017478986 0.034957975 0.76535231
0.017268043 0.033207774 0.76311088
0.017064316 0.031503379 0.76094615
0.016866811 0.029841304 0.75884753
0.016676918 0.028222501 0.7568298
0.016491957 0.026640862 0.75486445
0.016313737 0.025098085 0.75297081
0.01614061 0.023590147 0.75113118
0.015972503 0.022115797 0.74934494
0.015810255 0.020674974 0.74762094
0.015651649 0.019263595 0.74593574
0.015498368 0.017882764 0.74430698
0.015349399 0.016530126 0.74272418
0.015204405 0.01520443 0.74118352
0.015063709 0.013904989 0.73968852
0.014926746 0.012630314 0.73823315
0.014792815 0.011379093 0.73681009
0.014663102 0.010151416 0.73543179
0.014536574 0.0089456141 0.73408735
0.014413552 0.0077611506 0.73278022
0.014293389 0.0065969527 0.73150337
0.014176773 0.0054526329 0.73026425
0.014062044 0.0043267906 0.72904521
0.013951522 0.0032196045 0.72787082
0.013842824 0.0021297038 0.72671586
0.013737367 0.0010567307 0.7255953
0.013634083 2.9802322e-08 0.72449785
0.013533713 -0.0010410249 0.72343135
0.013435605 -0.0020669997 0.72238886
0.013339644 -0.0030783713 0.72136927
0.013246452 -0.0040757954 0.72037899
0.013154687 -0.0050594807 0.71940398
0.013066215 -0.0060305595 0.71846396
0.012978927 -0.0069886446 0.71753645
0.012894345 -0.0079349577 0.71663767
0.01281982 -0.0088752508 0.71584582
0.012783959 -0.0098337829 0.71546477
0.012767282 -0.010803074 0.71528757
0.012752922 -0.011771917 0.71513492
0.012740944 -0.01274091 0.71500772
0.012730245 -0.013709486 0.71489406
0.012724757 -0.014682412 0.7148357
0.012721115 -0.01565671 0.71479702
0.012719943 -0.016633749 0.71478456
0.012720739 -0.017613322 0.71479297
0.012725594 -0.018598914 0.71484464
0.01273381 -0.019590467 0.71493191
0.012746909 -0.02059117 0.71507108
0.012761931 -0.021597117 0.71523076
0.012780873 -0.022612244 0.71543193
0.012804705 -0.023639441 0.71568525
0.012832287 -0.024677426 0.71597826
0.012866538 -0.025733083 0.71634221
0.012907992 -0.026808858 0.71678269
0.012956353 -0.027905971 0.7172966
0.013012958 -0.029028863 0.71789801
0.013079301 -0.030182987 0.71860301
0.013157821 -0.031376332 0.7194373
0.013251583 -0.032619238 0.72043359
0.01336496 -0.033926427 0.72163832
0.013515924 -0.035349309 0.72324234
0.013718356 -0.036934018 0.7253933
0.014053558 -0.038917542 0.72895503
0.021098595 0.051239461 0.78779954
0.020792095 0.049009979 0.78477544
0.020496996 0.046850294 0.78186381
0.020215455 0.04476285 0.77908593
0.019943168 0.042735368 0.77639937
0.01968305 0.040772051 0.77383292
0.019431261 0.038862556 0.77134854
0.019189546 0.037008435 0.76896369
0.018956015 0.035204023 0.7666595
0.01873029 0.033446968 0.76443237
0.018513169 0.031736851 0.76229012
0.018301992 0.030067563 0.76020646
0.018098958 0.028441221 0.75820327
0.01790138 0.026852131 0.75625384
0.017710404 0.025300592 0.75436962
0.017525455 0.023784548 0.75254464
0.017345337 0.022301137 0.75076759
0.017171292 0.020850867 0.74905032
0.017002093 0.019430995 0.74738085
0.016837217 0.018039882 0.74575412
0.016678516 0.016678542 0.74418825
0.016522646 0.015342474 0.74265033
0.016371721 0.01403293 0.74116129
0.016224857 0.012748152 0.73971224
0.016081974 0.011487156 0.73830241
0.015942436 0.010248721 0.73692566
0.01580764 0.0090329945 0.73559564
0.015675223 0.0078376532 0.73428917
0.015547037 0.0066630244 0.73302442
0.015421674 0.0055077672 0.73178744
0.015299778 0.0043713748 0.7305848
0.015180844 0.0032530427 0.7294113
0.015064999 0.0021521747 0.72826827
0.014952145 0.001067996 0.72715485
0.014841761 2.9802322e-08 0.7260657
0.014734665 -0.0010524392 0.72500896
0.014629256 -0.0020898879 0.72396898
0.014527626 -0.0031130016 0.72296619
0.014427449 -0.004122138 0.72197783
0.014330665 -0.005118072 0.7210229
0.014235608 -0.0061009228 0.72008502
0.014143247 -0.0070715845 0.71917373
0.014052977 -0.0080302656 0.71828306
0.013964602 -0.0089772046 0.71741104
0.013880339 -0.0099145174 0.71657974
0.013833896 -0.010869473 0.71612149
0.013816085 -0.01184234 0.71594572
0.01380509 -0.012818992 0.71583724
0.013796491 -0.013796449 0.71575236
0.013789408 -0.014774382 0.71568251
0.01378685 -0.015756369 0.71565729
0.013787718 -0.016742229 0.71566588
0.013792788 -0.017733544 0.71571589
0.013798776 -0.018726885 0.71577495
0.013810585 -0.019729376 0.71589148
0.013824388 -0.020736605 0.71602768
0.013845075 -0.0217565 0.7162317
0.013870765 -0.02278769 0.71648526
0.013900311 -0.023829073 0.71677673
0.013935343 -0.024884522 0.71712238
0.013978291 -0.0259597 0.71754622
0.01402845 -0.027054846 0.71804106
0.014087259 -0.02817452 0.71862125
0.014156857 -0.029324889 0.71930796
0.014239943 -0.030514121 0.7201277
0.014340091 -0.031753033 0.72111589
0.014462428 -0.033056945 0.72232294
0.014615186 -0.034450054 0.72383016
0.014824482 -0.036002278 0.72589517
0.015161441 -0.037903577 0.72921979
0.022736058 0.0515351 0.78900063
0.02241211 0.049306661 0.78601742
0.022100002 0.047146678 0.78314322
0.021801898 0.045057297 0.78039801
0.0215137 0.043027431 0.77774405
0.021237673 0.041059554 0.77520221
0.020970808 0.039145529 0.7727446
0.020713838 0.03728494 0.77037823
0.020466279 0.035474896 0.76809853
0.020225851 0.033709735 0.76588446
0.019995397 0.031992614 0.76376224
0.019770576 0.030314893 0.76169187
0.019554522 0.028680027 0.75970221
0.019344399 0.027082175 0.75776726
0.019140549 0.025520742 0.75589007
0.018943766 0.023995459 0.75407797
0.018752092 0.022502542 0.75231284
0.018566808 0.021042377 0.7506066
0.018386666 0.019612432 0.74894762
0.018210877 0.018210888 0.74732888
0.018040825 0.016838133 0.74576283
0.01787528 0.015491933 0.74423838
0.017714221 0.014171422 0.74275523
0.017558254 0.012876093 0.74131894
0.017405821 0.011603922 0.73991519
0.017257482 0.010354519 0.73854917
0.017113356 0.0091271698 0.73722196
0.016972715 0.0079205632 0.73592681
0.016836146 0.0067344904 0.73466915
0.016703008 0.0055676997 0.73344308
0.016573498 0.0044196248 0.73225045
0.016446769 0.0032893419 0.73108345
0.016324054 0.0021765232 0.72995335
0.016203452 0.001080215 0.72884274
0.016087053 2.9802322e-08 0.72777086
0.015972603 -0.0010648072 0.72671688
0.015861968 -0.002114892 0.72569805
0.015753301 -0.0031506717 0.72469735
0.015648251 -0.0041728616 0.72372997
0.015545191 -0.0051817298 0.72278094
0.015444868 -0.006177932 0.72185707
0.015347363 -0.0071620643 0.72095919
0.015251969 -0.0081343949 0.72008073
0.015159556 -0.0090956986 0.71922964
0.015068611 -0.010045707 0.71839219
0.014981368 -0.010986298 0.71758872
0.014913254 -0.011930555 0.7169615
0.01488653 -0.012901634 0.71671546
0.014879727 -0.013887763 0.71665275
0.014875907 -0.014875889 0.71661758
0.014873972 -0.015865564 0.71659976
0.014876749 -0.016860306 0.71662533
0.014881812 -0.017858148 0.71667194
0.014894532 -0.01886639 0.71678913
0.014909816 -0.019879729 0.71692979
0.014929425 -0.020901203 0.71711046
0.0149547 -0.021933556 0.71734321
0.014983985 -0.022975415 0.71761292
0.015019754 -0.024031579 0.71794224
0.015064592 -0.025107622 0.71835518
0.015117685 -0.02620396 0.71884406
0.015179829 -0.027323693 0.71941638
0.015253012 -0.028472275 0.72009027
0.015340134 -0.029657573 0.72089261
0.015444975 -0.030889928 0.72185802
0.015573791 -0.032185793 0.72304428
0.015739681 -0.033577979 0.724572
0.015962828 -0.035118192 0.72662687
0.016316114 -0.036983162 0.72988027
0.024069015 0.049642384 0.7874226
0.023739869 0.047479749 0.78458095
0.023425369 0.045386672 0.78186578
0.023121115 0.043352127 0.779239
0.022829372 0.041378289 0.7767204
0.022547571 0.039458275 0.77428746
0.02227556 0.037590027 0.77193916
0.022013599 0.035772085 0.76967758
0.021758921 0.03399834 0.76747888
0.021514835 0.032272279 0.76537156
0.021276545 0.030585051 0.76331437
0.02104729 0.028940022 0.76133507
0.020824838 0.027332604 0.75941461
0.020608377 0.025760472 0.75754589
0.020400479 0.024225593 0.75575101
0.02019665 0.022721231 0.75399125
0.019999625 0.021249592 0.75229031
0.019808719 0.01980871 0.75064218
0.019622553 0.018396139 0.74903494
0.019442316 0.01701203 0.74747884
0.019267078 0.015654504 0.74596608
0.019095736 0.014321834 0.74448675
0.018930277 0.013014585 0.74305832
0.018768622 0.011730403 0.74166268
0.018611887 0.010469198 0.7403096
0.018459253 0.00922966 0.7389918
0.018310793 0.0080110133 0.73771012
0.018165743 0.0068121552 0.73645782
0.018025428 0.0056329966 0.73524642
0.017887603 0.0044719279 0.73405653
0.017754585 0.0033290088 0.73290819
0.017624311 0.0022030473 0.73178357
0.017498061 0.0010936558 0.73069358
0.017374178 -0 0.72962403
0.017254977 -0.0010784268 0.72859496
0.017137524 -0.0021421909 0.7275809
0.017023973 -0.0031919777 0.72660059
0.016912878 -0.0042282343 0.72564149
0.0168053 -0.005251646 0.72471273
0.016700197 -0.0062625706 0.72380531
0.016598195 -0.0072617233 0.72292471
0.016498974 -0.0082494617 0.72206813
0.016402064 -0.0092261434 0.72123146
0.016308468 -0.010192752 0.72042346
0.016216816 -0.011149049 0.71963215
0.01612881 -0.012096584 0.71887243
0.016042298 -0.013034344 0.71812552
0.015993124 -0.013993949 0.71770096
0.015980931 -0.014982134 0.71759576
0.015983455 -0.015983433 0.71761745
0.015989041 -0.016988337 0.71766573
0.0159992 -0.017999053 0.71775341
0.01601336 -0.019015849 0.71787566
0.016031759 -0.020039707 0.71803457
0.016058484 -0.021076739 0.7182653
0.016090089 -0.022123873 0.71853817
0.016128756 -0.023185074 0.71887195
0.016175909 -0.024263859 0.71927905
0.01623092 -0.025360793 0.71975398
0.016295677 -0.026480466 0.72031307
0.016372604 -0.02762875 0.72097713
0.016464835 -0.028813452 0.72177339
0.016576972 -0.030045718 0.72274148
0.016715275 -0.031341136 0.72393548
0.016889226 -0.032722861 0.72543728
0.017124264 -0.034248531 0.72746646
0.017502312 -0.03609848 0.73073024
0.02576727 0.050018787 0.78899848
0.025420954 0.047851235 0.78618443
0.025090547 0.04575333 0.78349972
0.024770316 0.043712318 0.78089774
0.024463009 0.04173106 0.77840072
0.024165889 0.039802641 0.77598643
0.023879059 0.037925601 0.77365589
0.023602813 0.036098421 0.7714113
0.023333963 0.034314662 0.76922673
0.023076119 0.032578081 0.76713157
0.022824837 0.030880719 0.76508981
0.022582801 0.029224813 0.76312315
0.022348017 0.027606398 0.76121545
0.022119034 0.026022404 0.75935483
0.021898773 0.024475157 0.75756508
0.021683784 0.022959292 0.75581825
0.021475805 0.021475822 0.75412828
0.021274371 0.020022988 0.75249159
0.021076946 0.018597305 0.75088739
0.020887034 0.017201126 0.74934429
0.02070187 0.015830874 0.74783969
0.02052171 0.014485896 0.74637586
0.020347031 0.013165712 0.74495649
0.020176992 0.011868834 0.74357486
0.02001112 0.010594159 0.74222708
0.01985099 0.009341687 0.74092591
0.01969371 0.0081092119 0.73964798
0.019541997 0.0068972111 0.73841524
0.019393872 0.0057041049 0.73721164
0.019250024 0.0045294464 0.73604286
0.019109454 0.0033722818 0.73490059
0.018973907 0.0022322237 0.73379928
0.018840345 0.0011082888 0.732714
0.018711971 -0 0.73167092
0.018586155 -0.0010932386 0.73064852
0.018464515 -0.0021722615 0.72966015
0.018345119 -0.0032373369 0.72869003
0.01823101 -0.0042896569 0.72776288
0.018118307 -0.0053288937 0.72684711
0.018010071 -0.0063564777 0.72596765
0.017903814 -0.0073721409 0.72510421
0.017802127 -0.0083774626 0.72427797
0.017702332 -0.0093718171 0.72346711
0.017607022 -0.010357022 0.72269267
0.0175134 -0.011332184 0.72193193
0.017424192 -0.012299418 0.72120714
0.017336838 -0.013257563 0.72049731
0.017254064 -0.014209211 0.71982473
0.017172836 -0.015152484 0.71916467
0.017129952 -0.016122311 0.71881628
0.017126065 -0.017126054 0.71878469
0.017140523 -0.01814875 0.71890211
0.017161118 -0.019180059 0.71906948
0.017187838 -0.020220965 0.71928662
0.017219685 -0.021271378 0.71954536
0.017258834 -0.022334963 0.71986353
0.017307458 -0.023415953 0.72025859
0.017364526 -0.024514586 0.72072226
0.017432002 -0.025635302 0.72127056
0.017512733 -0.026784182 0.72192657
0.017611807 -0.027971655 0.72273159
0.017731698 -0.029205114 0.72370577
0.017880512 -0.030501992 0.72491491
0.01807213 -0.031891972 0.72647184
0.018326834 -0.03341949 0.72854149
0.027149189 0.048265249 0.78797162
0.026802696 0.046160251 0.78531265
0.026465982 0.04411 0.78272873
0.026143497 0.042120099 0.78025389
0.025831016 0.040181577 0.77785593
0.025529206 0.038293839 0.77553982
0.02523865 0.03645584 0.77331007
0.024955796 0.034660816 0.77113944
0.024685016 0.032913357 0.76906145
0.024420049 0.031203449 0.76702809
0.024165073 0.029535115 0.76507139
0.023917716 0.027904034 0.76317316
0.023676945 0.026307762 0.76132548
