# .PCD v0.7 - Point Cloud Data file format
VERSION 0.7
FIELDS x y z
SIZE 4 4 4
TYPE F F F
COUNT 1 1 1
WIDTH 1310
HEIGHT 1
VIEWPOINT 0 0 0 1 0 0 0
POINTS 1310
DATA ascii
-0.016666457 -0.017592341 0.70752668
-0.016880943 -0.018756568 0.70917261
-0.016979786 -0.019809723 0.70993119
-0.017074946 -0.020869374 0.71066141
-0.017172005 -0.021942019 0.71140629
-0.01727229 -0.023029685 0.71217585
-0.017374599 -0.024131358 0.71296096
-0.017480355 -0.025249392 0.71377254
-0.017589601 -0.026384413 0.71461093
-0.016673267 0.028442651 0.71510553
-0.016547643 0.027254939 0.71408474
-0.016444732 0.026118129 0.71324855
-0.016344411 0.024997354 0.7124334
-0.016245991 0.023891181 0.71163368
-0.016150549 0.022800773 0.71085817
-0.016056582 0.021723598 0.71009463
-0.015965918 0.020661801 0.70935798
-0.015771084 0.019481927 0.70777482
-0.015643233 0.018403828 0.70673597
-0.015629934 0.01746878 0.70662796
-0.015659465 0.016580641 0.70686787
-0.015711 0.01571101 0.7072866
-0.015759088 0.014832109 0.70767736
-0.015807426 0.013947725 0.70807016
-0.015856259 0.013058126 0.70846689
-0.015895244 0.012155205 0.70878369
-0.015932059 0.011246145 0.70908284
-0.015967483 0.010331899 0.70937061
-0.015999215 0.0094113052 0.70962852
-0.016030872 0.0084869266 0.70988572
-0.016056787 0.0075561404 0.7100963
-0.016078539 0.0066205859 0.71027309
-0.016095689 0.0056808591 0.71041238
-0.016111691 0.0047387481 0.71054244
-0.016123869 0.0037938356 0.71064138
-0.016133389 0.0028471053 0.71071869
-0.016140651 0.0018989146 0.71077776
-0.01614565 0.00094977021 0.71081829
-0.01614565 2.9802322e-08 0.71081829
-0.016140651 -0.00094944239 0.7107777
-0.016133389 -0.0018980205 0.71071869
-0.016123919 -0.0028453767 0.7106418
-0.01611164 -0.0037909746 0.71054196
-0.016095739 -0.0047340095 0.71041286
-0.016078642 -0.0056747794 0.71027386
-0.016056838 -0.0066116154 0.71009672
-0.016031023 -0.0075439811 0.70988697
-0.015999317 -0.0084702373 0.70962936
-0.015967533 -0.0093926489 0.70937103
-0.015932059 -0.010308981 0.70908284
-0.015895292 -0.011220187 0.7087841
-0.015856309 -0.012125373 0.70846736
-0.015808167 -0.013018459 0.70807618
-0.015760317 -0.013906181 0.70768738
-0.015711 -0.01478681 0.7072866
-0.015659513 -0.015659481 0.70686823
-0.015629888 -0.016549289 0.70662755
-0.015643233 -0.017483592 0.70673597
-0.01577084 -0.018553883 0.70777285
-0.01596587 -0.019722492 0.7093575
-0.016057296 -0.020780027 0.71010047
-0.016150085 -0.021850079 0.71085435
-0.016245885 -0.022935361 0.71163279
-0.016343726 -0.024034888 0.71242785
-0.016444303 -0.02515009 0.71324509
-0.016547371 -0.026281118 0.7140826
-0.016668705 -0.027454317 0.71506846
-0.015616626 0.028305143 0.71445048
-0.015517014 0.027154773 0.71359062
-0.015419217 0.026019961 0.71274626
-0.015323728 0.024901032 0.71192187
-0.015230878 0.023798287 0.71112025
-0.015139291 0.022708952 0.71032959
-0.015050655 0.021635324 0.70956433
-0.014900825 0.020488679 0.70827085
-0.014733073 0.019337177 0.70682263
-0.014709617 0.01838702 0.70662004
-0.014733346 0.017495871 0.7068249
-0.014783516 0.016631484 0.70725811
-0.014833194 0.015760303 0.70768696
-0.014882603 0.014882624 0.70811349
-0.014928454 0.013995439 0.70850933
-0.014968699 0.013097644 0.70885682
-0.015007744 0.012193799 0.70919394
-0.015042614 0.011281967 0.70949495
-0.015077696 0.010365933 0.70979786
-0.015109629 0.0094435811 0.71007347
-0.015134812 0.0085133314 0.71029091
-0.015157665 0.0075788796 0.71048826
-0.015178503 0.0066406429 0.71066809
-0.015196343 0.0056986213 0.71082217
-0.015212569 0.0047539473 0.71096218
-0.015224446 0.003806144 0.71106476
-0.015234292 0.0028564632 0.71114975
-0.015241172 0.0019051731 0.71120918
-0.015244785 0.00095278025 0.71124035
-0.015244785 -0 0.71124035
-0.015241172 -0.00095254183 0.71120918
-0.015234242 -0.001904279 0.71114928
-0.015224396 -0.002854526 0.71106434
-0.015212569 -0.003803134 0.71096218
-0.015196391 -0.0047488809 0.71082258
-0.015178456 -0.0056919158 0.71066767
-0.015157713 -0.0066314638 0.71048856
-0.015134909 -0.0075674057 0.71029174
-0.015109678 -0.0084992051 0.71007395
-0.015077649 -0.0094235241 0.70979738
-0.015042614 -0.010341763 0.70949495
-0.01500779 -0.011255801 0.7091943
-0.014968794 -0.012162119 0.7088576
-0.014928548 -0.013062477 0.70851016
-0.014882556 -0.013952374 0.70811313
-0.014832084 -0.014832079 0.70767736
-0.014783561 -0.015707493 0.70725846
-0.014733346 -0.016575009 0.70682496
-0.014709617 -0.017467648 0.7066201
-0.014732982 -0.018416196 0.7068218
-0.014901618 -0.01955837 0.7082777
-0.015050465 -0.020694345 0.70956272
-0.015139435 -0.021762908 0.71033084
-0.015230147 -0.022845209 0.71111393
-0.01532363 -0.023943126 0.71192104
-0.015418717 -0.025055408 0.71274197
-0.015516964 -0.026184857 0.71359015
-0.01561683 -0.027329445 0.71445233
-0.014699781 0.029399574 0.71499568
-0.014590785 0.028208852 0.713992
-0.014496431 0.027060032 0.71312302
-0.014404265 0.025927693 0.71227431
-0.014314136 0.024811178 0.71144432
-0.014225355 0.02370891 0.71062678
-0.014139372 0.022623003 0.70983499
-0.014035628 0.02152133 0.70887959
-0.013830926 0.020285368 0.70699453
-0.013791588 0.019308239 0.70663226
-0.013802982 0.018403977 0.70673716
-0.013851412 0.017545134 0.70718318
-0.013900746 0.016680926 0.70763749
-0.013948296 0.015808105 0.70807534
-0.013995425 0.01492846 0.70850933
-0.014037263 0.014037281 0.70889467
-0.014074198 0.01313594 0.70923477
-0.014111373 0.01222989 0.70957708
-0.014147488 0.011318028 0.70990968
-0.014178064 0.010397255 0.71019125
-0.014205695 0.0094704628 0.71044576
-0.014229439 0.0085376799 0.71066439
-0.014253171 0.007601738 0.7108829
-0.014272781 0.0066606402 0.7110635
-0.014291391 0.0057165921 0.71123487
-0.0143067 0.0047689378 0.71137583
-0.014316801 0.0038178265 0.71146888
-0.014324984 0.0028650165 0.71154416
-0.014330184 0.0019106865 0.71159208
-0.014334098 0.00095561147 0.7116282
-0.014334052 5.9604645e-08 0.71162772
-0.01433023 -0.00095531344 0.7115925
-0.014324938 -0.0019099712 0.7115438
-0.014316847 -0.0028633773 0.71146929
-0.0143067 -0.0038150847 0.71137583
-0.014291391 -0.004763782 0.71123487
-0.014272781 -0.0057091415 0.7110635
-0.014253262 -0.0066515207 0.71088374
-0.014229484 -0.0075890124 0.71066481
-0.014205741 -0.0085234344 0.71044612
-0.014178108 -0.0094520748 0.71019173
-0.014147533 -0.010374814 0.70991004
-0.014111373 -0.01128909 0.70957714
-0.014074242 -0.012197673 0.70923519
-0.014037219 -0.013101399 0.70889419
-0.013995425 -0.013995409 0.70850939
-0.013947816 -0.014877647 0.70807093
-0.013900832 -0.015754282 0.70763826
-0.013851454 -0.016621709 0.7071836
-0.013803068 -0.01748386 0.706738
-0.013791544 -0.018388718 0.7066319
-0.013830926 -0.019363284 0.70699447
-0.01403554 -0.020585448 0.70887876
-0.014139013 -0.021679819 0.7098316
-0.014224993 -0.022759974 0.71062338
-0.014313585 -0.023855954 0.71143919
-0.014403986 -0.024966896 0.71227169
-0.014496148 -0.026093036 0.7131204
-0.014591119 -0.02723673 0.71399504
-0.014699103 -0.028418243 0.71498942
-0.013664412 0.029280901 0.71444923
-0.013574333 0.028118283 0.71356046
-0.013485565 0.026971161 0.71268463
-0.013398899 0.025840759 0.71182948
-0.013313552 0.024725199 0.71098745
-0.013230631 0.023626149 0.71016932
-0.013149027 0.022541225 0.70936418
-0.012977426 0.021320075 0.70767099
-0.012876527 0.020234525 0.70667547
-0.012875731 0.019313604 0.7066676
-0.012915151 0.01845026 0.70705652
-0.012962679 0.017592251 0.70752549
-0.013010518 0.016727835 0.70799744
-0.013058055 0.015856266 0.70846653
-0.013097653 0.014968783 0.70885724
-0.013135917 0.014074206 0.70923477
-0.013174407 0.013174444 0.70961452
-0.013209266 0.012265772 0.70995849
-0.013240519 0.011349022 0.71026683
-0.013268198 0.010425001 0.71053994
-0.013294082 0.009495765 0.71079528
-0.013318876 0.0085621774 0.71103996
-0.013341153 0.0076235235 0.71125972
-0.013360032 0.0066800416 0.71144599
-0.013374882 0.0057320893 0.7115925
-0.013386922 0.0047810376 0.71171129
-0.013397261 0.0038278103 0.71181333
-0.013405586 0.0028726459 0.71189547
-0.013410465 0.0019157827 0.71194363
-0.013414828 0.00095823407 0.71198666
-0.013414872 2.9802322e-08 0.71198708
-0.013410508 -0.00095787644 0.7119441
-0.013405586 -0.0019150376 0.71189547
-0.013397347 -0.0028708577 0.71181417
-0.013386966 -0.0038248301 0.71171176
-0.013374882 -0.0047767162 0.71159256
-0.013360032 -0.0057257414 0.71144605
-0.013341196 -0.0066705644 0.71126014
-0.013318919 -0.0076107979 0.71104032
-0.013294167 -0.0085462332 0.71079618
-0.01326824 -0.0094772875 0.71054029
-0.013240561 -0.010403246 0.71026725
-0.013209308 -0.01132223 0.70995885
-0.013174407 -0.012233377 0.70961452
-0.013135917 -0.01313591 0.70923483
-0.013097694 -0.014033228 0.7088576
-0.013058218 -0.014923662 0.70846814
-0.013010843 -0.015798867 0.70800072
-0.012963406 -0.016667187 0.70753264
-0.012915592 -0.017528296 0.70706093
-0.012875771 -0.018393934 0.70666796
-0.012876527 -0.019314766 0.70667547
-0.012972979 -0.0203861 0.70762718
-0.013146868 -0.021598428 0.70934284
-0.013229917 -0.022679836 0.71016222
-0.013313084 -0.023773342 0.7109828
-0.013398425 -0.024882793 0.71182483
-0.013485434 -0.026007593 0.71268332
-0.013574201 -0.027148396 0.71355915
-0.013665264 -0.028306603 0.71445763
-0.012757466 0.030421674 0.71518326
-0.012651058 0.029194742 0.71405262
-0.012566839 0.028033763 0.71315777
-0.012483857 0.026888341 0.71227604
-0.012402322 0.025758684 0.71140969
-0.012322944 0.024645925 0.71056616
-0.012245041 0.023548156 0.70973849
-0.012129749 0.022393376 0.70851344
-0.01197266 0.021182448 0.70684427
-0.011951711 0.020226002 0.70662165
-0.011977036 0.019347548 0.7068907
-0.012023447 0.018497616 0.70738393
-0.012068749 0.017638952 0.7078653
-0.012113521 0.016772568 0.70834094
-0.012155185 0.015895247 0.70878363
-0.012193792 0.015007734 0.70919394
-0.012229818 0.01411134 0.70957673
-0.012265746 0.013209254 0.70995849
-0.012297739 0.012297779 0.71029842
-0.012324947 0.011376917 0.7105875
-0.012352276 0.010451913 0.7108779
-0.012377585 0.0095212162 0.71114683
-0.012401446 0.0085856318 0.71140039
-0.012419133 0.0076425672 0.71158832
-0.012435951 0.0066963136 0.71176696
-0.012449928 0.0057460964 0.71191549
-0.012462408 0.0047932565 0.71204811
-0.012472943 0.0038378835 0.71215999
-0.012480713 0.0028801858 0.71224266
-0.012485873 0.0019209385 0.71229744
-0.01248922 0.00096073747 0.71233296
-0.012489261 -0 0.71233344
-0.012485913 -0.00096046925 0.71229792
-0.012480713 -0.001920104 0.7122426
-0.012473023 -0.0028783977 0.71216094
-0.012462448 -0.0038345754 0.71204853
-0.012449928 -0.0047883987 0.71191549
-0.012435951 -0.0057396591 0.71176696
-0.012419133 -0.0066872239 0.71158826
-0.012401486 -0.0076316595 0.71140081
-0.012377664 -0.0085691214 0.71114761
-0.012352315 -0.0095017552 0.71087825
-0.012324986 -0.010428816 0.71058798
-0.012297778 -0.011351764 0.71029884
-0.012265786 -0.012265742 0.70995885
-0.012229856 -0.01317063 0.70957708
-0.012193868 -0.014069825 0.70919478
-0.012155225 -0.014960259 0.7087841
-0.012113863 -0.015841186 0.70834458
-0.012069352 -0.016711384 0.70787168
-0.012023484 -0.017572761 0.70738429
-0.011977074 -0.018426239 0.70689118
-0.011951749 -0.01930666 0.70662206
-0.011972624 -0.020261347 0.70684379
-0.012128188 -0.021457553 0.70849681
-0.012244032 -0.022604346 0.70972776
-0.012321922 -0.023696005 0.71055537
-0.012402004 -0.024803966 0.71140623
-0.012483535 -0.025927305 0.71227258
-0.012566513 -0.02706632 0.71315432
-0.01265143 -0.028222412 0.71405661
-0.012759908 -0.029445946 0.71520925
-0.011727326 0.030295581 0.71462154
-0.011645774 0.029114455 0.71368283
-0.01156741 0.027954608 0.71278077
-0.011490057 0.026810139 0.7118904
-0.011414828 0.025683403 0.7110244
-0.011340757 0.024571627 0.71017176
-0.011268211 0.023475438 0.7093367
-0.011102088 0.02220419 0.7074244
-0.011034908 0.021150261 0.70665109
-0.011040677 0.020241261 0.70671749
-0.011081164 0.019392043 0.7071836
-0.011124687 0.018541157 0.70768458
-0.011168309 0.017683148 0.70818675
-0.01121055 0.016815841 0.70867294
-0.011246123 0.015932024 0.70908248
-0.011281924 0.015042573 0.70949453
-0.011317991 0.01414752 0.70990968
-0.011349016 0.013240516 0.71026683
-0.011376875 0.012324959 0.7105875
-0.011404869 0.011404902 0.71090972
-0.01143022 0.010477692 0.71120155
-0.011453771 0.0095448494 0.71147263
-0.011472291 0.0086042285 0.7116859
-0.011490464 0.0076603293 0.71189505
-0.011506024 0.0067118704 0.71207416
-0.011520436 0.0057602227 0.71224004
-0.011533168 0.0048054755 0.71238661
-0.011542344 0.0038474798 0.71249223
-0.011548284 0.0028871 0.71256059
-0.011552358 0.0019254088 0.7126075
-0.011555538 0.00096300244 0.7126441
-0.011555575 2.9802322e-08 0.71264458
-0.011552395 -0.00096267462 0.71260798
-0.011548321 -0.0019247234 0.71256101
-0.011542344 -0.0028855503 0.71249223
-0.011533205 -0.0038443804 0.71238703
-0.011520472 -0.0048001409 0.71224046
-0.011506061 -0.0057530105 0.71207458
-0.011490464 -0.0067027509 0.71189511
-0.011472329 -0.0076481998 0.71168631
-0.011453808 -0.0085903108 0.71147311
-0.011430256 -0.0095252097 0.71120203
-0.011404905 -0.010454506 0.7109102
-0.011376911 -0.011376888 0.71058792
-0.011349052 -0.012294799 0.71026725
-0.011318026 -0.013204366 0.70991015
-0.011282032 -0.014102519 0.70949572
-0.011246194 -0.014994889 0.70908326
-0.011210619 -0.015881717 0.70867372
-0.011168379 -0.016752541 0.70818758
-0.011124757 -0.017614156 0.70768535
-0.011081233 -0.018468708 0.70718431
-0.01104078 -0.019321322 0.70671868
-0.011034873 -0.020230561 0.70665073
-0.011101812 -0.021278471 0.70742124
-0.011264939 -0.02252987 0.70929897
-0.011339604 -0.023624152 0.71015847
-0.011413915 -0.024730116 0.71101385
-0.01148991 -0.025852293 0.71188873
-0.011567336 -0.026990443 0.71277994
-0.011645888 -0.028144211 0.71368414
-0.011727865 -0.029319644 0.7146278
-0.010877947 0.03164497 0.71622765
-0.010722037 0.030216664 0.71426982
-0.010648155 0.029040426 0.71334201
-0.010575762 0.027881593 0.71243292
-0.010504719 0.026739299 0.71154082
-0.010434889 0.025612921 0.71066391
-0.010365949 0.024501354 0.70979822
-0.01027211 0.023345739 0.70861983
-0.010131245 0.022104532 0.70685089
-0.010113205 0.021145761 0.70662439
-0.010138248 0.020276517 0.70693886
-0.010179828 0.019434243 0.707461
-0.010220856 0.018583387 0.70797622
-0.01026109 0.017723709 0.70848149
-0.010296876 0.016849458 0.70893079
-0.010331901 0.015967518 0.70937061
-0.01036585 0.015077621 0.70979702
-0.01039728 0.014178127 0.71019167
-0.010425013 0.013268232 0.71053994
-0.010451925 0.012352288 0.7108779
-0.010477701 0.011430264 0.71120155
-0.010501347 0.010501355 0.7114985
-0.010520224 0.0095638633 0.71173555
-0.010539136 0.0086229444 0.71197295
-0.010555867 0.0076770186 0.71218312
-0.010571798 0.0067275167 0.71238315
-0.010584214 0.0057732165 0.71253914
-0.010593502 0.0048152208 0.71265572
-0.010601295 0.0038550198 0.71275365
-0.010607311 0.0028929114 0.71282911
-0.010611474 0.0019293725 0.71288145
-0.010614745 0.000965029 0.71292251
-0.010614779 -0 0.71292299
-0.010611474 -0.00096467137 0.71288139
-0.010607345 -0.0019285977 0.71282953
-0.010601295 -0.0028912425 0.71275359
-0.010593536 -0.0038521588 0.71265614
-0.010584283 -0.0048110187 0.71253991
-0.010571798 -0.0057664216 0.71238321
-0.010555902 -0.0067173541 0.71218359
-0.01053917 -0.0076648593 0.71197343
-0.010520292 -0.0086074769 0.71173644
-0.010501414 -0.0095467269 0.71149933
-0.010477735 -0.010477722 0.71120197
-0.010451959 -0.01140213 0.71087825
-0.010425046 -0.012320489 0.71054029
-0.010397313 -0.013232946 0.71019208
-0.010365884 -0.014135271 0.70979738
-0.010331932 -0.015028238 0.70937103
-0.010296941 -0.015913457 0.70893168
-0.010261155 -0.016790956 0.70848227
-0.010220921 -0.01765433 0.70797706
-0.01017986 -0.018508822 0.70746142
-0.010138279 -0.01935488 0.70693928
-0.010113268 -0.020226479 0.70662516
-0.010131183 -0.021183372 0.70685017
-0.01026953 -0.02240622 0.70858741
-0.01036539 -0.023557693 0.70979118
-0.010433957 -0.024662077 0.71065223
-0.010504212 -0.025783032 0.7115345
-0.010575694 -0.026919931 0.71243215
-0.010648432 -0.028073132 0.71334553
-0.010722178 -0.029242277 0.71427155
-0.0098027606 0.031368881 0.7150358
-0.0097250585 0.030147702 0.71396244
-0.0096577276 0.028973192 0.71303242
-0.0095915692 0.02781558 0.71211863
-0.0095262816 0.026673615 0.71121675
-0.0094619961 0.025547415 0.71032876
-0.0093992269 0.024438024 0.70946169
-0.0092706885 0.023176759 0.70768613
-0.0091963243 0.022071183 0.70665896
-0.009199312 0.021158457 0.70670021
-0.0092343604 0.020315588 0.70718437
-0.0092724515 0.019472182 0.7077105
-0.0093107708 0.018621564 0.70823985
-0.0093474099 0.017760128 0.7087459
-0.0093793366 0.016882807 0.70918691
-0.0094113033 0.015999258 0.70962846
-0.0094434889 0.015109628 0.71007311
-0.0094704628 0.014205724 0.7104457
-0.0094957734 0.013294071 0.71079534
-0.0095212497 0.01237765 0.71114725
-0.0095448093 0.011453778 0.71147269
-0.00956384 0.010520279 0.71173555
-0.009582947 0.0095829368 0.71199948
-0.0096002696 0.0086402595 0.71223879
-0.0096169719 0.0076935589 0.71246952
-0.0096287103 0.0067400932 0.71263164
-0.0096392902 0.0057835877 0.71277773
-0.0096486723 0.0048243999 0.71290731
-0.0096565047 0.0038626194 0.7130155
-0.0096625909 0.0028988123 0.7130996
-0.0096667055 0.0019333363 0.71315646
-0.0096694399 0.00096696615 0.71319425
-0.0096694399 -0 0.71319425
-0.0096667055 -0.00096663833 0.71315646
-0.0096625909 -0.0019325018 0.7130996
-0.0096565047 -0.0028969347 0.71301556
-0.009648704 -0.0038594306 0.71290779
-0.0096393209 -0.0048196614 0.71277821
-0.0096287727 -0.0057772696 0.71263248
-0.0096169719 -0.006731838 0.71246946
-0.0096003013 -0.0076802373 0.71223921
-0.0095830085 -0.0086246729 0.71200031
-0.0095639024 -0.0095638931 0.71173644
-0.0095448401 -0.010499328 0.71147311
-0.0095212795 -0.011425495 0.71114767
-0.0094958041 -0.012344539 0.71079576
-0.0094704935 -0.013258696 0.71044612
-0.0094435187 -0.014165282 0.71007347
-0.0094113629 -0.01505816 0.7096293
-0.0093794251 -0.015944988 0.70918816
-0.0093474686 -0.016825438 0.70874679
-0.0093108285 -0.017690599 0.70824069
-0.0092724515 -0.018544853 0.7077105
-0.0092343604 -0.019392103 0.70718437
-0.0091993399 -0.020238549 0.70670062
-0.0091963243 -0.021151513 0.70665896
-0.0092704287 -0.022249013 0.70768255
-0.0093980683 -0.023495167 0.70944571
-0.0094615454 -0.024599999 0.7103225
-0.0095257629 -0.025719553 0.7112096
-0.0095911054 -0.026855052 0.71211213
-0.0096577276 -0.028007418 0.71303248
-0.0097253453 -0.029176027 0.71396649
-0.0098024057 -0.030387431 0.71503091
-0.0087983273 0.031282932 0.71466506
-0.0087344162 0.030085236 0.71368414
-0.0086733932 0.028911352 0.71274751
-0.0086133834 0.027754307 0.71182644
-0.0085543077 0.026613444 0.7109198
-0.0084966309 0.025489897 0.71003461
-0.0084341671 0.024365395 0.70907593
-0.0083008204 0.023057878 0.70702928
-0.0082741342 0.022064358 0.70661974
-0.0082902545 0.021186233 0.7068671
-0.008325737 0.020351827 0.70741171
-0.0083607687 0.019508481 0.7079494
-0.0083954912 0.018656671 0.70848227
-0.0084263347 0.017788947 0.70895565
-0.0084565254 0.016913056 0.70941901
-0.0084869582 0.016030937 0.70988619
-0.0085133314 0.015134841 0.71029091
-0.0085376361 0.014229387 0.71066391
-0.0085621066 0.013318837 0.71103954
-0.0085856169 0.012401462 0.71140033
-0.0086042471 0.011472344 0.71168625
-0.0086229295 0.010539174 0.71197301
-0.0086402427 0.0096002519 0.71223879
-0.0086568985 0.008656919 0.71249437
-0.0086689265 0.0077057183 0.71267903
-0.0086803976 0.0067514777 0.71285504
-0.0086909663 0.0057939887 0.71301728
-0.0087000914 0.0048334002 0.7131573
-0.0087077906 0.0038701594 0.71327543
-0.0087126093 0.0029042065 0.71334946
-0.0087155309 0.0019367933 0.71339428
-0.0087177446 0.00096866488 0.71342826
-0.0087177446 -0 0.71342826
-0.0087155309 -0.00096833706 0.71339428
-0.0087126093 -0.0019361377 0.71334946
-0.0087077906 -0.0029025674 0.71327543
-0.0087001482 -0.0038667023 0.71315813
-0.0086909952 -0.0048283339 0.7130177
-0.0086804256 -0.0057869256 0.71285546
-0.0086689265 -0.0067424774 0.71267903
-0.0086569265 -0.007695049 0.71249485
-0.0086402707 -0.0086402893 0.71223921
-0.0086229565 -0.0095809996 0.71197343
-0.0086042471 -0.010516286 0.71168625
-0.0085856169 -0.011447489 0.71140039
-0.0085621616 -0.012367517 0.71104032
-0.0085376911 -0.013280869 0.71066481
-0.0085133594 -0.014188945 0.71029133
-0.0084870122 -0.015088022 0.70988697
-0.0084565785 -0.015973538 0.70941985
-0.0084263878 -0.016852736 0.70895648
-0.0083955424 -0.017723918 0.7084831
-0.0083608218 -0.018579602 0.70795023
-0.0083257891 -0.019426823 0.70741248
-0.0082902024 -0.020264924 0.70686626
-0.0082741603 -0.021145046 0.70662004
-0.0083010523 -0.022136152 0.70703286
-0.0084318025 -0.023421675 0.70903957
-0.0084958756 -0.024543613 0.71002293
-0.0085540628 -0.025662154 0.71091604
-0.0086132456 -0.026796758 0.71182442
-0.0086733652 -0.027947456 0.7127471
-0.0087346444 -0.029115438 0.71368766
-0.0087985881 -0.03030625 0.71466905
-0.0078050336 0.031220168 0.71439397
-0.0077495105 0.030029386 0.71343517
-0.0076949461 0.028856069 0.71249306
-0.00764139 0.027700096 0.71156836
-0.0075887921 0.026560754 0.71066016
-0.0075369612 0.025437236 0.7097652
-0.0074586109 0.024240494 0.70841241
-0.007363094 0.023009688 0.70676315
-0.0073559452 0.022067875 0.70663971
-0.0073804529 0.021218866 0.7070629
-0.0074120681 0.020383179 0.70760876
-0.0074439324 0.01954034 0.70815897
-0.0074749207 0.018687338 0.70869398
-0.0075022625 0.017817885 0.70916617
-0.0075291852 0.016940683 0.70963097
-0.0075561348 0.016056806 0.7100963
-0.0075788326 0.0151577 0.7104882
-0.0076016914 0.014253169 0.7108829
-0.007623516 0.013341129 0.71125978
-0.0076425439 0.012419164 0.71158826
-0.0076602851 0.011490434 0.71189463
-0.0076769949 0.010555893 0.71218318
-0.007693578 0.0096170008 0.71246946
-0.0077057122 0.0086689293 0.71267903
-0.0077176103 0.0077176392 0.71288443
-0.0077283657 0.0067623258 0.71307015
-0.0077383951 0.0058037937 0.71324331
-0.0077457516 0.0048410892 0.71337032
-0.0077511268 0.0038755834 0.71346313
-0.0077553713 0.0029082894 0.71353644
-0.0077583804 0.0019396245 0.71358836
-0.0077603296 0.00097006559 0.71362203
-0.0077603296 2.9802322e-08 0.71362197
-0.0077583557 -0.00096979737 0.71358794
-0.0077553713 -0.0019388199 0.7135365
-0.0077511268 -0.0029066503 0.71346313
-0.0077457516 -0.0038728714 0.71337032
-0.0077384207 -0.0048364997 0.71324378
-0.0077283657 -0.0057962835 0.71307015
-0.0077176359 -0.006752938 0.7128849
-0.0077057378 -0.0077057481 0.71267951
-0.0076936274 -0.0086553097 0.71247035
-0.0076770196 -0.0095962584 0.71218354
-0.0076603345 -0.010532916 0.71189547
-0.0076425439 -0.011463821 0.71158832
-0.0076235649 -0.012388259 0.71126062
-0.0076017156 -0.013302982 0.71088332
-0.0075788805 -0.014210373 0.71048909
-0.0075561823 -0.01511237 0.71009713
-0.0075292331 -0.015999585 0.7096318
-0.00750231 -0.016880184 0.70916688
-0.0074749677 -0.017753035 0.70869476
-0.0074440022 -0.018609971 0.7081601
-0.0074121375 -0.019456834 0.70760995
-0.007380499 -0.020296365 0.70706367
-0.0073559452 -0.021148324 0.70663971
-0.0073630712 -0.022089183 0.70676273
-0.0074582836 -0.023307115 0.70840675
-0.007536436 -0.024493426 0.7097562
-0.0075884294 -0.025610924 0.7106539
-0.0076412922 -0.026744515 0.71156669
-0.0076949215 -0.02789408 0.7124927
-0.0077495361 -0.029060721 0.71343565
-0.0078051104 -0.030244827 0.71439528
-0.0068930602 0.032495886 0.71565008
-0.0068184887 0.031170279 0.7141785
-0.0067696865 0.029980063 0.71321547
-0.0067218817 0.028808087 0.71227223
-0.0066747898 0.02765274 0.71134287
-0.0066283531 0.026513427 0.71042657
-0.0065825586 0.02538988 0.70952284
-0.006496124 0.024128497 0.70781726
-0.0064375671 0.022991359 0.7066617
-0.0064400164 0.022080094 0.70670998
-0.0064666625 0.021247625 0.70723587
-0.0064948676 0.020412445 0.7077924
-0.0065229717 0.01956895 0.70834702
-0.0065488061 0.018710911 0.70885676
-0.0065732058 0.017841548 0.70933831
-0.0065977881 0.016965747 0.70982343
-0.0066205747 0.016078591 0.71027303
-0.0066405744 0.015178472 0.71066773
-0.0066606309 0.014272839 0.71106344
-0.0066799945 0.013359994 0.71144563
-0.0066962815 0.012435973 0.71176696
-0.006711869 0.011506051 0.71207464
-0.0067275078 0.010571808 0.71238315
-0.0067401193 0.0096287429 0.71263206
-0.0067514419 0.008680433 0.71285546
-0.0067623416 0.0077284276 0.71307063
-0.0067728139 0.0067728162 0.71327722
-0.00677985 0.0058113337 0.7134161
-0.0067859278 0.0048470795 0.71353602
-0.006791241 0.0038807094 0.71364087
-0.0067954529 0.0029123724 0.71372402
-0.0067983596 0.0019423962 0.71378136
-0.0068001137 0.0009714365 0.71381593
-0.0068001137 -0 0.71381593
-0.0067983153 -0.00097116828 0.7137804
-0.0067954529 -0.0019415319 0.71372402
-0.0067912186 -0.0029104948 0.71364039
-0.0067859497 -0.0038776398 0.7135365
-0.0067798719 -0.0048427582 0.71341652
-0.0067728139 -0.0058052242 0.71327722
-0.0067623416 -0.0067623556 0.71307057
-0.0067514419 -0.0077159107 0.71285546
-0.0067401412 -0.0086658895 0.71263254
-0.0067275511 -0.0096107423 0.71238405
-0.006711869 -0.010547191 0.71207458
-0.0066962815 -0.011479318 0.71176702
-0.0066800159 -0.012405723 0.71144605
-0.0066606523 -0.01332131 0.71106392
-0.0066405954 -0.014229834 0.71066809
-0.0066206171 -0.015132815 0.71027386
-0.0065978295 -0.016023278 0.70982426
-0.0065732477 -0.016902626 0.70933914
-0.0065488471 -0.017775476 0.70885766
-0.0065230331 -0.01863724 0.70834821
-0.0064949081 -0.019484729 0.70779324
-0.0064667026 -0.020323902 0.70723665
-0.0064400164 -0.021160036 0.70671004
-0.006437547 -0.02207154 0.70666134
-0.0064959615 -0.023199826 0.7078141
-0.0065824753 -0.02444914 0.70952117
-0.006628206 -0.025565892 0.71042365
-0.0066747041 -0.026698798 0.7113412
-0.0067218384 -0.027847618 0.71227133
-0.0067696646 -0.029012829 0.71321505
-0.0068183322 -0.030195475 0.71417546
-0.0068929917 -0.0315108 0.71564871
-0.0058880225 0.032384127 0.71518236
-0.0058363904 0.031127423 0.71399373
-0.005794486 0.029938221 0.71302891
-0.0057532163 0.028766066 0.71207881
-0.0057125301 0.0276106 0.71114218
-0.0056725238 0.026471764 0.71022117
-0.0056322026 0.025344938 0.70929289
-0.0055430601 0.024019986 0.70724064
-0.0055166353 0.022985995 0.70663226
-0.0055247652 0.022099078 0.70681942
-0.0055491971 0.021271944 0.70738196
-0.0055736196 0.020436615 0.70794415
-0.0055984333 0.01959455 0.70851541
-0.0056201932 0.018734008 0.70901632
-0.005641337 0.017864287 0.70950311
-0.0056624613 0.016987383 0.70998949
-0.005680813 0.016095638 0.71041191
-0.0056986287 0.015196353 0.71082211
-0.0057165381 0.014291346 0.71123445
-0.0057320921 0.013374925 0.7115925
-0.0057461206 0.01244995 0.71191549
-0.005760218 0.011520445 0.71224004
-0.0057732449 0.010584295 0.71253991
-0.0057835737 0.009639293 0.71277779
-0.005793978 0.0086910129 0.71301723
-0.0058037965 0.0077384412 0.71324337
-0.0058113383 0.0067799389 0.71341693
-0.0058176848 0.0058177114 0.71356308
-0.005823419 0.0048528612 0.71369505
-0.0058284979 0.0038857162 0.71381199
-0.0058325748 0.0029163361 0.71390587
-0.0058343485 0.0019448102 0.7139467
-0.0058352831 0.00097256899 0.71396822
-0.0058352831 -0 0.71396828
-0.0058343098 -0.00097236037 0.71394581
-0.0058325562 -0.0019441545 0.71390545
-0.0058284784 -0.0029142201 0.71381158
-0.0058234571 -0.0038822889 0.713696
-0.0058177044 -0.004848063 0.7135635
-0.0058113383 -0.0058113039 0.71341693
-0.0058038151 -0.0067711174 0.71324378
-0.0057939966 -0.0077252984 0.7130177
-0.0057835933 -0.0086753666 0.71277821
-0.0057732449 -0.0096220672 0.71253997
-0.0057602362 -0.010560393 0.71224046
-0.0057461206 -0.011492193 0.71191549
-0.0057320921 -0.012419522 0.71159256
-0.0057165744 -0.013338655 0.71123534
-0.005698665 -0.014246643 0.71082294
-0.0056808488 -0.015148938 0.71041286
-0.0056624971 -0.016043723 0.70999026
-0.0056413547 -0.016924053 0.70950353
-0.0056202281 -0.017797351 0.70901716
-0.0055984864 -0.018661588 0.7085166
-0.0055737766 -0.019508213 0.70794779
-0.0055492837 -0.020347357 0.70738387
-0.0055248169 -0.021178454 0.70682061
-0.0055166008 -0.022066385 0.70663142
-0.0055429568 -0.023095638 0.7072382
-0.0056327712 -0.024408668 0.70930594
-0.005672704 -0.025527179 0.71022528
-0.0057127126 -0.02665931 0.71114641
-0.0057532722 -0.027807444 0.71208012
-0.0057944297 -0.028972119 0.71302772
-0.0058361613 -0.030153453 0.71398842
-0.0058890916 -0.031408459 0.71520698
-0.0048968131 0.03231898 0.71490961
-0.0048580179 0.031091303 0.71383786
-0.004822975 0.029902458 0.71286976
-0.004788449 0.02873072 0.71191597
-0.0047545815 0.027576596 0.7109803
-0.0047212197 0.026438862 0.71005863
-0.0046851169 0.025299639 0.70906126
-0.0046096514 0.023970187 0.70697635
-0.0045967554 0.022983789 0.7066201
-0.0046083517 0.022120088 0.70694047
-0.0046287789 0.021292388 0.70750481
-0.0046494319 0.020457506 0.7080754
-0.0046698446 0.019613355 0.70863932
-0.0046877018 0.018750846 0.70913261
-0.0047057262 0.017881781 0.70963061
-0.0047235289 0.017004728 0.71012235
-0.0047387327 0.016111732 0.71054238
-0.0047539282 0.015212566 0.71096218
-0.0047688843 0.014306694 0.71137536
-0.0047810441 0.013386935 0.71171141
-0.0047932342 0.012462437 0.71204817
-0.0048054713 0.011533141 0.71238619
-0.0048151971 0.010593474 0.71265489
-0.0048243203 0.0096486807 0.7129069
-0.0048333998 0.0087001622 0.71315777
-0.0048410944 0.0077457726 0.71337032
-0.004847107 0.0067859888 0.71353638
-0.0048528649 0.0058234632 0.71369553
-0.0048582079 0.0048582256 0.71384317
-0.0048619253 0.0038895905 0.71394581
-0.0048643108 0.0029185712 0.71401167
-0.0048660301 0.0019464195 0.71405929
-0.0048669698 0.00097340345 0.71408516
-0.0048669698 2.9802322e-08 0.71408516
-0.0048660142 -0.00097319484 0.71405882
-0.0048642787 -0.0019457042 0.71401089
-0.0048619253 -0.0029171109 0.71394587
-0.0048581925 -0.0038865209 0.71384269
-0.0048528649 -0.0048528612 0.71369553
-0.004847107 -0.0058165193 0.71353644
-0.0048410944 -0.0067775548 0.71337032
-0.0048333998 -0.0077334046 0.71315777
-0.004824352 -0.0086838305 0.71290779
-0.0048152283 -0.0096304119 0.71265578
-0.0048055025 -0.010572076 0.71238703
-0.0047932342 -0.011503756 0.71204817
-0.004781059 -0.012430727 0.71171176
-0.004768915 -0.01335296 0.71137625
-0.0047539584 -0.014261842 0.71096301
-0.0047387481 -0.015163988 0.7105428
-0.004723574 -0.016060144 0.71012366
-0.0047057411 -0.016940683 0.70963103
-0.0046877465 -0.017813444 0.70913386
-0.004669874 -0.0186795 0.7086401
-0.0046496354 -0.019528449 0.70808101
-0.0046289805 -0.020367503 0.70751035
-0.0046084085 -0.02119866 0.70694202
-0.0045967414 -0.022064328 0.70661968
-0.0046096225 -0.023048103 0.70697558
-0.0046840254 -0.024356902 0.70903099
-0.0047212946 -0.025494993 0.71006072
-0.004754764 -0.026626676 0.71098536
-0.0047886958 -0.027774423 0.71192276
-0.0048230845 -0.028938502 0.71287286
-0.0048579699 -0.030119389 0.71383655
-0.0048963935 -0.031336933 0.71489799
-0.0039126314 0.032279223 0.71474326
-0.0038827986 0.031062424 0.71371305
-0.0038547043 0.029873967 0.71274287
-0.0038271113 0.028703362 0.71178997
-0.0037999109 0.027549386 0.7108506
-0.0037731063 0.026411742 0.709925
-0.0037393281 0.025240481 0.70875853
-0.0036842036 0.023947328 0.70685488
-0.0036777114 0.022985697 0.70663071
-0.003689494 0.022136956 0.70703757
-0.0037061034 0.021310091 0.70761114
-0.0037227932 0.020475358 0.70818746
-0.0037388229 0.019628823 0.70874107
-0.0037533918 0.018766999 0.70924413
-0.0037679793 0.017897874 0.70974791
-0.0037816705 0.017017543 0.71022069
-0.0037938515 0.016123891 0.71064138
-0.0038061114 0.015224487 0.71106476
-0.0038178135 0.014316827 0.71146882
-0.003827801 0.013397306 0.71181375
-0.0038378283 0.012472957 0.71215999
-0.0038474356 0.01154229 0.71249187
-0.0038550037 0.010601282 0.71275318
-0.0038626017 0.0096565187 0.71301556
-0.0038701289 0.0087078214 0.71327549
-0.0038755506 0.0077511072 0.71346271
-0.0038806961 0.006791234 0.71364039
-0.0038856524 0.0058284998 0.71381152
-0.00388954 0.0048619509 0.71394581
-0.003892136 0.0038921535 0.71403551
-0.0038943407 0.0029207766 0.71411157
-0.0038960241 0.0019480288 0.71416968
-0.0038969687 0.00097426772 0.71420234
-0.0038969687 2.9802322e-08 0.7142024
-0.0038960369 -0.0009740293 0.71417016
-0.0038943279 -0.0019471347 0.71411115
-0.003892136 -0.0029190779 0.71403551
-0.00388954 -0.0038895309 0.71394587
-0.0038856396 -0.0048570335 0.7138111
-0.0038806961 -0.0058210492 0.71364039
-0.0038755506 -0.0067822039 0.71346277
-0.0038701289 -0.0077402592 0.71327549
-0.0038626017 -0.008690834 0.71301556
-0.0038550037 -0.0096375048 0.71275318
-0.0038474356 -0.01058045 0.71249187
-0.0038378534 -0.011513561 0.71216094
-0.0038278133 -0.012440354 0.71181417
-0.0038178258 -0.013362348 0.71146929
-0.0038061114 -0.014272898 0.7110647
-0.0037938757 -0.015175492 0.71064222
-0.0037817184 -0.016072273 0.71022236
-0.0037679912 -0.016955972 0.70974833
-0.0037534274 -0.017828792 0.70924538
-0.0037388583 -0.018694282 0.70874226
-0.0037228165 -0.01954475 0.7081883
-0.0037061265 -0.020383686 0.70761192
-0.0036895054 -0.021214634 0.70703799
-0.0036776999 -0.022066176 0.70663029
-0.0036841577 -0.02302596 0.70685327
-0.0037402569 -0.024311662 0.7087906
-0.0037732141 -0.025469184 0.70992875
-0.003800008 -0.026600033 0.71085393
-0.0038271854 -0.027747095 0.71179253
-0.0038547667 -0.028910756 0.71274501
-0.0038827737 -0.030091465 0.71371216
-0.0039124768 -0.0312998 0.71473789
-0.0029318314 0.032250136 0.71462154
-0.0029100948 0.031041026 0.71362072
-0.0028890155 0.029853165 0.71265018
-0.0028682388 0.028682381 0.71169353
-0.00284775 0.027528256 0.7107501
-0.0028275787 0.026390731 0.70982134
-0.002799524 0.025195748 0.70852959
-0.0027611433 0.023929924 0.70676231
-0.0027587269 0.022989422 0.70665115
-0.0027686921 0.022149563 0.70710993
-0.0027812498 0.021322966 0.70768815
-0.0027938262 0.020488054 0.70826721
-0.0028056162 0.019639343 0.70881009
-0.0028165546 0.018777043 0.70931369
-0.0028275787 0.017908037 0.70982134
-0.0028377592 0.017026544 0.71029007
-0.0028470594 0.016133368 0.71071827
-0.0028564206 0.015234262 0.71114933
-0.0028649876 0.014324933 0.71154374
-0.0028726161 0.013405591 0.71189505
-0.0028801463 0.012480676 0.71224171
-0.0028870709 0.011548311 0.71256053
-0.0028929124 0.010607392 0.71282959
-0.0028987774 0.0096625686 0.7130996
-0.002904203 0.0087126493 0.71334946
-0.0029082643 0.0077553988 0.71353644
-0.0029123274 0.0067954659 0.71372354
-0.0029162874 0.0058325827 0.71390587
-0.0029185771 0.0048643053 0.71401125
-0.0029207456 0.0038943589 0.71411115
-0.0029227361 0.0029227436 0.71420282
-0.0029241634 0.0019494593 0.71426851
-0.0029244893 0.00097483397 0.71428353
-0.0029244893 2.9802322e-08 0.71428353
-0.0029241634 -0.00097471476 0.71426851
-0.0029227266 -0.001948446 0.71420234
-0.0029207456 -0.002920717 0.71411109
-0.0029185771 -0.0038913786 0.71401131
-0.0029162781 -0.0048604608 0.71390545
-0.0029123274 -0.0058246553 0.71372354
-0.0029082643 -0.006785959 0.7135365
-0.002904203 -0.0077444911 0.71334946
-0.0028987774 -0.0086963475 0.7130996
-0.0028929124 -0.0096430182 0.71282959
-0.0028870709 -0.010585934 0.71256059
-0.0028801647 -0.011520624 0.71224254
-0.0028726254 -0.012448013 0.71189547
-0.0028649969 -0.013369977 0.71154428
-0.0028564387 -0.014282197 0.71115017
-0.0028470776 -0.015184373 0.71071911
-0.0028377865 -0.016080737 0.71029133
-0.0028275964 -0.016965568 0.70982218
-0.0028165723 -0.017838299 0.70931458
-0.0028056337 -0.018704236 0.70881093
-0.0027938434 -0.01955688 0.70826805
-0.0027812673 -0.020395964 0.70768893
-0.0027687091 -0.021226764 0.7071107
-0.0027587269 -0.022069812 0.70665115
-0.002761126 -0.02300936 0.70676154
-0.0027988921 -0.024257034 0.7085005
-0.002827731 -0.025449544 0.70982838
-0.0028478501 -0.026579916 0.71075469
-0.0028682575 -0.027726471 0.71169436
-0.0028889594 -0.028889567 0.71264756
-0.00291 -0.030070007 0.71361637
-0.0029316773 -0.031271249 0.71461451
-0.0019534247 0.03223151 0.71454358
-0.0019391463 0.031026334 0.71355736
-0.001925069 0.029838562 0.71258515
-0.0019111945 0.028667957 0.71162683
-0.0018975188 0.02751404 0.71068239
-0.0018840851 0.026377201 0.70975453
-0.0018641093 0.025165468 0.70837486
-0.0018404715 0.023926139 0.70674229
-0.0018393333 0.022991687 0.70666367
-0.0018465108 0.022158146 0.7071594
-0.001854924 0.021331638 0.70774049
-0.0018634318 0.020497739 0.70832807
-0.0018712699 0.019648343 0.70886946
-0.0018786045 0.018786043 0.70937604
-0.0018859969 0.017916977 0.70988655
-0.0018926703 0.017034054 0.71034753
-0.001898894 0.01614058 0.71077734
-0.0019051404 0.015241116 0.7112087
-0.001910685 0.014330149 0.71159166
-0.0019157745 0.013410449 0.71194315
-0.0019208911 0.012485832 0.71229655
-0.0019253868 0.011552334 0.71260709
-0.0019293526 0.010611445 0.71288097
-0.0019333347 0.0096667111 0.71315598
-0.0019367909 0.0087155998 0.7133947
-0.0019395825 0.0077583194 0.71358752
-0.0019423758 0.006798327 0.71378046
-0.00194477 0.005834341 0.71394581
-0.0019464057 0.0048660338 0.71405876
-0.0019480248 0.0038960576 0.71417058
-0.0019494423 0.0029241741 0.71426851
-0.0019498959 0.0019499063 0.71429986
-0.0019502029 0.00097513199 0.71432102
-0.0019502093 2.9802322e-08 0.71432149
-0.0019498959 -0.00097495317 0.7142998
-0.0019494423 -0.0019494295 0.71426851
-0.001948012 -0.0029219985 0.71416974
-0.0019464057 -0.0038928092 0.71405882
-0.0019447764 -0.0048619211 0.71394628
-0.0019423886 -0.0058271587 0.71378136
-0.0019395951 -0.0067885816 0.71358842
-0.0019367909 -0.0077471435 0.7133947
-0.0019333536 -0.0087000728 0.7131573
-0.0019293588 -0.0096467733 0.71288139
-0.0019253992 -0.010589689 0.71260792
-0.0019209097 -0.011525422 0.7122978
-0.0019157869 -0.012452573 0.71194398
-0.0019106973 -0.013374865 0.7115925
-0.0019051526 -0.014288634 0.7112096
-0.0018989061 -0.015191227 0.71077812
-0.0018926763 -0.016087741 0.71034789
-0.0018860028 -0.016974032 0.70988697
-0.0018786105 -0.017846793 0.70937645
-0.0018712758 -0.018712759 0.70886981
-0.0018634435 -0.019566149 0.70832884
-0.0018549298 -0.02040422 0.70774084
-0.0018465166 -0.02123493 0.70715982
-0.0018393333 -0.022071987 0.70666361
-0.0018404601 -0.023005724 0.70674145
-0.0018636654 -0.024227619 0.70834422
-0.0018841806 -0.025436401 0.70976114
-0.0018976036 -0.026566416 0.71068823
-0.0019112192 -0.027712673 0.71162856
-0.0019250377 -0.02887553 0.71258295
-0.0019390514 -0.030055285 0.71355081
-0.0019532961 -0.031252742 0.7145347
-0.00097649737 0.032224447 0.7145139
-0.00096936448 0.031019688 0.71352863
-0.00096233515 0.029832423 0.71255761
-0.0009554039 0.028662145 0.71160018
-0.00094858086 0.027508885 0.71065772
-0.00094185455 0.026371956 0.7097286
-0.00093105377 0.025138468 0.70823658
-0.00092008774 0.023922294 0.70672184
-0.00091974629 0.022993684 0.70667464
-0.00092351635 0.022164404 0.70719546
-0.00092777447 0.02133885 0.70778358
-0.00093192025 0.020502269 0.70835632
-0.00093584991 0.019652873 0.70889908
-0.00093960494 0.018792123 0.70941776
-0.00094319874 0.017920792 0.70991421
-0.0009465671 0.017038226 0.71037948
-0.00094974716 0.016145706 0.71081877
-0.00095279602 0.015244782 0.71123993
-0.00095560343 0.014334053 0.71162772
-0.00095820514 0.013414919 0.71198714
-0.00096070924 0.012489229 0.71233296
-0.00096296147 0.011555552 0.7126441
-0.00096497679 0.010614783 0.71292245
-0.00096693769 0.0096693933 0.71319336
-0.00096863526 0.0087177157 0.71342784
-0.000970038 0.0077603161 0.71362162
-0.00097144174 0.0068001151 0.71381545
-0.00097254728 0.0058352649 0.71396822
-0.00097339397 0.0048669875 0.71408522
-0.00097424217 0.0038969517 0.71420234
-0.00097482651 0.0029245019 0.71428305
-0.00097510143 0.0019502342 0.71432102
-0.00097535091 0.00097537041 0.71435553
-0.00097535411 2.9802322e-08 0.71435595
-0.00097510463 -0.00097510219 0.71432149
-0.00097482651 -0.0019496679 0.71428305
-0.00097423897 -0.0029227138 0.71420187
-0.00097339076 -0.0038935542 0.71408474
-0.00097254728 -0.0048627257 0.71396828
-0.00097144494 -0.0058286488 0.71381593
-0.0009700412 -0.0067902505 0.71362203
-0.00096864149 -0.0077491403 0.71342868
-0.00096694398 -0.008702457 0.71319419
-0.0009649737 -0.0096497238 0.7129221
-0.00096296455 -0.01059258 0.71264452
-0.00096071244 -0.011528552 0.71233338
-0.00095820823 -0.012456685 0.7119875
-0.00095560652 -0.013378471 0.7116282
-0.00095279905 -0.014292002 0.71124041
-0.00094974716 -0.015195936 0.71081877
-0.0009465671 -0.016091615 0.71037948
-0.00094320177 -0.016977608 0.70991468
-0.00093960494 -0.017852485 0.70941782
-0.00093585579 -0.01871711 0.70889992
-0.00093192613 -0.01957044 0.7083571
-0.00092778029 -0.020411134 0.70778441
-0.0009235192 -0.02124092 0.70719588
-0.00091974629 -0.022073865 0.70667464
-0.00092008489 -0.023002118 0.70672148
-0.00093109749 -0.024208546 0.70824265
-0.00094183971 -0.025429666 0.70972645
-0.0009485567 -0.026559532 0.71065438
-0.00095537322 -0.027705818 0.71159589
-0.00096229149 -0.028868735 0.71255153
-0.00096931402 -0.030048728 0.7135216
-0.00097644288 -0.031246156 0.71450633
0 0.032224745 0.71451521
0 0.031019956 0.71352994
0 0.029832572 0.71255845
0 0.028662413 0.71160144
0 0.027508944 0.71065813
0 0.026371866 0.70972812
0 0.025139421 0.70824146
0 0.023922205 0.70672143
0 0.022993684 0.70667464
0 0.022164404 0.70719546
0 0.02133888 0.70778406
0 0.020502269 0.70835632
0 0.019652933 0.7088995
0 0.018792063 0.7094174
0 0.017920792 0.70991421
0 0.017038167 0.71037906
0 0.016145706 0.71081877
0 0.015244693 0.71123952
0 0.014334053 0.71162772
0 0.013414919 0.71198714
0 0.012489259 0.71233344
0 0.011555552 0.7126441
0 0.010614783 0.71292245
0 0.0096694231 0.71319377
0 0.0087177157 0.71342784
0 0.0077603161 0.71362203
0 0.0068001449 0.71381593
0 0.0058352649 0.71396822
0 0.0048669875 0.71408522
0 0.0038969815 0.71420187
0 0.0029244721 0.71428353
0 0.0019502044 0.71432149
0 0.00097537041 0.71435595
0 2.9802322e-08 0.71435595
0 -0.00097510219 0.71432149
0 -0.0019496679 0.71428305
0 -0.0029227138 0.71420187
0 -0.0038935542 0.71408474
0 -0.0048627257 0.71396828
0 -0.0058286488 0.71381593
0 -0.0067902505 0.71362203
0 -0.0077491403 0.71342868
0 -0.0087024868 0.71319377
0 -0.0096497536 0.71292245
0 -0.01059258 0.71264452
0 -0.011528552 0.71233338
0 -0.012456685 0.7119875
0 -0.013378441 0.71162772
0 -0.014292002 0.71124041
0 -0.015195966 0.71081924
0 -0.016091675 0.71037996
0 -0.016977549 0.70991421
0 -0.017852485 0.70941782
0 -0.01871714 0.70890027
0 -0.01957044 0.7083571
0 -0.020411134 0.70778441
0 -0.02124092 0.70719588
0 -0.022073835 0.70667428
0 -0.023002118 0.70672148
0 -0.024207443 0.70823705
0 -0.025429606 0.7097261
0 -0.026559681 0.71065474
0 -0.027706057 0.71159714
0 -0.028869301 0.71255416
0 -0.030049592 0.71352559
0 -0.031247169 0.71451074
0.0009766994 0.032231092 0.71454173
0.00096957316 0.031026334 0.71355736
0.0009625532 0.029839158 0.71258765
0.00095563725 0.028669149 0.71163237
0.00094881695 0.027515709 0.71069032
0.00094209326 0.026378632 0.7097615
0.00093180931 0.025158882 0.708341
0.00092023291 0.023926049 0.70674193
0.00091966667 0.022991687 0.70666367
0.00092325255 0.022158086 0.70715904
0.0009274591 0.021331578 0.70774007
0.00093171588 0.020497739 0.70832807
0.00093563495 0.019648343 0.70886946
0.00093930226 0.018786043 0.70937604
0.00094299845 0.017916977 0.70988655
0.00094633515 0.017034054 0.71034753
0.00094944699 0.01614058 0.71077734
0.00095257018 0.015241116 0.7112087
0.00095534557 0.014330178 0.71159208
0.00095789036 0.013410479 0.71194363
0.0009604487 0.012485862 0.71229696
0.0009626965 0.011552393 0.7126075
0.00096467941 0.010611475 0.71288145
0.00096667057 0.0096667409 0.71315646
0.00096839544 0.0087155998 0.7133947
0.00096979446 0.0077583492 0.71358794
0.0009711879 0.006798327 0.71378046
0.0009723882 0.005834341 0.71394628
0.00097320916 0.0048660338 0.71405971
0.00097400922 0.0038960576 0.71417016
0.00097471784 0.0029241741 0.71426803
0.00097495114 0.0019499362 0.71430027
0.00097510143 0.00097513199 0.71432102
0.00097510463 2.9802322e-08 0.71432149
0.00097494794 -0.00097495317 0.7142998
0.00097472436 -0.0019494295 0.71426892
0.00097400602 -0.0029219985 0.71416974
0.00097320287 -0.0038928092 0.71405882
0.0009723882 -0.0048619211 0.71394628
0.00097119738 -0.0058271885 0.71378177
0.00096980075 -0.0067885816 0.71358883
0.00096839544 -0.0077471435 0.7133947
0.00096667378 -0.0087000728 0.71315688
0.00096468261 -0.0096467733 0.7128818
0.00096269959 -0.010589689 0.71260792
0.00096045487 -0.011525422 0.7122978
0.00095789344 -0.012452573 0.71194398
0.00095534866 -0.013374865 0.7115925
0.00095257629 -0.014288634 0.7112096
0.00094945304 -0.015191227 0.71077812
0.00094634114 -0.01608777 0.71034831
0.00094300439 -0.016974062 0.70988739
0.0009393082 -0.017846823 0.70937681
0.00093564083 -0.018712789 0.70887017
0.00093172176 -0.019566149 0.70832884
0.00092746492 -0.02040422 0.70774084
0.00092325831 -0.02123493 0.70715982
0.00091966381 -0.022071928 0.70666325
0.00092023006 -0.023005724 0.70674145
0.00093177723 -0.024226189 0.70833653
0.00094207836 -0.025436103 0.70975947
0.00094879873 -0.026566356 0.71068776
0.00095562491 -0.02771309 0.7116307
0.00096255011 -0.028876483 0.7125873
0.00096957944 -0.030056953 0.71355832
0.00097671233 -0.031254768 0.71454352
0.0019544708 0.032248765 0.71461582
0.0019400001 0.031040013 0.71361637
0.0019259916 0.029852867 0.71264887
0.0019121838 0.028682768 0.71169513
0.0018985787 0.027529418 0.71075553
0.00188516 0.026392221 0.70982873
0.0018659923 0.02519089 0.70850492
0.0018407621 0.023929924 0.70676231
0.0018391457 0.022989333 0.70665073
0.0018457946 0.022149563 0.70710993
0.0018541723 0.021322966 0.70768857
0.0018625507 0.020488054 0.70826721
0.0018704167 0.019639373 0.70881051
0.0018777089 0.018777102 0.70931417
0.0018850524 0.017908037 0.70982134
0.0018918396 0.017026544 0.71029007
0.0018980395 0.016133368 0.71071827
0.0019042803 0.015234262 0.71114933
0.0019099917 0.014324933 0.71154374
0.0019150836 0.013405621 0.71189547
0.0019201037 0.012480676 0.71224213
0.0019247078 0.011548281 0.71256018
0.001928602 0.010607362 0.71282911
0.0019325119 0.0096625686 0.71309918
0.0019361416 0.0087126195 0.71334988
0.0019388428 0.0077553988 0.71353644
0.0019415579 0.0067954659 0.71372402
0.0019441918 0.0058325827 0.71390587
0.0019457116 0.0048642755 0.71401083
0.0019471704 0.0038943291 0.71411163
0.0019484843 0.0029227138 0.7142024
0.0019494487 0.0019494891 0.71426898
0.001949653 0.00097483397 0.71428311
0.0019496594 2.9802322e-08 0.71428353
0.0019494487 -0.00097471476 0.71426898
0.0019484843 -0.001948446 0.71420234
0.0019471704 -0.0029207766 0.71411157
0.0019457244 -0.0038914382 0.71401173
0.0019441854 -0.0048604608 0.71390545
0.0019415515 -0.0058246553 0.71372354
0.0019388364 -0.0067858696 0.71353602
0.0019361352 -0.0077444911 0.71334946
0.0019325181 -0.0086963475 0.7130996
0.0019286143 -0.0096430779 0.71283007
0.0019247201 -0.010585934 0.71256101
0.0019201159 -0.011520684 0.71224302
0.0019150897 -0.012448072 0.71189594
0.0019100039 -0.013370007 0.71154463
0.0019042925 -0.014282197 0.71115017
0.0018980517 -0.015184373 0.71071911
0.0018918515 -0.016080707 0.71029091
0.0018850584 -0.016965508 0.70982176
0.0018777089 -0.01783821 0.70931411
0.0018704284 -0.018704265 0.70881128
0.0018625624 -0.01955688 0.70826805
0.001854184 -0.020395994 0.7076894
0.0018458118 -0.021226794 0.70711112
0.0018391514 -0.022069812 0.70665115
0.0018407507 -0.02300936 0.70676154
0.0018658811 -0.024256438 0.70849723
0.0018851181 -0.025449097 0.70982587
0.0018985545 -0.026579767 0.7107538
0.00191219 -0.02772674 0.71169567
0.0019260226 -0.028890342 0.71265101
0.0019400571 -0.030070841 0.71362036
0.0019545157 -0.031272233 0.71461892
0.002934512 0.03227964 0.71474499
0.0029120992 0.031062424 0.71371305
0.0028910467 0.029874146 0.7127437
0.0028703704 0.028703719 0.71179163
0.0028500152 0.027550161 0.71085435
0.0028299373 0.026412755 0.70993
0.0028046283 0.025241673 0.70876461
0.002763144 0.023947269 0.70685452
0.0027582834 0.022985697 0.70663071
0.0027671205 0.022136956 0.70703757
0.0027795688 0.021310031 0.70761073
0.0027920862 0.020475298 0.7081871
0.0028041259 0.019628912 0.70874143
0.0028150438 0.018766999 0.70924413
0.0028259757 0.017897874 0.70974755
0.0028362619 0.017017573 0.71022117
0.0028453886 0.016123891 0.71064138
0.0028545836 0.015224487 0.71106476
0.0028633694 0.014316857 0.71146929
0.002870851 0.013397306 0.71181375
0.0028783807 0.012472987 0.71216047
0.0028855768 0.01154229 0.71249187
0.0028912623 0.010601312 0.71275365
0.0028969513 0.0096565187 0.71301556
0.0029025967 0.0087078214 0.71327549
0.0029066817 0.0077511966 0.71346354
