# .PCD v0.7 - Point Cloud Data file format
VERSION 0.7
FIELDS x y z
SIZE 4 4 4
TYPE F F F
COUNT 1 1 1
WIDTH 1339
HEIGHT 1
VIEWPOINT 0 0 0 1 0 0 0
POINTS 1339
DATA ascii
0.0039436053 0.037464261 0.71581286
0.0039259703 0.036315233 0.71520388
0.0039068358 0.035161555 0.7145431
0.0038843201 0.03398782 0.71376562
0.0038590054 0.032801539 0.71289134
0.0038286266 0.0315862 0.7118423
0.0037938999 0.030351192 0.71064305
0.0037594649 0.029135883 0.70945388
0.0037368264 0.028026223 0.70867217
0.0037206972 0.026975065 0.7081151
0.0037113759 0.025979638 0.70779324
0.0037085644 0.025032848 0.70769608
0.0037089114 0.024107933 0.70770812
0.0037099291 0.023187071 0.70774329
0.0037110979 0.022266597 0.70778364
0.0037089922 0.021326751 0.70771086
0.0037049376 0.020377159 0.70757091
0.0037009495 0.019430012 0.70743316
0.0036973145 0.018486589 0.7073077
0.0036941112 0.017547041 0.70719701
0.0036912914 0.016610831 0.70709968
0.0036887389 0.015677184 0.70701146
0.0036864984 0.01474601 0.70693409
0.0036845573 0.013817102 0.7068671
0.003682778 0.012889743 0.70680565
0.0036814101 0.011964619 0.70675838
0.0036800662 0.011040181 0.70671201
0.003679133 0.01011762 0.70667976
0.0036801347 0.0092003644 0.70671433
0.0036858018 0.0082930624 0.70691007
0.0036983723 0.0073967576 0.70734417
0.0037224554 0.0065143406 0.70817584
0.0037513915 0.0056270957 0.70917511
0.0037809133 0.0047261417 0.71019459
0.0038109156 0.0038109124 0.71123064
0.0038417077 0.0028813183 0.71229398
0.0038734938 0.0019367635 0.71339172
0.0039058097 0.00097647309 0.7145077
0.0039387611 2.9802322e-08 0.71564555
0.0039730296 -0.000993222 0.716829
0.0040079127 -0.0020039678 0.71803367
0.0040434687 -0.0030325949 0.71926141
0.0040804869 -0.0040804744 0.72053981
0.0041182465 -0.0051477551 0.72184378
0.004156813 -0.0062352121 0.72317564
0.004196893 -0.0073445439 0.72455966
0.0042378744 -0.0084757507 0.72597498
0.0042799111 -0.009629786 0.72742653
0.0043235901 -0.010808975 0.72893494
0.0043682191 -0.012012571 0.73047614
0.0044143349 -0.01324299 0.73206866
0.0044620545 -0.014501661 0.73371661
0.0045110052 -0.015788525 0.73540699
0.0045619514 -0.017107308 0.73716635
0.0046143122 -0.018457234 0.73897451
0.0046685846 -0.019841462 0.74084872
0.0047247494 -0.021261334 0.74278826
0.0047829361 -0.022718906 0.74479765
0.0048433822 -0.02421689 0.746885
0.0049060429 -0.025756747 0.74904895
0.0049714264 -0.027342796 0.75130683
0.0050393022 -0.028975993 0.75365078
0.0051101758 -0.030661017 0.75609827
0.0051841564 -0.032400936 0.75865304
0.0052615199 -0.034199864 0.76132464
0.005342619 -0.036062658 0.76412529
0.0054277922 -0.037994534 0.7670666
0.0055176946 -0.04000327 0.77017117
0.0056125051 -0.042093754 0.77344531
0.0057129618 -0.044275433 0.77691448
0.005819784 -0.046558261 0.78060329
0.0059338128 -0.048953921 0.78454107
0.0054543652 0.050180197 0.73031282
0.0053094863 0.047785401 0.72631037
0.005202834 0.04578495 0.72336394
0.0050489474 0.04342097 0.71911258
0.0049856855 0.041879803 0.71736485
0.0049516507 0.040603548 0.71642464
0.0049239732 0.039391786 0.71565998
0.0048999432 0.038219571 0.7149961
0.004875795 0.037056059 0.714329
0.0048521841 0.035906166 0.71367669
0.0048250407 0.034740299 0.71292681
0.0047940067 0.033558071 0.71206945
0.0047636288 0.03239271 0.71123022
0.0047350209 0.031251162 0.71043986
0.0047099148 0.03014347 0.70974624
0.0046889437 0.02907145 0.70916694
0.0046741748 0.028045058 0.70875895
0.0046654344 0.027059495 0.70851743
0.0046627717 0.026111543 0.70844388
0.0046617775 0.025173664 0.7084164
0.0046605798 0.02423501 0.70838332
0.004659222 0.023296118 0.70834583
0.0046540303 0.022339344 0.70820242
0.0046474119 0.02137807 0.70801955
0.0046412908 0.020421684 0.70785046
0.0046358644 0.019470662 0.70770055
0.0046309265 0.018523723 0.70756418
0.0046264459 0.017580539 0.70744032
0.0046224189 0.016640693 0.70732903
0.0046188724 0.015704185 0.7072311
0.0046156901 0.01477024 0.70714319
0.0046128263 0.0138385 0.70706403
0.0046103951 0.012909114 0.70699692
0.0046081231 0.01198113 0.70693409
0.0046063242 0.011055171 0.70688438
0.0046060248 0.010133266 0.70687616
0.0046111383 0.0092222989 0.70701742
0.0046244748 0.0083240569 0.7073859
0.0046494319 0.0074391067 0.70807528
0.0046847039 0.0065586269 0.70904982
0.0047205901 0.0056647062 0.71004122
0.0047570458 0.0047570467 0.71104836
0.0047945171 0.0038356483 0.71208352
0.0048331013 0.0028998554 0.71314955
0.0048723281 0.0019489527 0.71423316
0.0049123098 0.00098249316 0.71533781
0.004953878 -0 0.71648622
0.0049961722 -0.00099918246 0.71765459
0.0050392286 -0.0020156503 0.71884412
0.0050839898 -0.0030503273 0.72008067
0.0051296945 -0.00410375 0.7213434
0.0051762648 -0.0051762462 0.7226299
0.005224661 -0.0062695742 0.72396696
0.0052741761 -0.0073838234 0.72533488
0.005324773 -0.0085196197 0.72673273
0.0053773606 -0.0096792281 0.72818559
0.0054311957 -0.01086235 0.72967279
0.0054864436 -0.012070149 0.73119915
0.0055438601 -0.013305247 0.73278528
0.0056025754 -0.01456669 0.73440748
0.0056633893 -0.015857488 0.73608744
0.0057262434 -0.017178684 0.73782396
0.0057908688 -0.018530756 0.7396093
0.0058581927 -0.019917846 0.74146926
0.0059272894 -0.021338224 0.74337816
0.0059992452 -0.022797078 0.74536604
0.0060734907 -0.024293929 0.74741721
0.006150818 -0.025833398 0.74955344
0.0062310533 -0.027416646 0.75177014
0.0063145086 -0.029046714 0.75407571
0.0064014695 -0.030727029 0.75647813
0.0064921915 -0.032460958 0.75898445
0.0065864841 -0.034249693 0.76158947
0.0066856602 -0.036102533 0.76432931
0.0067894794 -0.038021088 0.76719755
0.0068985899 -0.040011823 0.77021188
0.0070134806 -0.042080909 0.77338594
0.0071346238 -0.044234633 0.77673268
0.0072630751 -0.046483636 0.78028136
0.0073996596 -0.048837751 0.78405476
0.0066024899 0.050619096 0.73163098
0.0064227777 0.048170835 0.72749358
0.0062904353 0.046129853 0.72444677
0.0061864289 0.04433611 0.72205234
0.0060615358 0.042430788 0.71917701
0.0059565003 0.04070279 0.71675885
0.005903197 0.039354682 0.71553171
0.0058631427 0.038110465 0.71460962
0.0058273179 0.036906362 0.71378481
0.0057945047 0.035732836 0.71302938
0.0057624499 0.034574717 0.71229142
0.0057323868 0.033438951 0.71159929
0.0057047685 0.032327056 0.71096349
0.005680813 0.031244516 0.71041203
0.0056612035 0.03019309 0.70996058
0.0056487662 0.029185325 0.70967418
0.0056404988 0.028202564 0.70948386
0.0056348168 0.027234972 0.70935297
0.0056289155 0.026268274 0.70921719
0.0056255613 0.025315046 0.70913994
0.0056180693 0.024344981 0.70896745
0.0056086225 0.023369312 0.70874995
0.0055990661 0.022396296 0.70853001
0.0055903825 0.021429837 0.70833009
0.0055824248 0.02046892 0.70814681
0.0055752043 0.019513249 0.70798063
0.0055686622 0.018562198 0.70783007
0.0055628116 0.017615616 0.70769531
0.0055575278 0.016672611 0.70757371
0.0055526337 0.015732467 0.70746106
0.0055484031 0.01479575 0.70736361
0.0055445586 0.013861388 0.70727509
0.0055411151 0.012929291 0.70719582
0.0055381055 0.011999249 0.70712662
0.0055366452 0.011073291 0.70709294
0.0055410638 0.010158628 0.70719463
0.0055536185 0.0092560649 0.70748365
0.0055791088 0.0083686709 0.70807052
0.005619945 0.0074932873 0.70901066
0.005661868 0.0066055357 0.70997584
0.0057044402 0.0057044327 0.71095598
0.0057481565 0.0047901273 0.7119624
0.0057932069 0.0038621426 0.71299952
0.0058389492 0.0029195249 0.71405262
0.0058855559 0.0019618869 0.71512556
0.0059340177 0.00098901987 0.7162413
0.0059833038 -0 0.71737599
0.0060334364 -0.0010055602 0.71853012
0.0060854536 -0.0020284653 0.71972764
0.0061386498 -0.0030693114 0.72095239
0.0061927843 -0.0041285157 0.72219867
0.0062488448 -0.0052073896 0.72348928
0.0063063977 -0.00630638 0.72481424
0.0063650659 -0.0074259043 0.72616494
0.0064258538 -0.0085677803 0.72756445
0.0064883097 -0.009732455 0.72900224
0.0065521114 -0.010920167 0.73047113
0.0066183833 -0.012133688 0.73199683
0.0066863601 -0.013372719 0.73356187
0.0067561828 -0.014638364 0.73516929
0.0068287859 -0.015933841 0.73684078
0.0069030458 -0.017257601 0.73855036
0.0069801128 -0.018613636 0.74032462
0.0070597022 -0.020002484 0.74215692
0.007141727 -0.021425158 0.74404526
0.0072272029 -0.022886127 0.74601316
0.0073149288 -0.024383098 0.74803281
0.0074066245 -0.025923163 0.75014383
0.0075013102 -0.027504802 0.75232375
0.0075999368 -0.029133081 0.75459433
0.007702488 -0.030809939 0.75695527
0.007809246 -0.032538503 0.759413
0.0079203397 -0.034321487 0.76197064
0.0080369208 -0.036166102 0.76465464
0.0081585133 -0.038073063 0.76745391
0.0082859192 -0.040048599 0.77038705
0.0084197903 -0.042098939 0.77346909
0.0085609332 -0.044231474 0.7767185
0.0087100742 -0.046453714 0.78015208
0.0088678971 -0.048773408 0.78378546
0.0075542023 0.048562765 0.72869658
0.0073945215 0.046479851 0.72554553
0.0072688344 0.044651419 0.72306538
0.0071666148 0.042999715 0.72104824
0.0070732334 0.041428924 0.7192055
0.0069667157 0.039809823 0.71710348
0.0068899351 0.038386792 0.71558833
0.0068318252 0.037087083 0.71444166
0.0067851976 0.035864621 0.7135216
0.0067469561 0.034698695 0.71276695
0.0067167203 0.033583611 0.7121703
0.0066911164 0.032499731 0.71166509
0.0066703842 0.031446129 0.71125597
0.0066525852 0.030411839 0.71090472
0.0066382238 0.029397875 0.7106213
0.0066257585 0.028396159 0.71037531
0.0066154837 0.02740702 0.71017259
0.0066034594 0.026413858 0.70993537
0.0065888716 0.025414258 0.70964742
0.0065744719 0.024419487 0.70936334
0.0065612933 0.023433208 0.70910323
0.0065492387 0.02245456 0.7088654
0.0065383371 0.021483153 0.70865023
0.0065283924 0.020517826 0.70845401
0.0065192948 0.019557893 0.70827448
0.0065109963 0.018602878 0.70811069
0.0065034702 0.017652273 0.70796216
0.0064966511 0.016705692 0.70782763
0.0064905337 0.015762776 0.70770693
0.0064848526 0.014822572 0.70759481
0.0064798873 0.013885498 0.70749682
0.0064753522 0.012950718 0.70740736
0.0064723119 0.012020051 0.70734733
0.00647501 0.011100024 0.70740056
0.0064883293 0.010195971 0.70766342
0.0065148673 0.0093069673 0.7081871
0.0065590609 0.0084330738 0.70905918
0.0066067078 0.0075505376 0.70999944
0.0066550523 0.0066550672 0.71095335
0.0067047356 0.0057469308 0.71193379
0.0067558894 0.0048256814 0.7129432
0.0068078525 0.0038902462 0.71396863
0.0068606436 0.0029402971 0.7150104
0.0069155921 0.0019759238 0.71609473
0.0069714747 0.00099596381 0.71719742
0.0070282915 -0 0.71831864
0.0070871031 -0.0010124445 0.7194792
0.0071473736 -0.0020420551 0.72066849
0.0072086537 -0.0030893981 0.72187775
0.0072719073 -0.0041553974 0.72312593
0.0073370305 -0.0052407384 0.72441107
0.0074033309 -0.0063456595 0.72571933
0.0074716983 -0.0074716508 0.72706848
0.0075422423 -0.0086196959 0.72846055
0.0076141306 -0.0097896159 0.72987914
0.0076885098 -0.010983586 0.73134691
0.0077651385 -0.012202293 0.73285902
0.0078434581 -0.013445914 0.7344045
0.0079247607 -0.0147174 0.73600888
0.0080083208 -0.016016603 0.73765785
0.0080942921 -0.017344892 0.73935431
0.0081835445 -0.018705219 0.74111557
0.0082749836 -0.020096391 0.74291998
0.0083701042 -0.021523088 0.74479693
0.0084682647 -0.02298525 0.74673402
0.008569777 -0.024485052 0.7487371
0.0086753787 -0.0260261 0.75082099
0.0087841731 -0.027607381 0.75296789
0.0088976687 -0.029235214 0.75520754
0.0090152668 -0.030909449 0.75752813
0.0091377003 -0.032634646 0.75994414
0.0092652775 -0.034413844 0.76246166
0.0093985051 -0.036251336 0.76509064
0.0095373215 -0.038149267 0.76782995
0.0096825073 -0.040113211 0.77069491
0.0098352488 -0.042151034 0.77370906
0.0099955229 -0.044265866 0.77687174
0.010164234 -0.046465039 0.78020096
0.010342334 -0.048756689 0.78371555
0.0087045692 0.048963219 0.72992587
0.008516008 0.046838045 0.72667003
0.0083672181 0.04497382 0.72410095
0.0082460567 0.043291807 0.72200894
0.0081451889 0.041744083 0.72026724
0.0080599245 0.040299654 0.718795
0.0079822084 0.03891328 0.71745312
0.0079076057 0.037561178 0.71616507
0.0078444323 0.036280513 0.71507424
0.0077933753 0.035070211 0.71419263
0.007751253 0.033911735 0.71346533
0.00771716 0.032797933 0.71287668
0.007687835 0.031712353 0.71237034
0.007662382 0.030649543 0.71193087
0.0076398444 0.029604435 0.71154165
0.0076166093 0.028562278 0.71114051
0.0075939512 0.027528107 0.71074921
0.0075728497 0.026504964 0.71038491
0.0075535914 0.025493413 0.71005237
0.0075360304 0.024492115 0.70974916
0.0075199758 0.023499966 0.709472
0.0075052683 0.022515804 0.70921803
0.0074917497 0.021538794 0.70898461
0.0074795028 0.020568639 0.70877314
0.0074683037 0.019604325 0.70857978
0.0074580265 0.018645108 0.70840228
0.0074487096 0.017690748 0.7082414
0.0074402313 0.016740561 0.70809507
0.0074323746 0.01579383 0.70795935
0.0074254856 0.014850974 0.70784044
0.0074189794 0.013910592 0.70772809
0.0074143782 0.012975156 0.70764869
0.0074166432 0.012052059 0.70768774
0.0074284761 0.011142731 0.70789206
0.0074557359 0.010251641 0.70836282
0.0075042974 0.0093803704 0.70920128
0.0075573586 0.0085020363 0.71011746
0.0076111755 0.0076111853 0.7110467
0.007666308 0.0067080259 0.71199864
0.0077232979 0.0057924688 0.71298265
0.0077811158 0.0048632026 0.71398103
0.0078398315 0.0039199591 0.71499473
0.0079008834 0.0029628277 0.71604896
0.00796308 0.0019907951 0.71712285
0.0080262357 0.0010032952 0.71821332
0.008091283 2.9802322e-08 0.71933645
0.00815826 -0.0010197759 0.72049296
0.0082263267 -0.0020565689 0.72166824
0.0082962029 -0.0031110942 0.72287476
0.0083684847 -0.0041842163 0.72412288
0.0084420051 -0.0052762628 0.72539222
0.0085174097 -0.0063880384 0.72669429
0.0085955402 -0.0075210631 0.72804332
0.0086751785 -0.008675158 0.7294184
0.0087569198 -0.0098515153 0.73082983
0.0088416953 -0.011052102 0.73229355
0.0089281946 -0.012276262 0.73378712
0.0090174619 -0.013526171 0.73532844
0.0091096498 -0.014803171 0.73692024
0.0092039183 -0.016106844 0.73854798
0.0093018319 -0.017440915 0.74023861
0.0094025936 -0.018805176 0.74197841
0.0095063224 -0.020200908 0.74376947
0.0096140364 -0.021631569 0.74562925
0.0097246943 -0.023096144 0.74754
0.009839721 -0.024599314 0.74952608
0.0099586258 -0.026141375 0.75157917
0.010081765 -0.027724862 0.75370538
0.010209739 -0.029352993 0.75591499
0.010342171 -0.031026483 0.75820166
0.010479886 -0.032749623 0.76057959
0.010623404 -0.03452605 0.76305759
0.010772712 -0.036357909 0.76563567
0.010928335 -0.038249165 0.76832271
0.011091517 -0.04020673 0.77114034
0.011261991 -0.042232484 0.77408385
0.011440374 -0.044331431 0.77716386
0.011627849 -0.046511382 0.78040099
0.011825391 -0.048779726 0.78381187
0.0096549829 0.04720217 0.72781312
0.0094818138 0.045302004 0.72515529
0.0093404595 0.043588817 0.72298574
0.0092225373 0.042013764 0.72117591
0.0091225803 0.040544808 0.71964175
0.009036649 0.039158851 0.71832281
0.0089623341 0.037840992 0.71718228
0.0088975942 0.036579013 0.71618861
0.0088399388 0.0353598 0.71530372
0.0087889675 0.03417936 0.71452135
0.0087430328 0.033029228 0.7138164
0.0087020146 0.031907439 0.71318686
0.0086649973 0.030808896 0.71261871
0.008631411 0.029730409 0.71210325
0.0086009009 0.028669685 0.71163499
0.0085730487 0.027624279 0.71120751
0.0085478881 0.026593447 0.71082127
0.0085248556 0.025574595 0.71046782
0.0085038655 0.02456674 0.71014559
0.0084846718 0.023568511 0.70985103
0.0084671183 0.022578984 0.70958167
0.0084509449 0.021596879 0.70933342
0.0084360819 0.020621538 0.70910525
0.0084224902 0.019652516 0.7088967
0.0084101837 0.018689305 0.70870775
0.0083986782 0.017730564 0.7085312
0.0083883079 0.016776621 0.708372
0.0083789332 0.015826881 0.70822811
0.0083700502 0.014880121 0.70809174
0.0083639035 0.013939828 0.7079975
0.0083639566 0.013010621 0.70799828
0.0083773071 0.012100577 0.7082032
0.008406776 0.011209011 0.70865548
0.0084581012 0.010337681 0.70944327
0.0085162846 0.0094625652 0.71033621
0.0085753007 0.0085753202 0.71124208
0.0086354762 0.0076760054 0.71216559
0.0086979428 0.0067650974 0.71312433
0.0087612914 0.0058408678 0.71409661
0.0088255974 0.0049031377 0.7150836
0.0088921553 0.003952086 0.7161051
0.0089602945 0.0029867887 0.71715093
0.0090294853 0.0020065904 0.7182129
0.0091004651 0.0010112226 0.71930224
0.009173858 2.9802322e-08 0.72042871
0.0092483815 -0.0010276139 0.72157252
0.0093243849 -0.0020720661 0.72273904
0.0094032986 -0.0031343997 0.72395021
0.0094837286 -0.0042149723 0.72518468
0.009565752 -0.0053142905 0.72644353
0.0096509103 -0.006433934 0.7277506
0.0097378464 -0.0075739026 0.72908485
0.0098265791 -0.0087347329 0.73044676
0.0099188192 -0.0099187791 0.73186243
0.010013106 -0.011125654 0.73330963
0.010109738 -0.012356311 0.73479271
0.010209849 -0.013613135 0.73632926
0.010312401 -0.014895648 0.73790312
0.010418046 -0.016205817 0.7395246
0.01052737 -0.017545611 0.74120247
0.010639307 -0.018914312 0.74292058
0.010755422 -0.020315766 0.7447027
0.010875205 -0.021750361 0.74654114
0.010998635 -0.023219317 0.74843556
0.011126887 -0.024726391 0.750404
0.011258828 -0.026270568 0.75242901
0.011395926 -0.027856708 0.75453323
0.011537993 -0.029485971 0.75671369
0.011685231 -0.031160593 0.75897348
0.011838106 -0.032883644 0.76131988
0.011997131 -0.034658343 0.76376057
0.012162034 -0.036486089 0.7662915
0.012334602 -0.038374305 0.76894009
0.012514654 -0.040324956 0.7717036
0.012702391 -0.042341262 0.77458501
0.012898642 -0.044428617 0.77759701
0.013105157 -0.04659611 0.78076667
0.013321973 -0.048847198 0.78409439
0.010820813 0.047611624 0.72909844
0.010613024 0.045636028 0.72622824
0.01045024 0.043891013 0.72397965
0.010314076 0.042287737 0.72209883
0.010198664 0.040794671 0.72050452
0.010099643 0.039388657 0.71913671
0.010013439 0.038051099 0.71794599
0.0099378508 0.036770076 0.71690184
0.0098712193 0.035536408 0.71598148
0.0098119788 0.034341931 0.71516311
0.0097586289 0.033179373 0.71442622
0.0097108008 0.032045633 0.7137655
0.0096675539 0.030936182 0.71316814
0.0096281487 0.029847294 0.71262389
0.0095925899 0.028777778 0.71213269
0.0095601818 0.027724534 0.711685
0.0095306477 0.026685864 0.71127701
0.0095036626 0.025659889 0.7109043
0.0094788251 0.024644971 0.71056116
0.0094560403 0.023640096 0.71024644
0.0094350697 0.022644162 0.70995677
0.0094159814 0.021656811 0.70969307
0.0093985135 0.020676762 0.70945185
0.0093822656 0.019702792 0.70922744
0.0093673123 0.018734634 0.70902085
0.0093539078 0.017772466 0.70883566
0.0093413619 0.01681447 0.70866239
0.0093298443 0.015860796 0.70850325
0.0093220063 0.014915258 0.708395
0.0093231173 0.01398471 0.70841038
0.0093357014 0.013069987 0.70858419
0.009366516 0.012176484 0.70900983
0.0094231423 0.011307776 0.70979202
0.0094862012 0.010434836 0.71066308
0.0095501123 0.0095500946 0.71154594
0.0096148886 0.0086534023 0.71244073
0.0096824095 0.0077459216 0.71337336
0.0097510777 0.0068257749 0.71432185
0.009820695 0.0058924258 0.71528357
0.0098922998 0.0049461722 0.71627265
0.0099660913 0.0039864779 0.71729201
0.010040992 0.0030123293 0.71832657
0.010117236 0.0020234883 0.71937978
0.01019646 0.0010196567 0.72047412
0.010277151 2.9802322e-08 0.72158873
0.010359164 -0.0010358989 0.72272158
0.010444295 -0.0020888448 0.72389752
0.010531245 -0.0031593442 0.72509861
0.010619693 -0.004247874 0.72632033
0.010710952 -0.0053554475 0.7275809
0.010804892 -0.006482929 0.72887856
0.010900454 -0.0076302886 0.73019862
0.010999348 -0.0087994635 0.73156464
0.011101006 -0.009990871 0.73296887
0.01120473 -0.01120472 0.73440158
0.011312044 -0.012443244 0.73588401
0.011422444 -0.013706923 0.737409
0.011535377 -0.014995992 0.73896897
0.011652391 -0.016313314 0.74058527
0.011772597 -0.017658889 0.74224573
0.011896213 -0.019033939 0.74395329
0.012024396 -0.020441473 0.7457239
0.012155819 -0.021880418 0.74753922
0.012292127 -0.023355037 0.74942219
0.012433087 -0.024866164 0.75136924
0.012578327 -0.026414484 0.75337553
0.012729234 -0.028004289 0.75546002
0.012884979 -0.029635429 0.75761139
0.0130467 -0.031312108 0.75984532
0.013214527 -0.033036292 0.76216352
0.013388717 -0.034810632 0.76456964
0.013569604 -0.036637902 0.76706827
0.013758436 -0.038523614 0.76967669
0.013954627 -0.040468395 0.77238673
0.014159326 -0.042477965 0.77521431
0.014374147 -0.044559836 0.77818167
0.014598453 -0.046715021 0.78128004
0.014844158 -0.04898569 0.78467405
0.011761672 0.045977443 0.72732508
0.011576212 0.044200093 0.72499609
0.011421178 0.042569876 0.72304928
0.011289378 0.041052282 0.72139424
0.011175531 0.039622366 0.71996456
0.011076505 0.038264304 0.71872103
0.010990027 0.036966473 0.71763515
0.010913511 0.035716951 0.71667427
0.010845203 0.034507453 0.7158165
0.010784318 0.033333391 0.71505189
0.010729071 0.032187194 0.71435821
0.010679057 0.031066358 0.7137301
0.010633963 0.029968441 0.71316385
0.010592747 0.028889328 0.71264625
0.010555152 0.027827233 0.71217412
0.010520731 0.026780039 0.71174192
0.010489326 0.025746554 0.71134746
0.010460581 0.02472502 0.71098655
0.010434123 0.023713917 0.71065426
0.010409819 0.02271235 0.71034914
0.01038731 0.021718949 0.71006644
0.010366573 0.020733148 0.70980608
0.010347784 0.019754916 0.70957011
0.010330368 0.018782496 0.70935136
0.010314082 0.017815232 0.70914698
0.010299535 0.016853839 0.70896423
0.010290593 0.015903652 0.70885193
0.010290236 0.014967591 0.70884746
0.010305537 0.014053017 0.70903963
0.010341111 0.013161421 0.70948637
0.010402735 0.012294143 0.71026015
0.010470358 0.011422217 0.7111094
0.01053883 0.010538816 0.7119692
0.010608239 0.0096438825 0.7128408
0.010679859 0.0087380707 0.71374017
0.010753511 0.0078207552 0.71466506
0.010828188 0.0068907142 0.71560282
0.010904126 0.0059476793 0.71655643
0.010983238 0.0049923956 0.71754986
0.011063545 0.0040231049 0.71855837
0.011145072 0.0030395687 0.71958214
0.011229468 0.0020417273 0.72064191
0.011315932 0.0010287464 0.72172773
0.01140374 -0 0.7228303
0.011493931 -0.0010448694 0.7239629
0.011587119 -0.0021067262 0.72513312
0.01168183 -0.0031859577 0.72632241
0.011778823 -0.0042831898 0.72754049
0.011879467 -0.0053997338 0.72880429
0.011981804 -0.0065355003 0.73008937
0.012086408 -0.007691294 0.73140293
0.012194902 -0.0088689923 0.73276532
0.012305638 -0.010068238 0.73415595
0.012419204 -0.011290133 0.73558199
0.012536953 -0.012536943 0.73706067
0.0126572 -0.013807833 0.73857075
0.012780975 -0.015104771 0.74012494
0.012908977 -0.016429573 0.74173236
0.01303988 -0.017781645 0.7433762
0.013175376 -0.019164175 0.74507767
0.013315126 -0.020577878 0.74683261
0.013458592 -0.022023141 0.74863422
0.013607674 -0.023504168 0.75050628
0.013760732 -0.025019526 0.75242835
0.013919345 -0.026573271 0.7544201
0.014083778 -0.028167546 0.75648499
0.0142532 -0.029802144 0.75861251
0.014429419 -0.031482339 0.76082534
0.014611617 -0.033208191 0.76311326
0.014800818 -0.034983754 0.76548922
0.014997595 -0.036812246 0.76796025
0.015202219 -0.038696557 0.77052975
0.015414245 -0.040637523 0.77319235
0.015636677 -0.042645454 0.77598554
0.015868241 -0.044719547 0.77889341
0.016110016 -0.046865493 0.78192955
0.017699311 -0.053097934 0.80188709
0.012719424 0.044517964 0.72604167
0.012543858 0.042858183 0.72402072
0.012394042 0.041313529 0.72229612
0.012265021 0.039861321 0.72081101
0.012153002 0.038484544 0.71952152
0.012054156 0.037166983 0.71838373
0.01196721 0.035901636 0.71738291
0.011889703 0.03467834 0.71649069
0.011820002 0.033490032 0.71568841
0.011757151 0.032332212 0.71496493
0.011700335 0.031200886 0.71431088
0.011648624 0.030092299 0.71371567
0.011601517 0.029003769 0.71317339
0.011558495 0.027933031 0.71267819
0.011519097 0.02687791 0.7122246
0.011482997 0.025836766 0.7118091
0.01144984 0.024808019 0.71142739
0.011419102 0.023789823 0.71107358
0.011390855 0.0227817 0.71074843
0.011365172 0.021783262 0.7104528
0.011341333 0.020792484 0.71017838
0.011319175 0.01980859 0.70992333
0.011298819 0.018831372 0.70968902
0.011281105 0.017861754 0.70948511
0.011269704 0.016904593 0.7093538
0.011273336 0.015970558 0.70939565
0.011291706 0.015055627 0.70960712
0.011333519 0.014166921 0.71008843
0.011401918 0.013302267 0.71087575
0.011472587 0.012428671 0.71168923
0.011545369 0.01154539 0.7125271
0.011619119 0.010650873 0.71337599
0.011693932 0.0097449422 0.71423715
0.0117722 0.0088291466 0.71513814
0.011851561 0.0079010725 0.7160517
0.01193204 0.0069603622 0.71697801
0.012015196 0.0060076118 0.71793526
0.012100669 0.0050419569 0.71891916
0.012187366 0.004062444 0.71991712
0.012275863 0.0030689836 0.72093582
0.012367841 0.0020613372 0.72199458
0.012461251 0.0010384321 0.72306991
0.01255626 2.9802322e-08 0.72416347
0.012655061 -0.0010545552 0.72530079
0.012755703 -0.0021259189 0.72645926
0.012858004 -0.0032144487 0.72763693
0.012964127 -0.0043213665 0.72885847
0.01307283 -0.0054469705 0.73010975
0.013183565 -0.0065917969 0.7313844
0.013298174 -0.0077572763 0.73270369
0.013415753 -0.008943826 0.73405719
0.013535377 -0.010151505 0.73543417
0.013659244 -0.011382669 0.73685998
0.013786624 -0.012637734 0.73832631
0.013916837 -0.01391682 0.73982513
0.014051635 -0.015222549 0.74137682
0.014190028 -0.016555011 0.74296987
0.014331982 -0.017914981 0.74460399
0.014479271 -0.019305676 0.74629939
0.014630097 -0.020725936 0.74803555
0.014785999 -0.022178948 0.74983013
0.014947262 -0.023666471 0.75168645
0.015112849 -0.025188059 0.75359255
0.01528496 -0.026748657 0.75557375
0.015461842 -0.028346688 0.75760984
0.015645402 -0.029986978 0.75972277
0.01583576 -0.031671494 0.76191401
0.016032176 -0.033400327 0.764175
0.016236555 -0.035179168 0.76652759
0.016448487 -0.03700906 0.76896715
0.016668435 -0.038893014 0.77149904
0.016897548 -0.040835708 0.7741363
0.017136334 -0.042840809 0.77688503
0.017384339 -0.044909537 0.77973986
0.017643902 -0.047050387 0.78272772
0.013681849 0.043150485 0.72500539
0.013513656 0.041580528 0.7232182
0.013369075 0.04010725 0.72168201
0.013242006 0.038707405 0.72033179
0.01313132 0.037373781 0.71915567
0.013032654 0.036090404 0.71810734
0.012945074 0.034852117 0.71717674
0.012866708 0.033651412 0.71634406
0.012795762 0.032481551 0.71559018
0.012731167 0.031338274 0.71490383
0.012672454 0.030218929 0.71428001
0.012619097 0.029120982 0.71371305
0.012570231 0.028041333 0.71319377
0.012525434 0.026977897 0.71271777
0.0124843 0.025928944 0.71228069
0.012446561 0.024893135 0.71187973
0.012411837 0.023868948 0.71151078
0.012379566 0.022854596 0.71116787
0.01234971 0.021849513 0.71085066
0.01232204 0.020852685 0.71055663
0.012296997 0.01986441 0.71029049
0.012278173 0.018889546 0.71009046
0.012270107 0.017933249 0.71000481
0.012272988 0.016993374 0.71003544
0.012294923 0.016077995 0.7102685
0.012353498 0.01520434 0.71089089
0.0124254 0.014337003 0.7116549
0.012498184 0.013459623 0.71242821
0.012574279 0.012574315 0.71323681
0.012652009 0.011678785 0.71406275
0.012730666 0.010772139 0.71489853
0.012811408 0.0098549426 0.71575642
0.012895204 0.0089274645 0.71664679
0.012980147 0.0079877973 0.71754944
0.013066349 0.0070357621 0.71846533
0.013156343 0.0060721636 0.71942163
0.01324786 0.0050953627 0.72039396
0.013340704 0.0041048527 0.72138053
0.013436772 0.0031007826 0.72240132
0.013535466 0.0020824075 0.72345001
0.013635621 0.0010488927 0.72451425
0.013738343 -0 0.72560573
0.013844756 -0.0010649562 0.72673643
0.013952781 -0.0021465421 0.72788423
0.014063322 -0.0032453835 0.7290588
0.01417802 -0.004362464 0.73027748
0.014294711 -0.0054979622 0.73151743
0.014413984 -0.0066526234 0.73278475
0.014537612 -0.0078279078 0.73409832
0.014663826 -0.0090238452 0.73543948
0.014793098 -0.010241359 0.73681313
0.014927379 -0.011482567 0.73823988
0.01506412 -0.012746543 0.73969293
0.015204466 -0.014034897 0.74118412
0.015349707 -0.015349716 0.7427274
0.015498244 -0.016690433 0.74430573
0.015651712 -0.018059671 0.74593639
0.015810255 -0.019458741 0.74762094
0.015972503 -0.020887107 0.749345
0.016140746 -0.022348702 0.75113267
0.016313737 -0.023843139 0.75297081
0.016492309 -0.025372773 0.75486827
0.01667699 -0.02693975 0.75683057
0.016867252 -0.028544545 0.75885224
0.017064769 -0.030191511 0.76095098
0.017268198 -0.031879723 0.76311255
0.017479617 -0.033614635 0.76535892
0.017698709 -0.035397381 0.76768696
0.017925357 -0.037229568 0.77009517
0.018161297 -0.039116621 0.77260226
0.018406423 -0.041060477 0.77520686
0.018661138 -0.043064147 0.77791333
0.01892652 -0.045132488 0.78073317
0.019203758 -0.047270745 0.78367901
0.014662899 0.041893989 0.72430092
0.014486885 0.040356368 0.72256422
0.014345626 0.038938135 0.72117049
0.014220682 0.037583292 0.71993774
0.014110845 0.036285013 0.71885401
0.014012257 0.035030663 0.71788126
0.013923785 0.033814937 0.71700835
0.013844475 0.032633424 0.71622586
0.013772259 0.031479478 0.71551329
0.013706427 0.03034994 0.71486378
0.013646275 0.029242039 0.71427023
0.013591216 0.02815327 0.713727
0.013540694 0.0270814 0.71322858
0.013494176 0.02602452 0.71276957
0.013451277 0.024980962 0.71234632
0.013411632 0.023949385 0.71195513
0.01337501 0.022928596 0.71159375
0.013341453 0.021918148 0.7112627
0.013314106 0.020922184 0.71099287
0.013295144 0.019942731 0.71080577
0.013287167 0.018981695 0.7107271
0.013298754 0.018048316 0.71084142
0.013335769 0.017146021 0.71120661
0.013404247 0.016276598 0.71188229
0.013479322 0.015404969 0.712623
0.013555198 0.014523417 0.71337163
0.013631932 0.01363194 0.71412873
0.013712521 0.012733072 0.71492386
0.013794845 0.011824161 0.71573615
0.013878164 0.010904312 0.71655822
0.013964274 0.0099744797 0.71740788
0.014053309 0.0090343058 0.7182864
0.014143487 0.0080820024 0.71917605
0.014235415 0.0071177185 0.72008306
0.014331453 0.0061421096 0.72103065
0.014428898 0.0051531792 0.72199214
0.014527778 0.0041508377 0.72296774
0.014630849 0.0031352043 0.72398472
0.01473602 0.0021051466 0.72502238
0.014842766 0.0010602176 0.72607565
0.014953218 2.9802322e-08 0.72716534
0.015066745 -0.0010761619 0.72828549
0.015182006 -0.0021688342 0.72942275
0.015300789 -0.0032787025 0.73059469
0.01542333 -0.004406631 0.73180377
0.015547966 -0.0055527985 0.73303354
0.015676346 -0.0067184269 0.7343002
0.015808661 -0.007904321 0.73560572
0.015943412 -0.0091105103 0.73693526
0.016082283 -0.010338604 0.73830545
0.016225616 -0.011589706 0.73971969
0.016371915 -0.012863636 0.74116313
0.016523039 -0.01416257 0.7426542
0.016678782 -0.015487403 0.74419087
0.016837422 -0.016837418 0.74575615
0.017002093 -0.018216521 0.74738091
0.017171292 -0.019624293 0.74905032
0.017345337 -0.021062165 0.75076759
0.01752538 -0.022532612 0.75254393
0.017710404 -0.024035573 0.75436956
0.017901612 -0.02557373 0.7562561
0.018098958 -0.027148426 0.75820327
0.018302636 -0.028761297 0.76021284
0.018513253 -0.030414581 0.76229095
0.01873105 -0.032110333 0.76443982
0.018956792 -0.033851355 0.76666713
0.019189812 -0.035638154 0.76896626
0.019432168 -0.037476331 0.77135754
0.019683609 -0.039367199 0.7738384
0.019944027 -0.041312635 0.77640796
0.020215359 -0.043318629 0.77908504
0.020497704 -0.045387745 0.78187078
0.022414461 -0.051233023 0.8007828
0.015698859 0.040817052 0.72419608
0.015468914 0.039187938 0.7220785
0.015324062 0.037799388 0.72074455
0.015200829 0.036482006 0.71960974
0.015091603 0.035213768 0.71860385
0.014993201 0.033984601 0.71769768
0.014904187 0.03278923 0.716878
0.014823213 0.031622857 0.71613234
0.0147496 0.030482501 0.71545446
0.014682364 0.029364765 0.71483529
0.01462072 0.028266758 0.71426755
0.014564062 0.027186275 0.71374583
0.014512087 0.026121765 0.71326727
0.014464092 0.025071114 0.71282524
0.014420189 0.024033666 0.71242094
0.014384432 0.023015141 0.71209162
0.014357534 0.022014946 0.71184397
0.014339858 0.021031827 0.71168119
0.0143429 0.02008006 0.7117092
0.014368217 0.019157648 0.71194232
0.014427884 0.018275321 0.71249181
0.014500153 0.017400205 0.7131573
0.014573101 0.016516209 0.71382904
0.014650443 0.015627146 0.71454132
0.014729729 0.014729768 0.71527141
0.014809878 0.013822585 0.7160095
0.014893686 0.012907863 0.71678132
0.014980161 0.01198414 0.71757764
0.015067644 0.011049598 0.71838331
0.015157804 0.010105222 0.71921355
0.015251708 0.0091510713 0.72007829
0.015346783 0.0081849694 0.72095382
0.015443905 0.007207185 0.72184825
0.015545568 0.0062182248 0.72278446
0.015648525 0.0052162111 0.72373253
0.015753133 0.004200846 0.72469586
0.015862588 0.0031725168 0.72570378
0.015973976 0.0021298826 0.72672957
0.016087171 0.0010724664 0.72777194
0.016204864 -0 0.72885579
0.01632531 -0.0010883212 0.72996491
0.01644774 -0.0021930337 0.73109239
0.016574299 -0.0033148527 0.73225784
0.016704509 -0.0044545233 0.73345697
0.016836781 -0.0056122541 0.73467493
0.016973812 -0.0067895353 0.73593694
0.017114602 -0.0079868138 0.73723346
0.017258216 -0.0092043579 0.73855591
0.017406568 -0.010443926 0.73992211
0.017558945 -0.011705965 0.74132526
0.017714364 -0.012990505 0.74275649
0.017875638 -0.014300495 0.74424171
0.018041115 -0.01563561 0.74576551
0.018210877 -0.016996801 0.74732888
0.018386742 -0.018386692 0.74894834
0.018566808 -0.019804597 0.7506066
0.018752092 -0.021252334 0.75231278
0.018943606 -0.022732288 0.75407642
0.019140713 -0.024244905 0.75589156
0.019344145 -0.025792152 0.75776494
0.019554436 -0.027376175 0.75970149
0.019770926 -0.028997332 0.76169509
0.019995308 -0.030659467 0.7637614
0.020226952 -0.032363117 0.76589453
0.020466467 -0.034110755 0.76810026
0.020714896 -0.035905778 0.77038795
0.020972092 -0.037749767 0.77275652
0.021237977 -0.039644182 0.77520496
0.021515155 -0.041595936 0.77775747
0.021802751 -0.043605477 0.78040588
0.022100987 -0.045675367 0.78315234
0.016504982 0.038167804 0.72211999
0.016319821 0.03671959 0.72052151
0.016188402 0.035412133 0.71938694
0.01607362 0.034156471 0.71839595
0.015975242 0.032948971 0.71754658
0.015885698 0.031771392 0.71677357
0.015804024 0.030620307 0.71606845
0.015729213 0.029492259 0.71542257
0.015660983 0.02838555 0.71483356
0.015602646 0.027304649 0.71432984
0.0155484 0.026237965 0.71386153
0.015499224 0.02518627 0.71343702
0.015468739 0.024169922 0.71317387
0.015441081 0.02316165 0.71293503
0.015437374 0.022191286 0.71290302
0.01545874 0.021255791 0.71308744
0.015516205 0.020365059 0.71358359
0.015582974 0.019478709 0.71416003
0.015650628 0.018585145 0.71474415
0.015724691 0.017690301 0.71538353
0.015799509 0.016786993 0.71602952
0.015875999 0.015875995 0.71668983
0.015958045 0.014960676 0.71739823
0.016040891 0.014035791 0.71811342
0.016125478 0.013101965 0.71884358
0.01621549 0.012161613 0.71962076
0.016306566 0.011210769 0.72040701
0.016399352 0.010249615 0.7212081
0.016497659 0.0092799664 0.72205681
0.016597152 0.0082985759 0.72291577
0.016698204 0.0073054731 0.72378814
0.016804529 0.0063017309 0.72470611
0.016912756 0.0052852631 0.72564042
0.017022753 0.004255712 0.7265901
0.017137831 0.003213346 0.72758365
0.017255226 0.0021569133 0.7285971
0.017374242 0.0010859072 0.72962463
0.017498383 2.9802322e-08 0.73069632
0.017625486 -0.0011015832 0.73179364
0.017754717 -0.0022192895 0.73290932
0.017888812 -0.0033541322 0.73406708
0.018026453 -0.004506588 0.7352553
0.018166436 -0.0056769848 0.73646384
0.018311355 -0.0068667531 0.73771501
0.018460399 -0.0080763996 0.73900169
0.018612251 -0.009306103 0.7403127
0.01876951 -0.01055786 0.74167037
0.018931029 -0.01183188 0.74306482
0.019096119 -0.013128549 0.74449009
0.019267311 -0.014450461 0.74596798
0.019442556 -0.015797079 0.74748099
0.019622471 -0.017169654 0.74903429
0.019808469 -0.018570423 0.75064003
0.019999458 -0.019999444 0.75228888
0.020196307 -0.021458566 0.75398827
0.020400131 -0.022950113 0.75574797
0.020608108 -0.024472117 0.75754356
0.020824473 -0.02603057 0.75941145
0.021046825 -0.027623951 0.76133108
0.02127664 -0.02925536 0.7633152
0.021514544 -0.030927181 0.76536906
0.021759121 -0.032638669 0.76748055
0.022013802 -0.034396559 0.76967937
0.022276396 -0.036199123 0.77194631
0.022547998 -0.038049728 0.77429122
0.022830578 -0.03995347 0.77673078
0.023122801 -0.041910022 0.7792536
0.023425946 -0.043923676 0.78187078
0.02558705 -0.049574882 0.80052817
0.017260602 0.034521222 0.71987784
0.017114643 0.033222526 0.71869195
0.016999951 0.031999916 0.71775997
0.016910506 0.03083685 0.71703315
0.01682424 0.029689878 0.7163322
0.016759101 0.02858907 0.71580291
0.016696062 0.027499408 0.71529073
0.016660685 0.026461095 0.71500331
0.01662945 0.025433272 0.71474946
0.016627971 0.024452925 0.71473747
0.016664749 0.023526728 0.71503627
0.016711626 0.02260986 0.71541715
0.016767884 0.021699637 0.71587431
0.016825248 0.02078414 0.71634036
0.016887292 0.01986742 0.71684456
0.016954117 0.018948734 0.71738756
0.017021528 0.018022835 0.71793526
0.017096702 0.017096728 0.71854615
0.017173011 0.016162813 0.71916616
0.017251767 0.015222162 0.71980608
0.01733648 0.01427713 0.72049439
0.01742203 0.013322741 0.72118956
0.01751158 0.012361109 0.72191715
0.017605551 0.011391878 0.72268069
0.017700473 0.010412067 0.72345203
0.017799808 0.0094234645 0.7242592
0.017903054 0.0084249973 0.72509807
0.018007567 0.0074149072 0.72594732
0.018117007 0.0063942373 0.72683656
0.018229956 0.0053617954 0.72775429
0.018344322 0.0043163002 0.72868359
0.018463232 0.0032582283 0.72964978
0.018586224 0.0021866262 0.73064917
0.018710934 0.0011006594 0.73166245
0.018840555 2.9802322e-08 0.73271567
0.018974122 -0.001116097 0.73380101
0.019109597 -0.002248168 0.73490179
0.019249879 -0.0033970177 0.73604167
0.019394765 -0.0045634508 0.73721892
0.019542074 -0.0057476759 0.73841584
0.019694628 -0.0069510043 0.73965549
0.01985169 -0.0081742108 0.74093169
0.020011593 -0.0094171762 0.74223089
0.020177314 -0.010682106 0.74357748
0.020347605 -0.011969179 0.74496114
0.020521875 -0.013278842 0.74637723
0.02070204 -0.014613152 0.74784106
0.02088712 -0.015972495 0.74934494
0.021076858 -0.017357409 0.75088668
0.021274013 -0.018771172 0.75248867
0.021475075 -0.020211816 0.75412238
0.021683319 -0.021683306 0.75581443
0.021897729 -0.023185819 0.75755662
0.022118647 -0.024720818 0.75935173
0.022347029 -0.026290596 0.76120734
0.022581995 -0.027895361 0.7631166
0.02282463 -0.029537737 0.76508814
0.02307496 -0.031219035 0.76712221
0.023334395 -0.032942653 0.76923025
0.023602042 -0.034708858 0.77140498
0.023879172 -0.036521047 0.77365673
0.024166469 -0.038382024 0.7759912
0.024463365 -0.040292591 0.77840358
0.024771772 -0.042257726 0.78090954
0.025091792 -0.044279635 0.78350991
0.018433452 0.030722439 0.72108668
0.018262776 0.029423356 0.71977687
0.018183805 0.02828598 0.71917093
0.018145835 0.027218759 0.71887946
0.01813004 0.026187837 0.71875829
0.018132927 0.025184661 0.7187804
0.018151188 0.024201602 0.71892059
0.018174605 0.023223162 0.7191003
0.018213563 0.022261024 0.71939921
0.018253498 0.021295786 0.7197057
0.018306306 0.020340353 0.72011095
0.018359736 0.019379765 0.72052103
0.018422794 0.018422812 0.7210049
0.018488137 0.017461032 0.72150636
0.018558966 0.016496867 0.72204983
0.018635202 0.015529364 0.72263491
0.01871272 0.014554352 0.72322983
0.018798873 0.013577014 0.7238909
0.01888602 0.012590706 0.72455966
0.018977476 0.011597365 0.72526157
0.01907431 0.010596842 0.72600466
0.019172272 0.0095861852 0.72675639
0.019276867 0.008567512 0.72755909
0.019384366 0.0075383782 0.72838402
0.019493423 0.0064978302 0.72922093
0.019609531 0.0054470897 0.73011196
0.019727977 0.004384011 0.73102093
0.019848892 0.0033081472 0.73194885
0.01997689 0.002219677 0.73293108
0.020106623 0.0011170506 0.73392665
0.020239506 2.9802322e-08 0.73494643
0.020378577 -0.0011321306 0.73601365
0.020520046 -0.0022799969 0.73709929
0.020665726 -0.0034442842 0.73821723
0.020817537 -0.0046261251 0.73938227
0.020971594 -0.0058254004 0.74056447
0.021130368 -0.0070434213 0.7417829
0.021294866 -0.0082813203 0.74304533
0.021462634 -0.0095389187 0.74433279
0.021636039 -0.010818005 0.74566352
0.021815114 -0.012119502 0.74703777
0.021997631 -0.013442963 0.74843836
0.022186996 -0.01479131 0.74989152
0.022381427 -0.016164333 0.7513836
0.022581298 -0.017563224 0.75291741
0.022787582 -0.018989682 0.75450051
0.022999942 -0.020444363 0.7561301
0.023218414 -0.021928489 0.75780672
0.023444358 -0.023444355 0.75954062
0.023676211 -0.024991572 0.76131988
0.023916008 -0.02657333 0.76316011
0.024163764 -0.02819106 0.76506138
0.02441849 -0.029844791 0.76701611
0.024683537 -0.031540066 0.76905012
0.024955215 -0.033273578 0.77113497
0.02523746 -0.035052001 0.77330095
0.025529085 -0.036875367 0.77553892
0.025829896 -0.038744807 0.77784735
0.026143368 -0.040667444 0.78025293
0.026467159 -0.042641521 0.78273773
0.020468315 0.028009295 0.72843528
0.020105051 0.026454031 0.7257942
0.019981628 0.025239974 0.72489691
0.01991922 0.024112761 0.7244432
0.019891523 0.023032308 0.72424185
0.019892713 0.021986693 0.72425056
0.019906238 0.020953953 0.72434884
0.019932851 0.019932836 0.72454232
0.019972587 0.018921435 0.72483122
0.02001773 0.01791063 0.72515941
0.020075692 0.016905844 0.72558081
0.020136504 0.015897274 0.72602284
0.020207148 0.014889479 0.72653651
0.020281708 0.013877004 0.72707856
0.020362543 0.012860566 0.72766626
0.020449426 0.011839181 0.72829789
0.020538921 0.010809958 0.72894853
0.020637186 0.0097755194 0.7296629
0.020736704 0.008731246 0.7303865
0.020842871 0.0076789856 0.73115826
0.020953629 0.0066169202 0.73196352
0.021066668 0.0055438876 0.73278534
0.021187844 0.004460603 0.7336663
0.021310905 0.0033648908 0.73456097
0.021438086 0.0022566915 0.73548561
0.021571983 0.0011353791 0.73645908
0.021708062 2.9802322e-08 0.73744839
0.021850348 -0.001150012 0.73848277
0.02199742 -0.0023154616 0.73955202
0.0221464 -0.0034967959 0.74063516
0.022302868 -0.0046953261 0.74177271
0.022463527 -0.0059114397 0.74294066
0.022627875 -0.0071456432 0.74413556
0.022799339 -0.0083997548 0.74538213
0.022974353 -0.0096734166 0.74665451
0.023154354 -0.010967791 0.74796307
0.023340862 -0.012284636 0.74931908
0.023531865 -0.013623714 0.75070769
0.023728913 -0.014986664 0.75214022
0.023933034 -0.016375214 0.75362426
0.024141321 -0.017788321 0.75513852
0.024357673 -0.01922974 0.75671142
0.024579542 -0.020698518 0.75832438
0.024808753 -0.022197276 0.75999081
0.02504506 -0.023726881 0.76170886
0.025288736 -0.025288731 0.76348042
0.02554032 -0.026884526 0.76530945
0.025799552 -0.028515279 0.76719403
0.026067346 -0.030183226 0.76914096
0.02634358 -0.031889588 0.77114928
0.026629999 -0.033637881 0.77323157
0.026925538 -0.035428345 0.77538019
0.02723112 -0.037263632 0.77760184
0.027547883 -0.03914693 0.77990472
0.02787485 -0.041078687 0.78228188
0.030484451 -0.046528846 0.80125397
0.022173043 0.023281723 0.73276877
0.021949338 0.021949321 0.7312237
0.021850882 0.020758361 0.73054373
0.02180866 0.01962781 0.73025215
0.021796433 0.018527031 0.73016763
0.021803623 0.017442912 0.73021734
0.021833958 0.016375482 0.73042679
0.021873785 0.015311688 0.73070192
0.021925308 0.014251471 0.73105776
0.021988448 0.013193071 0.73149383
0.022057761 0.01213181 0.73197252
0.022136981 0.011068523 0.73251975
0.022222001 0.0099999011 0.73310691
0.022314122 0.0089256465 0.73374313
0.022413259 0.0078446269 0.73442793
0.022516603 0.0067549944 0.73514163
0.022628823 0.0056572258 0.73591667
0.022742687 0.0045485795 0.73670304
0.022865789 0.0034298897 0.7375533
0.022992363 0.0022992492 0.73842752
0.023124211 0.0011562407 0.73933816
0.023263402 2.9802322e-08 0.74029952
0.023404371 -0.001170218 0.74127316
0.023553586 -0.0023553371 0.74230367
0.023707362 -0.0035560727 0.74336576
0.023865072 -0.0047730207 0.74445498
0.024031302 -0.0060078204 0.74560308
0.024200356 -0.007260114 0.74677074
0.024375102 -0.0085312724 0.74797761
0.02455675 -0.0098226666 0.74923217
0.024742872 -0.011134297 0.75051767
0.024935916 -0.012467921 0.75185096
0.025134861 -0.013824135 0.75322497
0.025338627 -0.015203148 0.75463229
0.025550222 -0.016607642 0.75609374
0.025767725 -0.018037379 0.75759602
0.025991803 -0.019493848 0.75914353
0.026224665 -0.020979702 0.7607519
0.02646233 -0.022492975 0.7623933
0.026709495 -0.024038523 0.76410043
0.02696291 -0.025614768 0.76585066
0.027225917 -0.027225912 0.76766717
0.027496774 -0.028871596 0.76953781
0.027776314 -0.030553937 0.77146858
0.028066233 -0.032276124 0.77347088
0.028363891 -0.034036636 0.7755267
0.028673872 -0.035842299 0.77766764
0.028993247 -0.037691206 0.77987349
0.029323721 -0.039587021 0.78215593
0.029687721 -0.041562796 0.78467
0.024782101 0.020061702 0.74263811
0.024122028 0.018378705 0.73829627
0.023965131 0.017117947 0.73726428
0.023892064 0.01592806 0.73678362
0.023862578 0.014772087 0.73658967
0.023866864 0.013638228 0.73661786
0.023895994 0.012516946 0.73680949
0.023935558 0.011397898 0.73706973
0.02399395 0.010283142 0.73745376
0.024062639 0.0091667175 0.73790568
0.024141701 0.0080472529 0.73842567
0.024230588 0.0069230497 0.73901033
0.024327522 0.0057922602 0.73964798
0.024432784 0.0046538711 0.74034035
0.024546001 0.0035066009 0.74108505
0.024665434 0.0023491085 0.7418707
0.024793709 0.0011806786 0.74271441
0.024925614 2.9802322e-08 0.74358201
0.025067078 -0.0011936128 0.74451256
0.0252128 -0.0024012029 0.74547112
0.025366202 -0.003623724 0.74648017
0.025525864 -0.0048620403 0.7475304
0.025690084 -0.0061166883 0.74861062
0.025862746 -0.0073893666 0.74974632
0.026040245 -0.0086800754 0.75091386
0.02622515 -0.0099905431 0.75213015
0.026417056 -0.011321545 0.7533924
0.026612928 -0.012672812 0.75468075
0.026817482 -0.014047235 0.75602633
0.027028596 -0.015444905 0.757415
0.027245913 -0.016866505 0.75884444
0.027472187 -0.018314749 0.76033282
0.027703237 -0.019787997 0.76185256
0.027943706 -0.021290451 0.76343429
0.028191058 -0.022821277 0.76506138
0.028446715 -0.024382859 0.76674294
0.028711803 -0.025977343 0.76848668
0.028983222 -0.02760306 0.77027202
0.02926613 -0.029266089 0.77213287
0.029556572 -0.030963987 0.77404332
0.029857833 -0.032701403 0.776025
0.030169379 -0.03447926 0.7780742
0.030490173 -0.036297828 0.78018439
0.030824553 -0.038163722 0.78238386
0.03117164 -0.040077806 0.7846669
0.026586104 0.014501542 0.74655539
0.026291771 0.013145864 0.74470741
0.026170935 0.011895895 0.74394864
0.026122972 0.010686696 0.74364752
0.026117865 0.0094974339 0.74361539
0.026140194 0.0083173513 0.74375564
0.026180884 0.0071402788 0.7440111
0.026245156 0.0059648156 0.74441469
0.026319694 0.0047854185 0.7448827
0.026410211 0.003601402 0.74545103
0.026509944 0.0024099946 0.74607724
0.026620718 0.0012100935 0.74677277
0.026741052 5.9604645e-08 0.74752831
0.026870644 -0.0012213886 0.74834204
0.027008632 -0.0024553239 0.74920839
0.02715537 -0.0037029684 0.7501297
0.027308496 -0.0049651861 0.75109112
0.0274712 -0.0062434077 0.75211269
0.027639704 -0.0075380802 0.75317079
0.027818095 -0.0088512003 0.75429076
0.02800156 -0.010182351 0.75544274
0.028193532 -0.011533737 0.75664806
0.028393453 -0.012906104 0.75790334
0.028599732 -0.01429981 0.75919849
0.028816514 -0.015718073 0.76055962
0.029037122 -0.01715827 0.76194477
0.029268203 -0.01862523 0.76339567
0.029506318 -0.020117909 0.76489079
0.029752804 -0.021638393 0.76643842
0.030009223 -0.023188919 0.76804841
0.03027164 -0.024767727 0.769696
0.030545387 -0.026380122 0.77141488
0.030826893 -0.028024435 0.77318233
0.031118812 -0.029704303 0.77501523
0.03142114 -0.031421125 0.77691346
0.031731557 -0.033173859 0.77886248
0.032055546 -0.034969658 0.78089672
0.032389268 -0.036805958 0.78299212
0.032739509 -0.038692147 0.78519118
0.02889166 0.0087931156 0.75314438
0.028689895 0.0074843466 0.75193262
0.02860507 0.006218493 0.75142312
0.028578775 0.0049702525 0.75126517
0.028592037 0.003729403 0.75134486
0.028637404 0.0024902225 0.75161737
0.028704101 0.0012480319 0.75201792
0.028786365 -0 0.75251198
0.028888611 -0.0012560189 0.75312603
0.029001541 -0.0025218725 0.75380421
0.029127508 -0.0037992299 0.75456077
0.029265339 -0.0050896108 0.75538856
0.029414598 -0.0063944757 0.75628495
0.029573821 -0.0077148974 0.75724125
0.029742148 -0.009051919 0.75825214
0.029920122 -0.010406971 0.75932103
0.030107658 -0.011781216 0.76044732
0.030303197 -0.013175279 0.76162171
0.030510817 -0.014592111 0.76286864
0.03072406 -0.016029924 0.76414931
0.030947724 -0.017492175 0.76549262
0.031180639 -0.01897952 0.76689142
0.031422425 -0.020492852 0.76834351
0.031673707 -0.02203384 0.7698527
0.031933367 -0.023602933 0.77141213
0.032202624 -0.025202036 0.77302921
0.032482781 -0.026833564 0.77471179
0.032772567 -0.028497875 0.77645218
0.033071887 -0.030196071 0.7782498
0.033383403 -0.031931937 0.78012079
0.033703998 -0.033703983 0.7820462
0.034037758 -0.035517633 0.78405058
0.031883597 0.0039854646 0.7631346
0.031484313 0.0026237071 0.76083654
0.03133655 0.0013056993 0.7599861
0.031286411 -0 0.75969756
0.031290255 -0.0013037324 0.75971967
0.031333525 -0.0026111305 0.75996864
0.031401068 -0.0039251149 0.76035744
