# .PCD v0.7 - Point Cloud Data file format
VERSION 0.7
FIELDS x y z
SIZE 4 4 4
TYPE F F F
COUNT 1 1 1
WIDTH 1333
HEIGHT 1
VIEWPOINT 0 0 0 1 0 0 0
POINTS 1333
DATA ascii
-0.0056254882 0.051754504 0.73504049
-0.0056246156 0.050621599 0.73501635
-0.0056246156 0.049496621 0.73501635
-0.0056246156 0.048371702 0.73501635
-0.0056245942 0.047246605 0.73501575
-0.0056245942 0.046121687 0.73501569
-0.0056245942 0.044996798 0.73501569
-0.0056245942 0.04387188 0.73501575
-0.0056245727 0.042746753 0.73501515
-0.0056245727 0.041621864 0.73501515
-0.0056245727 0.040496945 0.73501515
-0.0056245518 0.039371908 0.73501456
-0.0056245518 0.038246959 0.73501456
-0.0056245518 0.037122041 0.73501456
-0.0056245304 0.035997003 0.73501396
-0.0056245304 0.034872085 0.73501396
-0.0056245304 0.033747196 0.73501396
-0.0056245304 0.032622278 0.73501396
-0.005624509 0.03149724 0.73501337
-0.005624509 0.030372381 0.73501337
-0.005624509 0.029247493 0.73501337
-0.005624488 0.028122455 0.73501277
-0.005624488 0.026997566 0.73501277
-0.005624488 0.025872648 0.73501277
-0.005624488 0.024747759 0.73501283
-0.005624488 0.023622841 0.73501283
-0.005624488 0.022497982 0.73501283
-0.005624488 0.021373063 0.73501283
-0.0056244666 0.020248115 0.73501217
-0.0056244666 0.019123197 0.73501229
-0.0056244666 0.017998338 0.73501223
-0.0056244666 0.016873419 0.73501223
-0.0056244666 0.015748501 0.73501223
-0.0056244666 0.014623672 0.73501217
-0.0056244666 0.013498753 0.73501217
-0.0056244666 0.012373865 0.73501223
-0.0056244452 0.011248887 0.73501164
-0.0056244452 0.010124028 0.73501158
-0.0056244452 0.0089991093 0.73501158
-0.0056244452 0.0078742504 0.73501164
-0.0056244452 0.006749332 0.7350117
-0.0056244452 0.0056244433 0.7350117
-0.0056244452 0.0044995844 0.73501158
-0.0056244452 0.003374666 0.73501158
-0.0056244242 0.0022498071 0.73501098
-0.0056244242 0.0011248887 0.73501098
-0.0056244242 5.9604645e-08 0.73501104
-0.0056244242 -0.0011248589 0.73501098
-0.0056244242 -0.0022497475 0.73501098
-0.0056244242 -0.0033746362 0.73501098
-0.0056244242 -0.0044995248 0.7350111
-0.0056244242 -0.0056244135 0.7350111
-0.0056244028 -0.0067492425 0.73501045
-0.0056244028 -0.0078741312 0.73501045
-0.0056244028 -0.0089990497 0.73501045
-0.0056244028 -0.010123909 0.73501045
-0.0056244028 -0.011248797 0.73501045
-0.0056244028 -0.012373656 0.73501045
-0.0056244028 -0.013498545 0.73501045
-0.0056244028 -0.014623463 0.73501045
-0.0056243818 -0.015748262 0.73500985
-0.0056243818 -0.016873121 0.73500985
-0.0056243818 -0.01799804 0.73500991
-0.0056243818 -0.019122839 0.73500985
-0.0056243818 -0.020247757 0.73500985
-0.0056243818 -0.021372646 0.73500985
-0.0056243818 -0.022497505 0.73500985
-0.0056243818 -0.023622394 0.73500985
-0.0056243604 -0.024747163 0.73500925
-0.0056243604 -0.025872022 0.73500919
-0.0056243604 -0.026996911 0.73500931
-0.0056243604 -0.028121799 0.73500931
-0.0056243604 -0.029246628 0.73500931
-0.0056243604 -0.030371547 0.73500931
-0.0056243604 -0.031496406 0.73500925
-0.0056243604 -0.032621264 0.73500931
-0.0056243385 -0.033746004 0.73500866
-0.0056243385 -0.034870893 0.73500866
-0.0056243385 -0.035995722 0.73500872
-0.0056243385 -0.03712061 0.73500872
-0.0056243385 -0.038245499 0.73500872
-0.0056243385 -0.039370388 0.73500872
-0.0056243385 -0.040495217 0.73500866
-0.0056243385 -0.041620076 0.73500872
-0.0056245304 -0.042746425 0.73501402
-0.0056346538 -0.043950289 0.73529369
-0.0056576575 -0.045261264 0.73592919
-0.0056811972 -0.046585798 0.73657948
-0.0057072104 -0.047940552 0.73729813
-0.0057343696 -0.049315572 0.73804849
-0.0057639326 -0.050722629 0.7388652
-0.0057963091 -0.05216676 0.73975962
-0.0058305138 -0.053640723 0.7407046
-0.0058475495 -0.054966956 0.74117517
-0.0058517838 -0.056177109 0.74129224
-0.0058560469 -0.057389259 0.74141002
-0.0058482853 -0.058482856 0.74119556
-0.0058477563 -0.059647083 0.74118096
-0.0047391108 0.060423702 0.74328423
-0.0046942104 0.058677644 0.74173361
-0.0046202615 0.056598246 0.73917997
-0.0045488677 0.05458644 0.73671454
-0.0045043267 0.052925855 0.73517638
-0.0044956789 0.051700324 0.73487777
-0.004495271 0.050571829 0.73486364
-0.0044952543 0.049447805 0.73486304
-0.0044952543 0.048324019 0.73486304
-0.0044952543 0.047200173 0.73486304
-0.0044952543 0.046076387 0.73486304
-0.0044952375 0.044952363 0.73486251
-0.0044952375 0.043828577 0.73486245
-0.0044952375 0.042704791 0.73486245
-0.0044952207 0.041580766 0.73486185
-0.0044952207 0.04045698 0.73486185
-0.0044952207 0.039333224 0.73486191
-0.0044952207 0.038209379 0.73486191
-0.0044952035 0.037085444 0.73486131
-0.0044952035 0.035961658 0.73486131
-0.0044952035 0.034837842 0.73486125
-0.0044951863 0.033713907 0.73486072
-0.0044951863 0.032590121 0.73486072
-0.0044951863 0.031466305 0.73486072
-0.0044951863 0.030342549 0.73486078
-0.0044951695 0.029218614 0.73486012
-0.0044951695 0.028094828 0.73486012
-0.0044951695 0.026971042 0.73486012
-0.0044951527 0.025847107 0.73485953
-0.0044951527 0.024723351 0.73485953
-0.0044951527 0.023599565 0.73485959
-0.0044951527 0.022475779 0.73485953
-0.0044951355 0.021351904 0.73485899
-0.0044951355 0.020228118 0.73485899
-0.0044951355 0.019104362 0.73485893
-0.0044951355 0.017980576 0.73485899
-0.0044951183 0.0168567 0.73485839
-0.0044951183 0.015732914 0.73485839
-0.0044951183 0.014609128 0.73485839
-0.0044951183 0.013485342 0.73485839
-0.0044951015 0.012361526 0.73485774
-0.0044951015 0.011237741 0.7348578
-0.0044951015 0.010113984 0.7348578
-0.0044951015 0.0089901984 0.73485774
-0.0044950848 0.0078663826 0.7348572
-0.0044950848 0.0067426264 0.7348572
-0.0044950848 0.0056188405 0.7348572
-0.0044950848 0.0044951141 0.7348572
-0.0044950675 0.0033712983 0.73485661
-0.0044950675 0.0022475719 0.73485661
-0.0044950675 0.001123786 0.73485661
-0.0044950675 2.9802322e-08 0.73485661
-0.0044950503 -0.0011237264 0.73485601
-0.0044950503 -0.0022475123 0.73485607
-0.0044950503 -0.0033712983 0.73485601
-0.0044950503 -0.0044950545 0.73485601
-0.0044950335 -0.005618751 0.73485541
-0.0044950335 -0.006742537 0.73485541
-0.0044950335 -0.0078662932 0.73485541
-0.0044950335 -0.0089900792 0.73485541
-0.0044950335 -0.010113806 0.73485547
-0.0044950168 -0.011237502 0.73485488
-0.0044950168 -0.012361258 0.73485488
-0.0044950168 -0.013485074 0.73485488
-0.0044950168 -0.0146088 0.73485494
-0.0044949995 -0.015732437 0.73485428
-0.0044949995 -0.016856223 0.73485422
-0.0044949995 -0.01797998 0.73485428
-0.0044949995 -0.019103736 0.73485428
-0.0044949823 -0.020227402 0.73485374
-0.0044949823 -0.021351129 0.73485363
-0.0044949823 -0.022474885 0.73485368
-0.0044949823 -0.023598611 0.73485368
-0.0044949655 -0.024722308 0.73485315
-0.0044949655 -0.025846004 0.73485309
-0.0044949655 -0.026969761 0.73485309
-0.0044949655 -0.028093517 0.73485315
-0.0044949488 -0.029217154 0.73485249
-0.0044949488 -0.03034088 0.73485255
-0.0044949488 -0.031464636 0.73485249
-0.0044949488 -0.032588333 0.73485249
-0.0044949488 -0.033712089 0.73485255
-0.004494932 -0.034835696 0.7348519
-0.004494932 -0.035959452 0.73485196
-0.004494932 -0.037083149 0.7348519
-0.004494932 -0.038206905 0.7348519
-0.0044949148 -0.039330482 0.73485136
-0.0044949148 -0.040454239 0.73485136
-0.0044949148 -0.041577965 0.73485136
-0.0044949823 -0.042702317 0.73485363
-0.0045025367 -0.043899715 0.73511457
-0.0045205364 -0.045205355 0.73573613
-0.0045390958 -0.046525717 0.73637712
-0.0045596431 -0.047876239 0.73708659
-0.0045810295 -0.049246043 0.73782521
-0.0046046134 -0.050650716 0.73863953
-0.0046300446 -0.052087992 0.73951781
-0.0046570883 -0.053556502 0.74045169
-0.0046717199 -0.054892719 0.74095702
-0.0046749874 -0.056099802 0.74106979
-0.0046784072 -0.057310492 0.74118793
-0.0046724537 -0.058405668 0.74098229
-0.0046721417 -0.059569776 0.74097157
-0.0035490454 0.060333818 0.74304068
-0.0035146249 0.05857712 0.74145585
-0.0034598482 0.056510895 0.73893368
-0.0034069351 0.054511011 0.7364974
-0.0033755735 0.052884012 0.73505342
-0.0033691747 0.051660687 0.73475868
-0.0033689709 0.050534606 0.73474932
-0.0033689584 0.049411416 0.73474878
-0.0033689584 0.048288435 0.73474878
-0.0033689584 0.047165424 0.73474872
-0.0033689456 0.046042293 0.73474818
-0.0033689456 0.044919282 0.73474818
-0.003368933 0.043796182 0.73474753
-0.003368933 0.042673171 0.73474753
-0.003368933 0.041550159 0.73474765
-0.0033689202 0.040427059 0.73474699
-0.0033689202 0.039304078 0.73474693
-0.0033689202 0.038181156 0.73474699
-0.0033689074 0.037058026 0.73474646
-0.0033689074 0.035935014 0.7347464
-0.0033689074 0.034812063 0.7347464
-0.0033688948 0.033688933 0.73474586
-0.0033688948 0.032566011 0.73474586
-0.0033688948 0.031443 0.73474586
-0.003368882 0.030319959 0.73474526
-0.003368882 0.029197007 0.73474526
-0.003368882 0.028074026 0.7347452
-0.0033688692 0.026950985 0.73474461
-0.0033688692 0.025828034 0.73474467
-0.0033688692 0.024705052 0.73474467
-0.0033688566 0.023582041 0.73474407
-0.0033688566 0.02245906 0.73474407
-0.0033688438 0.021336049 0.73474348
-0.0033688438 0.020213068 0.73474354
-0.0033688438 0.019090116 0.73474354
-0.0033688312 0.017967105 0.73474288
-0.0033688312 0.016844153 0.73474288
-0.0033688312 0.015721232 0.73474288
-0.0033688184 0.014598221 0.73474234
-0.0033688184 0.013475299 0.73474228
-0.0033688184 0.012352347 0.73474234
-0.0033688056 0.011229396 0.73474175
-0.0033688056 0.010106444 0.73474175
-0.0033688056 0.0089834929 0.73474175
-0.0033687928 0.0078605413 0.73474109
-0.0033687928 0.0067375898 0.73474115
-0.0033687928 0.0056146681 0.73474115
-0.0033687802 0.0044917464 0.73474056
-0.0033687802 0.0033688247 0.7347405
-0.0033687802 0.0022458732 0.73474056
-0.0033687677 0.0011229813 0.73473996
-0.0033687677 2.9802322e-08 0.73474002
-0.0033687549 -0.0011228919 0.73473942
-0.0033687549 -0.0022458136 0.73473936
-0.0033687549 -0.0033687353 0.73473936
-0.0033687421 -0.0044916272 0.73473883
-0.0033687421 -0.0056145787 0.73473883
-0.0033687421 -0.0067375004 0.73473883
-0.0033687293 -0.0078603625 0.73473823
-0.0033687293 -0.0089832544 0.73473823
-0.0033687293 -0.010106146 0.73473823
-0.0033687167 -0.011229038 0.73473763
-0.0033687167 -0.01235193 0.73473758
-0.0033687167 -0.013474852 0.73473763
-0.0033687039 -0.014597684 0.73473698
-0.0033687039 -0.015720606 0.73473704
-0.0033687039 -0.016843468 0.73473704
-0.0033686911 -0.01796633 0.73473644
-0.0033686911 -0.019089222 0.7347365
-0.0033686911 -0.020212144 0.73473644
-0.0033686785 -0.021334916 0.73473585
-0.0033686785 -0.022457808 0.73473585
-0.0033686785 -0.02358073 0.73473585
-0.0033686659 -0.024703532 0.73473531
-0.0033686659 -0.025826454 0.73473525
-0.0033686531 -0.026949227 0.73473471
-0.0033686531 -0.028072089 0.73473465
-0.0033686531 -0.029194981 0.73473471
-0.0033686403 -0.030317724 0.73473406
-0.0033686403 -0.031440616 0.73473406
-0.0033686403 -0.032563508 0.73473406
-0.0033686275 -0.03368625 0.73473346
-0.0033686275 -0.034809172 0.73473358
-0.0033686275 -0.035931975 0.73473352
-0.0033686147 -0.037054747 0.73473293
-0.0033686147 -0.038177609 0.73473293
-0.0033686147 -0.039300501 0.73473293
-0.0033686147 -0.040423363 0.73473299
-0.0033686147 -0.041546226 0.73473299
-0.0033686275 -0.042669296 0.73473352
-0.0033740164 -0.043862164 0.73498166
-0.0033873515 -0.045164675 0.73559564
-0.0034011425 -0.046482265 0.73623067
-0.003416511 -0.047831118 0.73693824
-0.0034324415 -0.0491983 0.73767179
-0.003449908 -0.050598621 0.73847604
-0.0034686858 -0.052030295 0.73934066
-0.0034886508 -0.053492606 0.74025989
-0.0035002709 -0.054837555 0.74079496
-0.003502772 -0.05604434 0.74091017
-0.0035051801 -0.057251245 0.74102104
-0.0035008201 -0.058346987 0.74082023
-0.0035008476 -0.059514374 0.74082154
-0.0023641963 0.060286999 0.74291408
-0.0023404739 0.058511853 0.74127567
-0.0023042334 0.056453705 0.73877269
-0.0022691931 0.054460675 0.7363525
-0.0022490888 0.052853614 0.73496401
-0.0022449549 0.051634014 0.73467845
-0.0022448534 0.050509214 0.73467147
-0.0022448534 0.049386799 0.73467147
-0.0022448448 0.048264146 0.73467088
-0.0022448448 0.047141761 0.73467094
-0.0022448448 0.046019346 0.73467088
-0.0022448448 0.044896901 0.73467088
-0.0022448364 0.043774337 0.73467028
-0.0022448364 0.042651892 0.73467028
-0.0022448364 0.041529506 0.73467028
-0.002244828 0.040406942 0.73466974
-0.002244828 0.039284497 0.73466969
-0.002244828 0.038162112 0.73466974
-0.0022448194 0.037039548 0.73466909
-0.0022448194 0.035917133 0.73466915
-0.0022448194 0.034794748 0.73466915
-0.0022448194 0.033672303 0.73466909
-0.0022448108 0.032549769 0.73466855
-0.0022448108 0.031427383 0.73466855
-0.0022448108 0.030304968 0.73466861
-0.0022448024 0.029182464 0.7346679
-0.0022448024 0.028060079 0.73466796
-0.0022448024 0.026937634 0.73466796
-0.002244794 0.025815159 0.73466742
-0.002244794 0.024692774 0.73466736
-0.002244794 0.023570359 0.73466736
-0.002244794 0.022447973 0.73466736
-0.0022447857 0.021325469 0.73466682
-0.0022447857 0.020203114 0.73466676
-0.0022447857 0.019080728 0.73466682
-0.002244777 0.017958224 0.73466617
-0.002244777 0.016835868 0.73466623
-0.002244777 0.015713483 0.73466623
-0.0022447684 0.014591008 0.73466563
-0.0022447684 0.013468623 0.73466563
-0.0022447684 0.012346268 0.73466563
-0.00224476 0.011223793 0.73466504
-0.00224476 0.010101438 0.73466504
-0.00224476 0.0089790821 0.7346651
-0.00224476 0.0078566968 0.73466504
-0.0022447517 0.006734252 0.73466444
-0.0022447517 0.0056118965 0.73466444
-0.0022447517 0.0044895113 0.7346645
-0.0022447431 0.003367126 0.73466384
-0.0022447431 0.0022447705 0.73466384
-0.0022447431 0.0011223853 0.73466384
-0.0022447347 -0 0.73466331
-0.0022447347 -0.0011223257 0.73466331
-0.0022447347 -0.0022447109 0.73466331
-0.0022447347 -0.0033670664 0.73466331
-0.0022447263 -0.0044894516 0.73466271
-0.0022447263 -0.0056118071 0.73466271
-0.0022447263 -0.0067341626 0.73466271
-0.0022447179 -0.007856518 0.73466212
-0.0022447179 -0.0089788437 0.73466212
-0.0022447179 -0.010101229 0.73466212
-0.0022447093 -0.011223555 0.73466158
-0.0022447093 -0.01234588 0.73466158
-0.0022447093 -0.013468236 0.73466146
-0.0022447093 -0.014590561 0.73466158
-0.0022447007 -0.015712887 0.73466092
-0.0022447007 -0.016835243 0.73466092
-0.0022447007 -0.017957598 0.73466092
-0.0022446923 -0.019079864 0.73466033
-0.0022446923 -0.020202249 0.73466039
-0.0022446923 -0.021324545 0.73466033
-0.0022446839 -0.022446811 0.73465973
-0.0022446839 -0.023569167 0.73465979
-0.0022446839 -0.024691522 0.73465973
-0.0022446839 -0.025813878 0.73465979
-0.0022446839 -0.026936203 0.73465973
-0.0022446839 -0.028058499 0.73465979
-0.0022446839 -0.029180884 0.73465979
-0.0022446755 -0.030303121 0.73465919
-0.0022446755 -0.031425416 0.73465919
-0.0022446755 -0.032547772 0.73465919
-0.0022446755 -0.033670098 0.73465919
-0.0022446755 -0.034792453 0.73465919
-0.0022446755 -0.035914779 0.73465914
-0.0022446669 -0.037036955 0.7346586
-0.0022446669 -0.038159341 0.73465866
-0.0022446669 -0.039281636 0.7346586
-0.0022446669 -0.040403962 0.7346586
-0.0022446669 -0.041526347 0.7346586
-0.0022446669 -0.042648643 0.7346586
-0.0022481964 -0.043839812 0.73490238
-0.0022569404 -0.045138776 0.7355063
-0.0022661067 -0.046455175 0.7361393
-0.0022762881 -0.047802031 0.73684257
-0.0022868074 -0.049166322 0.73756909
-0.0022983656 -0.050564021 0.73836744
-0.0023107145 -0.051991075 0.73922026
-0.0023239134 -0.053449988 0.74013186
-0.0023319402 -0.0548006 0.7406863
-0.0023337428 -0.056009799 0.74081075
-0.002335429 -0.057217985 0.74092722
-0.0023325805 -0.058314532 0.74073052
-0.0023322785 -0.059473097 0.74070966
-0.0011814784 0.060255438 0.74282843
-0.0011695881 0.058479428 0.74118602
-0.0011515233 0.056424648 0.73869061
-0.0011340557 0.054434687 0.73627782
-0.0011241492 0.052835047 0.73490936
-0.0011221725 0.051619977 0.73463643
-0.0011221344 0.050496101 0.73463112
-0.0011221344 0.049373925 0.73463106
-0.0011221344 0.048251808 0.73463112
-0.0011221302 0.047129482 0.73463053
-0.0011221302 0.046007395 0.73463053
-0.0011221302 0.044885218 0.73463053
-0.0011221302 0.043763131 0.73463047
-0.001122126 0.042640835 0.73462993
-0.001122126 0.041518658 0.73462993
-0.001122126 0.040396571 0.73462999
-0.001122126 0.039274424 0.73462993
-0.0011221218 0.038152158 0.73462933
-0.0011221218 0.037030011 0.73462933
-0.0011221218 0.035907924 0.73462939
-0.0011221218 0.034785807 0.73462939
-0.0011221175 0.033663571 0.7346288
-0.0011221175 0.032541394 0.7346288
-0.0011221175 0.031419307 0.7346288
-0.0011221175 0.03029719 0.7346288
-0.0011221175 0.029175073 0.7346288
-0.0011221132 0.028052837 0.7346282
-0.0011221132 0.02693072 0.7346282
-0.0011221132 0.025808632 0.7346282
-0.0011221132 0.024686515 0.7346282
-0.001122109 0.023564309 0.7346276
-0.001122109 0.022442192 0.73462754
-0.001122109 0.021320105 0.7346276
-0.001122109 0.020197958 0.7346276
-0.0011221048 0.019075781 0.73462701
-0.0011221048 0.017953694 0.73462701
-0.0011221048 0.016831607 0.73462701
-0.0011221048 0.01570946 0.73462707
-0.0011221005 0.014587343 0.73462647
-0.0011221005 0.013465226 0.73462641
-0.0011221005 0.012343138 0.73462641
-0.0011221005 0.011221021 0.73462641
-0.0011221005 0.010098904 0.73462641
-0.0011221005 0.0089768171 0.73462647
-0.0011221005 0.0078547299 0.73462647
-0.0011220963 0.0067326128 0.73462588
-0.0011220963 0.0056104958 0.73462588
-0.0011220963 0.0044884086 0.73462588
-0.0011220963 0.0033662915 0.73462588
-0.0011220963 0.0022442043 0.73462582
-0.0011220963 0.001122117 0.73462582
-0.0011220963 2.9802322e-08 0.73462582
-0.0011220921 -0.0011220872 0.73462522
-0.0011220921 -0.0022441745 0.73462522
-0.0011220921 -0.0033662617 0.73462522
-0.0011220921 -0.0044883788 0.73462534
-0.0011220921 -0.005610466 0.73462522
-0.0011220921 -0.0067325532 0.73462522
-0.0011220879 -0.0078545809 0.73462468
-0.0011220879 -0.0089766979 0.73462468
-0.0011220879 -0.010098755 0.73462468
-0.0011220879 -0.011220872 0.73462468
-0.0011220879 -0.01234293 0.73462468
-0.0011220879 -0.013464987 0.73462468
-0.0011220835 -0.014587075 0.73462415
-0.0011220835 -0.015709162 0.73462409
-0.0011220835 -0.016831219 0.73462415
-0.0011220835 -0.017953306 0.73462415
-0.0011220835 -0.019075423 0.73462415
-0.0011220835 -0.020197481 0.73462403
-0.0011220835 -0.021319598 0.73462409
-0.0011220793 -0.022441566 0.73462355
-0.0011220793 -0.023563623 0.73462343
-0.0011220793 -0.02468574 0.73462355
-0.0011220793 -0.025807798 0.73462355
-0.0011220793 -0.026929885 0.73462355
-0.0011220793 -0.028051972 0.73462355
-0.0011220751 -0.02917394 0.7346229
-0.0011220751 -0.030296028 0.73462296
-0.0011220751 -0.031418085 0.73462296
-0.0011220751 -0.032540202 0.73462296
-0.0011220751 -0.03366223 0.73462296
-0.0011220751 -0.034784317 0.73462296
-0.0011220751 -0.035906404 0.7346229
-0.0011220709 -0.037028313 0.73462236
-0.0011220709 -0.03815037 0.73462236
-0.0011220709 -0.039272457 0.73462236
-0.0011220709 -0.040394545 0.73462236
-0.0011220709 -0.041516602 0.7346223
-0.0011220709 -0.042638689 0.73462236
-0.0011237372 -0.043825716 0.73485249
-0.0011281449 -0.045125753 0.73546135
-0.0011326908 -0.046440274 0.73608929
-0.0011377739 -0.047786474 0.73679149
-0.0011430125 -0.049149543 0.73751509
-0.0011487745 -0.05054605 0.73831105
-0.0011549086 -0.051970869 0.73915827
-0.0011614802 -0.053428084 0.74006605
-0.0011656092 -0.054783612 0.74063635
-0.0011664091 -0.055987597 0.74074692
-0.0011671369 -0.057189703 0.74084747
-0.0011657508 -0.058287531 0.74065596
-0.0011658284 -0.059457213 0.74066669
0 0.060261399 0.7428447
0 0.05847916 0.74118543
0 0.05642423 0.73868948
0 0.054433048 0.73627311
0 0.052838653 0.73492002
0 0.051618397 0.73463172
0 0.05049473 0.73462701
0 0.049372643 0.73462701
0 0.048250526 0.73462701
0 0.047128409 0.73462701
0 0.046006143 0.73462647
0 0.044884026 0.73462647
0 0.043761939 0.73462647
0 0.042639852 0.73462641
0 0.041517735 0.73462647
0 0.040395647 0.73462641
0 0.039273381 0.73462582
0 0.038151294 0.73462582
0 0.037029177 0.73462588
0 0.03590709 0.73462588
0 0.034785002 0.73462582
0 0.033662766 0.73462522
0 0.032540709 0.73462522
0 0.031418562 0.73462528
0 0.030296504 0.73462528
0 0.029174417 0.73462528
0 0.028052211 0.73462474
0 0.026930124 0.73462474
0 0.025808036 0.73462462
0 0.024685949 0.73462462
0 0.023563862 0.73462468
0 0.022441775 0.73462474
0 0.021319598 0.73462409
0 0.020197511 0.73462409
0 0.019075483 0.73462409
0 0.017953366 0.73462409
0 0.016831279 0.73462409
0 0.015709102 0.73462355
0 0.014587075 0.73462349
0 0.013464957 0.73462349
0 0.0123429 0.73462349
0 0.011220753 0.7346229
0 0.010098726 0.7346229
0 0.0089766085 0.7346229
0 0.0078545511 0.73462296
0 0.0067324936 0.73462296
0 0.0056104064 0.73462296
0 0.0044883192 0.73462296
0 0.0033662617 0.73462296
0 0.0022441447 0.73462296
0 0.001122117 0.7346229
0 -0 0.73462296
0 -0.0011220872 0.73462296
0 -0.0022441447 0.73462296
0 -0.0033661723 0.7346229
0 -0.0044883192 0.73462296
0 -0.005610317 0.73462236
0 -0.006732434 0.73462236
0 -0.0078544617 0.73462236
0 -0.0089765191 0.73462236
0 -0.010098636 0.7346223
0 -0.011220694 0.7346223
0 -0.012342721 0.73462236
0 -0.013464838 0.7346223
0 -0.014586896 0.73462236
0 -0.015708953 0.73462236
0 -0.01683104 0.73462236
0 -0.017953098 0.73462236
0 -0.019075185 0.73462236
0 -0.020197302 0.73462236
0 -0.02131933 0.7346223
0 -0.022441387 0.7346223
0 -0.023563474 0.73462236
0 -0.024685562 0.73462236
0 -0.025807589 0.73462236
0 -0.026929647 0.73462236
0 -0.028051764 0.73462236
0 -0.029173791 0.73462236
0 -0.030295879 0.73462236
0 -0.031417996 0.73462236
0 -0.032540023 0.7346223
0 -0.033662081 0.7346223
0 -0.034784168 0.73462236
0 -0.035906285 0.73462236
0 -0.037028193 0.73462176
0 -0.038150251 0.73462176
0 -0.039272338 0.73462176
0 -0.040394396 0.73462176
0 -0.041516453 0.73462176
0 -0.04263854 0.73462176
0 -0.043827385 0.73485827
0 -0.045124769 0.73545784
0 -0.046438187 0.7360822
0 -0.047784477 0.73678482
0 -0.049147666 0.73750901
0 -0.0505445 0.73830611
0 -0.05196923 0.73915339
0 -0.053426623 0.7400617
0 -0.054779738 0.74062502
0 -0.055989802 0.74075323
0 -0.057198673 0.74087274
0 -0.058299631 0.7406894
0 -0.059459805 0.74067366
0.0011819901 0.060281515 0.74289918
0.0011702323 0.058511645 0.74127501
0.0011520765 0.056451738 0.73876709
0.0011344797 0.054455072 0.73633635
0.0011243277 0.052843451 0.73493409
0.0011223758 0.051629305 0.73466444
0.0011223335 0.050505012 0.7346586
0.0011223378 0.049382895 0.73465919
0.0011223378 0.04826051 0.73465925
0.0011223378 0.047138214 0.73465919
0.0011223378 0.046015859 0.73465919
0.0011223378 0.044893533 0.73465919
0.0011223335 0.043771029 0.7346586
0.0011223335 0.042648703 0.7346586
0.0011223335 0.041526347 0.7346586
0.0011223335 0.040403992 0.7346586
0.0011223335 0.039281726 0.7346586
0.0011223335 0.03815937 0.73465866
0.0011223335 0.037037045 0.7346586
0.0011223335 0.035914719 0.7346586
0.0011223335 0.034792334 0.7346586
0.0011223335 0.033670038 0.7346586
0.0011223335 0.032547683 0.7346586
0.0011223335 0.031425357 0.7346586
0.0011223335 0.030303001 0.7346586
0.0011223335 0.029180706 0.7346586
0.0011223335 0.02805835 0.7346586
0.0011223335 0.026936024 0.7346586
0.0011223335 0.025813699 0.7346586
0.0011223335 0.024691343 0.7346586
0.0011223335 0.023569018 0.7346586
0.0011223335 0.022446692 0.7346586
0.0011223335 0.021324337 0.73465866
0.0011223335 0.020202011 0.7346586
0.0011223335 0.019079715 0.7346586
0.0011223378 0.017957419 0.73465919
0.0011223378 0.016835093 0.73465919
0.0011223378 0.015712738 0.73465919
0.0011223378 0.014590412 0.73465919
0.0011223378 0.013468057 0.73465919
0.0011223378 0.012345731 0.73465919
0.0011223378 0.011223406 0.73465919
0.0011223378 0.01010105 0.73465919
0.0011223378 0.0089787245 0.73465919
0.0011223378 0.007856369 0.73465919
0.0011223378 0.0067340434 0.73465919
0.0011223378 0.0056117177 0.73465919
0.0011223378 0.0044893622 0.73465925
0.0011223378 0.0033670068 0.73465919
0.0011223378 0.0022447109 0.73465919
0.0011223378 0.0011223555 0.73465919
0.0011223378 2.9802322e-08 0.73465919
0.0011223378 -0.0011222959 0.73465914
0.0011223378 -0.0022446811 0.73465919
0.0011223378 -0.003366977 0.73465919
0.0011223378 -0.0044893324 0.73465919
0.0011223378 -0.0056116581 0.73465919
0.0011223378 -0.0067339838 0.73465919
0.0011223378 -0.007856369 0.73465925
0.0011223378 -0.0089786649 0.73465919
0.0011223378 -0.01010102 0.73465919
0.0011223378 -0.011223346 0.73465919
0.0011223378 -0.012345701 0.73465919
0.0011223378 -0.013468027 0.73465914
0.0011223378 -0.014590383 0.73465919
0.0011223378 -0.015712708 0.73465919
0.0011223378 -0.016835004 0.73465919
0.0011223378 -0.017957389 0.73465919
0.0011223378 -0.019079715 0.73465919
0.0011223378 -0.02020207 0.73465925
0.0011223378 -0.021324396 0.73465919
0.0011223378 -0.022446722 0.73465919
0.0011223378 -0.023569077 0.73465919
0.0011223378 -0.024691433 0.73465919
0.0011223378 -0.025813729 0.73465919
0.0011223378 -0.026936084 0.73465919
0.0011223378 -0.02805841 0.73465919
0.0011223378 -0.029180735 0.73465919
0.0011223378 -0.030303121 0.73465919
0.0011223378 -0.031425416 0.73465919
0.0011223378 -0.032547772 0.73465919
0.0011223378 -0.033670098 0.73465919
0.0011223378 -0.034792453 0.73465919
0.0011223378 -0.035914779 0.73465914
0.0011223378 -0.037037104 0.73465919
0.0011223378 -0.03815946 0.73465919
0.0011223378 -0.039281785 0.73465925
0.0011223378 -0.040404141 0.73465919
0.0011223378 -0.041526496 0.73465925
0.0011223378 -0.042648822 0.73465919
0.0011240897 -0.043839455 0.73490119
0.0011284702 -0.045138776 0.7355063
0.0011330101 -0.046453416 0.7361334
0.0011380961 -0.047800034 0.73683596
0.0011433465 -0.049163878 0.73756123
0.0011491206 -0.050561279 0.7383588
0.0011552898 -0.051988006 0.73921096
0.001161875 -0.053446263 0.74012059
0.001165961 -0.054800153 0.74068505
0.0011667707 -0.056005001 0.7407968
0.0011675493 -0.057209909 0.74090445
0.0011662079 -0.05831036 0.74071914
0.0011662216 -0.05947727 0.74072099
0.002366388 0.060342908 0.74306548
0.0023431848 0.058579624 0.74146283
0.0023064849 0.056508929 0.73892814
0.0022709344 0.054502457 0.73647285
0.0022502802 0.052881598 0.73504627
0.0022459044 0.051655799 0.73474407
0.0022457771 0.050529987 0.73473525
0.0022457771 0.049407095 0.73473531
0.0022457771 0.048284203 0.73473531
0.0022457771 0.047161341 0.73473531
0.0022457687 0.0460383 0.73473465
0.0022457687 0.044915378 0.73473465
0.0022457687 0.043792486 0.73473471
0.0022457687 0.042669624 0.73473471
0.0022457687 0.041546762 0.73473471
0.0022457687 0.04042387 0.73473465
0.0022457687 0.039300978 0.73473465
0.0022457687 0.038178086 0.73473471
0.0022457687 0.037055194 0.73473471
0.0022457687 0.035932302 0.73473471
0.0022457687 0.03480944 0.73473471
0.0022457687 0.033686548 0.73473465
0.0022457687 0.032563657 0.73473471
0.0022457687 0.031440765 0.73473471
0.0022457687 0.030317873 0.73473471
0.0022457687 0.02919504 0.73473471
0.0022457687 0.028072119 0.73473471
0.0022457687 0.026949257 0.73473465
0.0022457687 0.025826395 0.73473465
0.0022457687 0.024703473 0.73473471
0.0022457687 0.023580581 0.73473471
0.0022457687 0.022457719 0.73473471
0.0022457687 0.021334827 0.73473465
0.0022457687 0.020211965 0.73473465
0.0022457687 0.019089013 0.73473471
0.0022457687 0.017966181 0.73473471
0.0022457603 0.01684323 0.73473412
0.0022457603 0.015720338 0.73473412
0.0022457603 0.014597476 0.73473412
0.0022457603 0.013474554 0.73473412
0.0022457603 0.012351692 0.73473412
0.0022457603 0.01122883 0.73473412
0.0022457603 0.010105938 0.73473412
0.0022457603 0.0089830756 0.73473412
0.0022457603 0.0078601837 0.73473406
0.0022457603 0.0067372918 0.73473418
0.0022457603 0.0056144297 0.73473412
0.0022457603 0.004491508 0.73473412
0.0022457603 0.0033686459 0.73473412
0.0022457603 0.0022458136 0.73473418
0.0022457603 0.0011229217 0.73473406
0.0022457687 2.9802322e-08 0.73473471
0.0022457687 -0.0011228919 0.73473471
0.0022457687 -0.002245754 0.73473471
0.0022457771 -0.0033686757 0.73473531
0.0022457771 -0.0044915676 0.73473531
0.0022457771 -0.0056143999 0.73473531
0.0022457771 -0.0067372918 0.73473531
0.0022457771 -0.0078602135 0.73473525
0.0022457771 -0.0089830756 0.73473531
0.0022457771 -0.010105968 0.73473531
0.0022457857 -0.011228919 0.73473591
0.0022457857 -0.012351811 0.73473585
0.0022457857 -0.013474643 0.73473585
0.0022457857 -0.014597595 0.73473591
0.0022457857 -0.015720487 0.73473591
0.0022457857 -0.016843379 0.73473591
0.0022457857 -0.01796627 0.73473585
0.0022457857 -0.019089162 0.73473585
0.0022457943 -0.020212144 0.73473644
0.0022457943 -0.021335006 0.73473644
0.0022457943 -0.022457957 0.73473644
0.0022457943 -0.023580819 0.73473644
0.0022457943 -0.024703711 0.73473644
0.0022457943 -0.025826603 0.73473644
0.0022457943 -0.026949495 0.73473644
0.0022458027 -0.028072476 0.73473704
0.0022458027 -0.029195428 0.7347371
0.0022458027 -0.03031832 0.73473704
0.0022458027 -0.031441242 0.73473704
0.0022458027 -0.032564104 0.73473704
0.0022458027 -0.033686996 0.73473704
0.0022458027 -0.034809947 0.73473704
0.0022458027 -0.035932839 0.73473704
0.002245811 -0.03705585 0.73473763
0.002245811 -0.038178772 0.73473763
0.002245811 -0.039301693 0.73473763
0.002245811 -0.040424585 0.73473763
0.002245811 -0.041547477 0.73473763
0.002245828 -0.042670727 0.73473883
0.0022493952 -0.043863177 0.73498517
0.0022583115 -0.045166224 0.73560101
0.0022674887 -0.046483517 0.73623478
0.0022777088 -0.047831863 0.73694074
0.002288312 -0.049198657 0.73767298
0.0022999297 -0.050598443 0.73847538
0.0023123403 -0.052027643 0.73933256
0.0023255125 -0.053486794 0.74024236
0.0023332576 -0.054831535 0.74077725
0.0023351263 -0.056043029 0.74090636
0.0023368876 -0.057253748 0.74102801
0.0023340175 -0.058350444 0.74082971
0.0023339349 -0.059515297 0.74082398
0.0035539086 0.06041649 0.74326468
0.0035210191 0.058683664 0.7417503
0.0034650215 0.056595385 0.73917192
0.003411025 0.054576427 0.73668569
0.0033778741 0.052920043 0.73515928
0.0033714662 0.051695853 0.73486423
0.0033711859 0.050567806 0.73485136
0.0033711859 0.049444079 0.73485136
0.0033711859 0.048320353 0.73485136
0.0033711859 0.047196627 0.73485136
0.0033711859 0.0460729 0.7348513
0.0033711859 0.044949174 0.73485136
0.0033711859 0.043825448 0.73485136
0.0033711859 0.042701721 0.73485136
0.0033711859 0.041577965 0.7348513
0.0033711859 0.040454298 0.7348513
0.0033711859 0.039330542 0.73485136
0.0033711859 0.038206786 0.7348513
0.0033711859 0.03708303 0.73485136
0.0033711859 0.035959333 0.73485136
0.0033711859 0.034835577 0.7348513
0.0033711859 0.03371188 0.7348513
0.0033711859 0.032588154 0.73485136
0.0033711859 0.031464398 0.73485136
0.0033711859 0.030340701 0.7348513
0.0033711859 0.029216975 0.73485136
0.0033711859 0.028093249 0.73485136
0.0033711733 0.026969373 0.73485076
0.0033711733 0.025845706 0.73485076
0.0033711733 0.02472195 0.73485076
0.0033711733 0.023598224 0.73485076
0.0033711733 0.022474527 0.73485076
0.0033711733 0.021350771 0.73485076
0.0033711733 0.020227075 0.73485076
0.0033711733 0.019103348 0.73485076
0.0033711733 0.017979592 0.73485076
0.0033711733 0.016855896 0.73485076
0.0033711733 0.015732199 0.73485076
0.0033711733 0.014608443 0.7348507
0.0033711733 0.013484687 0.73485076
0.0033711733 0.01236099 0.73485076
0.0033711733 0.011237264 0.7348507
0.0033711733 0.010113537 0.7348507
0.0033711733 0.0089898109 0.73485076
0.0033711733 0.0078660846 0.73485076
0.0033711733 0.0067423582 0.73485076
0.0033711733 0.0056186318 0.73485076
0.0033711607 0.0044949055 0.73485017
0.0033711733 0.0033712089 0.7348507
0.0033711733 0.0022474527 0.73485076
0.0033711733 0.0011237562 0.73485076
0.0033711733 -0 0.73485076
0.0033711733 -0.0011236966 0.7348507
0.0033711733 -0.0022474229 0.73485076
0.0033711859 -0.0033711791 0.7348513
0.0033711859 -0.0044948757 0.73485136
0.0033711859 -0.0056186318 0.73485136
0.0033711859 -0.0067423582 0.73485136
0.0033711859 -0.0078660846 0.73485136
0.0033711987 -0.0089898407 0.73485196
0.0033711987 -0.010113567 0.7348519
0.0033711987 -0.011237323 0.7348519
0.0033711987 -0.01236102 0.73485196
0.0033711987 -0.013484776 0.73485196
0.0033712115 -0.014608562 0.73485249
0.0033712115 -0.015732318 0.73485255
0.0033712115 -0.016856045 0.73485255
0.0033712115 -0.017979771 0.73485249
0.0033712115 -0.019103497 0.73485255
0.0033712115 -0.020227224 0.73485243
0.0033712243 -0.021351099 0.73485315
0.0033712243 -0.022474825 0.73485303
0.0033712243 -0.023598552 0.73485309
0.0033712243 -0.024722308 0.73485315
0.0033712243 -0.025846004 0.73485309
0.0033712371 -0.02696988 0.73485368
0.0033712371 -0.028093636 0.73485363
0.0033712371 -0.029217362 0.73485368
0.0033712371 -0.030341119 0.73485374
0.0033712371 -0.031464845 0.73485368
0.0033712499 -0.03258875 0.73485428
0.0033712499 -0.033712506 0.73485428
0.0033712499 -0.034836233 0.73485434
0.0033712499 -0.035959989 0.73485428
0.0033712499 -0.037083715 0.73485428
0.0033712499 -0.038207471 0.73485428
0.0033712625 -0.039331377 0.73485482
0.0033712625 -0.040455133 0.73485482
0.0033712625 -0.041578919 0.73485488
0.0033713391 -0.042703599 0.73485833
0.0033770045 -0.043901056 0.73511928
0.0033904538 -0.04520604 0.73573852
0.003404387 -0.046526581 0.73638004
0.0034198766 -0.047878236 0.73709333
0.0034359973 -0.049249291 0.73783553
0.0034535937 -0.050652713 0.73864579
0.0034723983 -0.052085966 0.73951155
0.0034923104 -0.053548723 0.74042839
0.003503432 -0.054887086 0.74094051
0.0035060341 -0.056096554 0.74106038
0.0035086954 -0.057308674 0.74118286
0.0035042439 -0.058404058 0.74097788
0.0035039138 -0.059566498 0.74096262
0.0047479821 0.060536802 0.74359059
0.0047059655 0.058824599 0.74213958
0.0046297563 0.056714505 0.73950791
0.0045565343 0.05467841 0.73697925
0.0045098593 0.052990884 0.73536742
0.0044999477 0.051749408 0.73502517
0.0044993861 0.050618112 0.73500574
0.0044993861 0.049493253 0.73500574
0.0044993861 0.048368424 0.73500574
0.0044994028 0.047243744 0.73500627
0.0044994028 0.046118885 0.73500633
0.0044994028 0.044994086 0.73500633
0.0044994028 0.043869197 0.73500633
0.0044994028 0.042744339 0.73500627
0.0044994028 0.041619509 0.73500639
0.0044994028 0.040494651 0.73500633
0.0044994028 0.039369792 0.73500633
0.0044994201 0.038245112 0.73500687
0.0044994201 0.037120223 0.73500687
0.0044994201 0.035995334 0.73500693
0.0044994201 0.034870535 0.73500693
0.0044994201 0.033745646 0.73500693
0.0044994201 0.032620847 0.73500687
0.0044994201 0.031495959 0.73500693
0.0044994201 0.0303711 0.73500699
0.0044994201 0.029246241 0.73500693
0.0044994373 0.028121501 0.73500752
0.0044994373 0.026996583 0.73500752
0.0044994373 0.025871783 0.73500752
0.0044994373 0.024746925 0.73500752
0.0044994373 0.023622096 0.73500752
0.0044994373 0.022497207 0.73500752
0.0044994373 0.021372318 0.73500752
0.0044994373 0.020247489 0.73500752
0.0044994373 0.019122601 0.73500752
0.0044994541 0.017997831 0.73500812
0.0044994541 0.016872972 0.73500812
0.0044994541 0.015748084 0.73500812
0.0044994541 0.014623255 0.73500806
0.0044994541 0.013498366 0.73500812
0.0044994541 0.012373537 0.73500806
0.0044994541 0.011248678 0.73500812
0.0044994541 0.010123789 0.73500812
0.0044994713 0.0089989305 0.73500872
0.0044994713 0.0078741014 0.73500872
0.0044994713 0.0067492425 0.73500872
0.0044994713 0.0056243539 0.73500866
0.0044994713 0.004499495 0.73500866
0.0044994713 0.0033746064 0.73500866
0.0044994713 0.0022497475 0.73500866
0.0044994713 0.0011248887 0.73500872
0.0044994713 -0 0.73500872
0.004499488 -0.0011248589 0.73500931
0.004499488 -0.0022496879 0.73500919
0.004499488 -0.0033746064 0.73500919
0.004499488 -0.0044994652 0.73500931
0.004499488 -0.0056243539 0.73500931
0.004499488 -0.0067491829 0.73500925
0.004499488 -0.0078740716 0.73500925
0.004499488 -0.0089989603 0.73500925
0.004499488 -0.010123819 0.73500925
0.0044995048 -0.011248738 0.73500979
0.0044995048 -0.012373656 0.73500991
0.0044995048 -0.013498485 0.73500985
0.0044995048 -0.014623344 0.73500985
0.0044995048 -0.015748262 0.73500985
0.0044995225 -0.016873211 0.73501045
0.0044995225 -0.01799804 0.73501039
0.0044995225 -0.019122958 0.73501039
0.0044995225 -0.020247817 0.73501045
0.0044995225 -0.021372706 0.73501045
0.0044995225 -0.022497594 0.7350105
0.0044995225 -0.023622483 0.73501045
0.0044995225 -0.024747342 0.73501039
0.0044995225 -0.025872231 0.7350105
0.0044995225 -0.026997119 0.73501045
0.0044995225 -0.028122008 0.7350105
0.0044995225 -0.029246867 0.73501039
0.0044995225 -0.030371755 0.73501039
0.0044995393 -0.031496763 0.73501104
0.0044995393 -0.032621652 0.73501098
0.0044995393 -0.033746541 0.73501098
0.0044995393 -0.034871399 0.73501104
0.0044995393 -0.035996288 0.73501104
0.0044995393 -0.037121177 0.73501098
0.0044995393 -0.038246065 0.73501098
0.0044995393 -0.039370924 0.73501098
0.0044995393 -0.040495843 0.73501104
0.0044995393 -0.041620731 0.73501104
0.0044996752 -0.042746872 0.73501569
0.0045077745 -0.043950766 0.73529541
0.0045259884 -0.045259893 0.73592442
0.0045446795 -0.046582967 0.73656988
0.0045656282 -0.047939062 0.7372933
0.0045875488 -0.049316138 0.73805034
0.0046113604 -0.050724924 0.73887259
0.0046369387 -0.052165538 0.73975587
0.0046637706 -0.053633332 0.74068248
0.0046775062 -0.054960668 0.74115682
0.0046808929 -0.056170702 0.74127376
0.0046844874 -0.057384968 0.74139792
0.0046781502 -0.058476865 0.74117899
0.0046782787 -0.059648037 0.74118352
0.0059479638 0.060669273 0.74394923
0.0059005469 0.059005469 0.74263936
0.0058029364 0.056868792 0.73994273
0.0057092924 0.054809183 0.73735565
0.0056462074 0.05307436 0.73561281
0.0056322422 0.051816642 0.73522699
0.0056313039 0.05068174 0.73520112
0.0056313039 0.04955551 0.73520112
0.0056313039 0.048429251 0.73520106
0.0056313039 0.047303021 0.73520106
0.0056313039 0.046176732 0.73520112
0.0056313039 0.045050472 0.73520106
0.0056313039 0.043924212 0.73520106
0.0056313248 0.042798102 0.73520172
0.0056313248 0.041671842 0.73520166
0.0056313248 0.040545553 0.73520166
0.0056313248 0.039419293 0.73520166
0.0056313248 0.038293034 0.73520166
0.0056313248 0.037166774 0.73520172
0.0056313248 0.036040515 0.73520166
0.0056313248 0.034914255 0.73520166
0.0056313248 0.033787966 0.73520172
0.0056313248 0.032661706 0.73520166
0.0056313248 0.031535447 0.73520166
0.0056313248 0.030409187 0.73520166
0.0056313248 0.029282957 0.73520166
0.0056313248 0.028156638 0.73520172
0.0056313463 0.027030498 0.73520231
0.0056313463 0.025904208 0.73520231
0.0056313463 0.024777919 0.73520225
0.0056313463 0.023651659 0.73520231
0.0056313463 0.02252543 0.73520231
0.0056313463 0.02139914 0.73520231
0.0056313463 0.020272851 0.73520231
0.0056313463 0.019146591 0.73520225
0.0056313463 0.018020332 0.73520231
0.0056313463 0.016894072 0.73520231
0.0056313463 0.015767783 0.73520225
0.0056313463 0.014641523 0.73520231
0.0056313463 0.013515264 0.73520225
0.0056313677 0.012389004 0.73520285
0.0056313677 0.011262715 0.73520291
0.0056313677 0.010136485 0.73520291
0.0056313677 0.0090101957 0.73520291
0.0056313677 0.0078839064 0.73520291
0.0056313677 0.0067576468 0.73520291
0.0056313677 0.0056313574 0.73520285
0.0056313677 0.0045051277 0.73520291
0.0056313677 0.0033788681 0.73520291
0.0056313677 0.0022525489 0.73520285
0.0056313677 0.0011262894 0.73520291
0.0056313677 2.9802322e-08 0.73520285
0.0056313677 -0.0011262596 0.73520279
0.0056313891 -0.0022525489 0.73520344
0.0056313891 -0.0033788085 0.7352035
0.0056313891 -0.0045050681 0.73520344
0.0056313891 -0.0056313872 0.73520344
0.0056313891 -0.0067576468 0.73520344
0.0056313891 -0.0078839064 0.73520344
0.0056313891 -0.0090102255 0.7352035
0.0056313891 -0.010136515 0.7352035
0.0056313891 -0.011262745 0.7352035
0.0056313891 -0.012389034 0.7352035
0.0056313891 -0.013515323 0.73520344
0.0056313891 -0.014641613 0.73520344
0.0056313891 -0.015767872 0.7352035
0.0056314101 -0.016894192 0.73520404
0.0056314101 -0.018020481 0.73520404
0.0056314101 -0.01914677 0.73520404
0.0056314101 -0.02027306 0.7352041
0.0056314101 -0.021399349 0.73520404
0.0056314101 -0.022525638 0.73520398
0.0056314101 -0.023651898 0.73520404
0.0056314101 -0.024778157 0.73520404
0.0056314101 -0.025904447 0.73520404
0.0056314101 -0.027030766 0.73520404
0.0056314101 -0.028157055 0.73520404
0.0056314101 -0.029283315 0.73520404
0.0056314101 -0.030409575 0.7352041
0.0056314315 -0.031536013 0.7352047
0.0056314101 -0.032662213 0.73520404
0.0056314101 -0.033788443 0.7352041
0.0056314315 -0.034914851 0.73520464
0.0056314315 -0.036041141 0.73520458
0.0056314315 -0.03716746 0.73520464
0.0056314315 -0.038293719 0.7352047
0.0056314529 -0.039420158 0.73520529
0.0056314529 -0.040546447 0.73520523
0.0056314529 -0.041672766 0.73520517
0.0056317942 -0.042801619 0.73521465
0.0056429291 -0.044014841 0.73552227
0.0056662164 -0.04532972 0.73616564
0.0056901323 -0.046659052 0.7368263
0.0057164035 -0.04801777 0.73755217
0.0057442496 -0.049400538 0.73832142
0.005774565 -0.050816178 0.73915893
0.0058073332 -0.052265972 0.74006414
0.0058410945 -0.053738058 0.7409969
0.005856785 -0.055053741 0.74143034
0.0058612637 -0.056268126 0.74155414
0.0058658188 -0.057484984 0.74167991
0.005857408 -0.058574051 0.74144757
0.0058572236 -0.059743643 0.74144244
0.0071595507 0.060856223 0.74445564
0.0071072509 0.059227079 0.74325168
0.0069870823 0.057061166 0.74048507
0.0068715187 0.054972172 0.73782456
0.0067889309 0.053179979 0.73592317
0.0067694341 0.051899016 0.73547435
0.006767842 0.050758809 0.73543775
0.006767842 0.049630851 0.73543769
0.006767842 0.048502862 0.73543775
0.006767842 0.047374904 0.73543775
0.006767842 0.046246916 0.73543775
0.0067678681 0.045119137 0.73543835
0.0067678681 0.043991148 0.73543829
0.0067678681 0.04286319 0.73543829
0.0067678681 0.041735202 0.73543829
0.0067678681 0.040607244 0.73543829
0.0067678681 0.039479256 0.73543835
0.0067678681 0.038351268 0.73543829
0.0067678681 0.037223279 0.73543835
0.0067678681 0.036095321 0.73543835
0.0067678681 0.034967333 0.73543835
0.0067678937 0.033839524 0.73543888
0.0067678937 0.032711536 0.73543888
0.0067678937 0.031583548 0.73543882
0.0067678937 0.03045553 0.73543888
0.0067678937 0.029327542 0.73543888
0.0067678937 0.028199583 0.73543888
0.0067678937 0.027071595 0.73543894
0.0067678937 0.025943637 0.73543888
0.0067678937 0.024815649 0.73543888
0.0067679193 0.02368775 0.73543948
0.0067679193 0.022559732 0.73543948
0.0067679193 0.021431774 0.73543948
0.0067679193 0.020303756 0.73543954
0.0067679193 0.019175798 0.73543948
0.0067679193 0.01804781 0.73543948
0.0067679193 0.016919851 0.73543948
0.0067679193 0.015791833 0.73543942
0.0067679193 0.014663845 0.73543948
0.0067679454 0.013535887 0.73544008
0.0067679454 0.012407929 0.73544002
0.0067679454 0.011279941 0.73544008
0.0067679454 0.010151953 0.73544008
0.0067679454 0.0090239346 0.73544014
0.0067679454 0.0078959763 0.73544008
0.0067679454 0.0067679584 0.73544008
0.0067679454 0.0056399703 0.73544014
0.0067679454 0.0045119822 0.73544014
0.0067679705 0.0033839941 0.73544067
0.0067679705 0.002256006 0.73544073
0.0067679705 0.0011279881 0.73544067
0.0067679705 -0 0.73544067
0.0067679705 -0.0011279881 0.73544061
0.0067679705 -0.0022559464 0.73544061
0.0067679705 -0.0033839941 0.73544067
0.0067679705 -0.0045119524 0.73544073
0.0067679705 -0.0056399703 0.73544067
0.0067679961 -0.0067679882 0.73544121
0.0067679961 -0.0078959763 0.73544127
0.0067679961 -0.0090239644 0.73544133
0.0067679961 -0.010151953 0.73544127
0.0067679961 -0.011279941 0.73544127
0.0067679961 -0.012407988 0.73544127
0.0067679961 -0.013535947 0.73544127
0.0067679961 -0.014663965 0.73544121
0.0067679961 -0.015791953 0.73544121
0.0067680217 -0.01692006 0.73544186
0.0067680217 -0.018048048 0.73544186
0.0067680217 -0.019176066 0.73544186
0.0067680217 -0.020304054 0.73544186
0.0067680217 -0.021432042 0.7354418
0.0067680217 -0.02256006 0.73544186
0.0067680217 -0.023688078 0.73544186
0.0067680217 -0.024816066 0.7354418
0.0067680217 -0.025944084 0.73544186
0.0067680217 -0.027072072 0.7354418
0.0067680217 -0.02820006 0.73544186
0.0067680478 -0.029328197 0.7354424
0.0067680478 -0.030456185 0.7354424
0.0067680478 -0.031584233 0.73544246
0.0067680478 -0.032712221 0.7354424
0.0067680478 -0.033840239 0.73544246
0.0067680478 -0.034968227 0.73544252
0.0067680478 -0.036096245 0.73544246
0.0067680734 -0.037224382 0.735443
0.0067680734 -0.0383524 0.735443
0.0067680734 -0.039480418 0.735443
0.0067680734 -0.040608406 0.73544306
0.0067680734 -0.041736454 0.73544306
0.0067689209 -0.042869836 0.73546255
0.0067839236 -0.044095486 0.7358079
0.0068122568 -0.045415044 0.73646027
0.0068416675 -0.04675138 0.73713738
0.0068738214 -0.048116714 0.73787761
0.0069079367 -0.049506843 0.73866296
0.006944715 -0.050927907 0.7395097
0.0069853594 -0.052390188 0.74044544
0.0070269518 -0.053873301 0.74140292
0.0070427051 -0.055167824 0.74176562
0.0070476565 -0.056381226 0.7418797
0.0070531443 -0.057600647 0.74200594
0.0070423158 -0.058685988 0.74175674
0.0070425663 -0.059861809 0.7417624
0.00838055 0.061058283 0.7450031
0.0083260173 0.059471548 0.743927
0.0081852172 0.057296574 0.74114853
0.0080455542 0.055169523 0.73839259
0.0079394793 0.05330798 0.73629934
0.0079130735 0.052000195 0.73577821
0.0079101566 0.050851017 0.73572069
0.0079101566 0.049721032 0.73572069
0.0079101566 0.048591018 0.73572075
0.0079101566 0.047460973 0.73572069
0.0079101566 0.046330929 0.73572069
0.0079101566 0.045200914 0.73572075
0.0079101566 0.044070899 0.73572069
0.0079101566 0.042940885 0.73572075
0.0079101566 0.04181087 0.73572069
0.0079101566 0.040680826 0.73572063
0.0079101566 0.039550781 0.73572075
0.0079101566 0.038420767 0.73572069
0.0079101566 0.037290752 0.73572075
0.0079101566 0.036160737 0.73572069
0.0079101566 0.035030723 0.73572069
0.0079101566 0.033900678 0.73572069
0.0079101566 0.032770693 0.73572063
0.0079101566 0.031640649 0.73572075
0.0079101566 0.030510634 0.73572075
0.0079101566 0.02938062 0.73572069
0.0079101566 0.028250575 0.73572069
0.0079101566 0.02712056 0.73572069
0.0079101566 0.025990516 0.73572069
0.0079101566 0.024860501 0.73572063
0.0079101566 0.023730516 0.73572069
0.0079101566 0.022600472 0.73572075
0.0079101566 0.021470428 0.73572069
0.0079101566 0.020340413 0.73572075
0.0079101566 0.019210368 0.73572069
0.0079101566 0.018080354 0.73572069
0.0079101268 0.016950279 0.73572016
0.0079101268 0.015820265 0.73572016
0.0079101268 0.01469025 0.73572016
0.0079101268 0.013560236 0.73572016
0.0079101268 0.012430191 0.7357201
0.0079101268 0.011300176 0.7357201
0.0079101566 0.010170221 0.73572075
0.0079101566 0.0090402365 0.73572069
0.0079101566 0.007910192 0.73572069
0.0079101566 0.0067801476 0.73572075
0.0079101566 0.0056501031 0.73572069
0.0079101864 0.004520148 0.73572123
0.0079101864 0.0033900738 0.73572135
0.0079101864 0.0022600889 0.73572123
0.0079101864 0.0011300445 0.73572135
0.0079101864 -0 0.73572129
0.0079102162 -0.0011300147 0.73572189
0.0079102162 -0.0022600591 0.73572195
0.0079102162 -0.0033900738 0.73572189
0.0079102162 -0.0045200884 0.73572183
0.0079102162 -0.0056501627 0.73572195
0.007910247 -0.0067801774 0.73572254
0.007910247 -0.007910192 0.73572242
0.007910247 -0.0090402663 0.73572248
0.007910247 -0.010170281 0.73572248
0.0079102768 -0.011300385 0.73572302
0.0079102768 -0.012430429 0.73572308
0.0079102768 -0.013560444 0.73572308
0.0079102768 -0.014690459 0.73572302
0.0079102768 -0.015820503 0.73572308
0.0079103066 -0.016950667 0.73572367
0.0079103066 -0.018080682 0.73572367
0.0079103066 -0.019210756 0.73572373
0.0079103066 -0.02034077 0.73572367
0.0079103066 -0.021470815 0.73572361
0.0079103373 -0.022600919 0.73572421
0.0079103373 -0.023730993 0.73572427
0.0079103373 -0.024861038 0.73572421
0.0079103373 -0.025991112 0.73572433
0.0079103373 -0.027121156 0.73572427
0.0079103671 -0.02825129 0.73572487
0.0079103671 -0.029381335 0.73572481
0.0079103671 -0.030511409 0.73572493
0.0079103671 -0.031641454 0.73572487
0.0079103969 -0.032771617 0.73572546
0.0079103969 -0.033901691 0.73572546
0.0079103969 -0.035031736 0.73572546
0.0079103969 -0.03616178 0.7357254
0.0079103969 -0.037291855 0.7357254
0.0079104276 -0.038422078 0.735726
0.0079104276 -0.039552122 0.735726
0.0079104276 -0.040682197 0.735726
0.0079104276 -0.041812241 0.73572606
0.00791148 -0.042948008 0.73574686
0.0079314634 -0.044189572 0.7361412
0.0079649966 -0.045514256 0.73680288
0.0080004735 -0.04685989 0.73750293
0.008038844 -0.048233032 0.73826009
0.0080800299 -0.049634427 0.73907292
0.0081237303 -0.051063418 0.73993516
0.0081727495 -0.05253908 0.74090254
0.0082213571 -0.054026037 0.7418617
0.008236547 -0.055302501 0.74216145
0.0082431678 -0.056524545 0.74229211
0.0082497662 -0.057748348 0.74242234
0.0082368078 -0.058834314 0.74216664
