# .PCD v0.7 - Point Cloud Data file format
VERSION 0.7
FIELDS x y z
SIZE 4 4 4
TYPE F F F
COUNT 1 1 1
WIDTH 1323
HEIGHT 1
VIEWPOINT 0 0 0 1 0 0 0
POINTS 1323
DATA ascii
-0.048444491 0.040795386 0.75572687
-0.04834957 0.039443076 0.75538176
-0.048217956 0.038066834 0.75490338
-0.048074171 0.036688238 0.75438064
-0.047914576 0.03530547 0.75380051
-0.047708858 0.033898413 0.75305283
-0.047491528 0.032494247 0.75226277
-0.047241185 0.031079739 0.75135273
-0.046947788 0.029651284 0.75028622
-0.046615675 0.028214782 0.74907893
-0.046217427 0.026757479 0.74763125
-0.04575653 0.025286525 0.74595594
-0.038032629 0.020017177 0.71787894
-0.038056578 0.019028306 0.71796602
-0.038127836 0.018060565 0.71822512
-0.038192265 0.017086029 0.71845925
-0.038251471 0.01610592 0.71867442
-0.038259886 0.015102625 0.71870506
-0.038257428 0.014094859 0.71869612
-0.038256001 0.0130876 0.71869099
-0.03825976 0.01208204 0.71870458
-0.038263254 0.011076242 0.71871734
-0.038271941 0.010071576 0.71874887
-0.038280755 0.0090664923 0.71878088
-0.038293593 0.0080618262 0.71882761
-0.038307745 0.0070567131 0.71887898
-0.03832411 0.0060512125 0.71893847
-0.038392857 0.0050517023 0.71918845
-0.038535815 0.0040563941 0.71970809
-0.038753994 0.0030595362 0.72050112
-0.039068971 0.002056241 0.72164613
-0.039435703 0.0010378361 0.72297919
-0.039842796 2.9802322e-08 0.72445905
-0.040299289 -0.0010604858 0.72611845
-0.040821292 -0.0021484494 0.72801596
-0.041448005 -0.0032721758 0.73029405
-0.042245951 -0.0044469237 0.73319471
-0.04353806 -0.005728662 0.73789161
-0.047200594 0.044649243 0.75584245
-0.047134683 0.043312967 0.7555964
-0.047066741 0.041978478 0.75534272
-0.046987154 0.040637553 0.75504553
-0.046872068 0.039271235 0.7546159
-0.046750393 0.037905753 0.75416172
-0.046602294 0.036526114 0.75360882
-0.046423573 0.035131365 0.75294161
-0.046236504 0.033740193 0.75224316
-0.045995116 0.032320917 0.75134194
-0.045734171 0.030901492 0.75036782
-0.045434672 0.029471159 0.7492497
-0.045069929 0.028016448 0.74788803
-0.044667251 0.026558936 0.74638468
-0.036927007 0.020958573 0.71748787
-0.036948953 0.019972414 0.71756983
-0.037000638 0.019000351 0.71776277
-0.037057709 0.01802808 0.7179758
-0.037103441 0.017047554 0.71814656
-0.037099317 0.016042948 0.71813112
-0.037088312 0.015035838 0.71809006
-0.03708056 0.014030486 0.71806109
-0.037074566 0.013026237 0.71803874
-0.037073068 0.012023687 0.71803313
-0.037071444 0.011021256 0.71802706
-0.037074815 0.010020256 0.71803963
-0.037078191 0.0090190172 0.71805227
-0.037085686 0.0080185533 0.71808028
-0.037094187 0.0070178509 0.71811199
-0.037137505 0.0060223341 0.7182737
-0.037242457 0.0050327778 0.71866548
-0.037427783 0.0040462315 0.71935743
-0.037685558 0.0030556023 0.72031975
-0.03799618 0.0020538568 0.72147936
-0.038334649 0.0010360777 0.72274297
-0.038707372 2.9802322e-08 0.7241345
-0.039121598 -0.0010573566 0.72568095
-0.039590739 -0.002140075 0.72743243
-0.040139679 -0.0032545924 0.72948182
-0.04080731 -0.0044115484 0.73197424
-0.041700389 -0.0056351721 0.73530841
-0.045758653 0.045758665 0.75520456
-0.045710985 0.044441253 0.75502157
-0.045661658 0.043124914 0.75483239
-0.045592245 0.041792929 0.75456601
-0.045496918 0.040441692 0.75420022
-0.045395259 0.039090365 0.75381017
-0.0452592 0.037716031 0.75328815
-0.045105707 0.03633517 0.75269914
-0.044933058 0.034947962 0.75203675
-0.044715371 0.033536524 0.75120139
-0.044487204 0.032129675 0.75032598
-0.044196855 0.030692279 0.74921185
-0.043886334 0.029257536 0.74802041
-0.035985496 0.022990733 0.71770465
-0.035847418 0.021906793 0.71717489
-0.035869036 0.020923615 0.71725786
-0.035912469 0.019951373 0.71742451
-0.03595468 0.018976122 0.71758652
-0.035984527 0.017992288 0.71770102
-0.035969537 0.016985625 0.71764344
-0.035950936 0.015978187 0.71757209
-0.035935249 0.014973044 0.71751189
-0.035923313 0.013970166 0.71746612
-0.035912707 0.01296851 0.71742535
-0.035906449 0.011968821 0.71740139
-0.035900909 0.010969728 0.71738017
-0.035899583 0.0099721551 0.71737498
-0.035898019 0.0089744925 0.71736902
-0.035901152 0.0079780519 0.71738106
-0.035926204 0.0069856346 0.7174772
-0.036014911 0.0060025156 0.71781754
-0.036164425 0.0050228834 0.71839124
-0.036374651 0.0040416121 0.71919787
-0.036642935 0.0030536056 0.7202273
-0.036932275 0.0020518303 0.72133744
-0.037246287 0.0010346174 0.72254241
-0.037589163 2.9802322e-08 0.723858
-0.037967201 -0.0010546148 0.72530854
-0.038394596 -0.0021330118 0.7269485
-0.038881507 -0.0032401085 0.72881675
-0.039455954 -0.0043839812 0.73102099
-0.040176574 -0.0055800378 0.73378599
-0.041236736 -0.0068727732 0.73785377
-0.044296175 0.046827406 0.75444913
-0.044264153 0.045528859 0.75432277
-0.044228606 0.044228613 0.75418246
-0.044171173 0.042909145 0.75395584
-0.044093333 0.041573733 0.75364852
-0.044010743 0.04023844 0.7533226
-0.043886788 0.038871139 0.75283343
-0.043756906 0.037505955 0.75232083
-0.043593623 0.036120445 0.75167638
-0.043403663 0.034722984 0.75092661
-0.043192942 0.033320278 0.75009501
-0.042930707 0.031891406 0.74906003
-0.042643148 0.030459434 0.74792522
-0.034866363 0.023908377 0.71723294
-0.034794334 0.022864878 0.71694863
-0.034819011 0.021886259 0.71704602
-0.034844305 0.020906597 0.71714586
-0.03487828 0.019930482 0.71727997
-0.034890909 0.018940777 0.71732974
-0.034864962 0.017930597 0.7172274
-0.034840226 0.016922444 0.71712977
-0.034818199 0.015916914 0.7170428
-0.034798641 0.014913768 0.71696568
-0.034783173 0.013913274 0.71690458
-0.034769233 0.0129143 0.71684957
-0.034758322 0.011917144 0.71680653
-0.0347495 0.010921299 0.71677172
-0.034743469 0.0099267066 0.71674788
-0.034738827 0.0089328289 0.71672964
-0.034757506 0.0079445839 0.71680331
-0.0348281 0.0069656372 0.7170819
-0.034947604 0.0059910119 0.71755362
-0.035129242 0.0050185025 0.71827042
-0.035360038 0.0040411651 0.7191813
-0.035609718 0.0030522943 0.72016674
-0.035878282 0.0020501912 0.72122657
-0.036169767 0.0010334253 0.722377
-0.036487501 2.9802322e-08 0.72363102
-0.036836922 -0.001052469 0.72501004
-0.037225157 -0.0021271408 0.72654229
-0.037661269 -0.0032280982 0.7282635
-0.038166694 -0.0043618679 0.73025817
-0.038771607 -0.0055387914 0.73264557
-0.039568372 -0.0067831278 0.73579013
-0.040991198 -0.0081982017 0.74140549
-0.042810854 0.04784745 0.75355649
-0.042791832 0.046567619 0.75347918
-0.042770471 0.045286387 0.75339246
-0.042724933 0.043981552 0.75320745
-0.042662561 0.042662561 0.75295401
-0.04259732 0.041344464 0.752689
-0.042485632 0.039986491 0.75223517
-0.042373471 0.038634658 0.75177956
-0.042225007 0.037257373 0.75117636
-0.042057808 0.035872847 0.75049698
-0.041857593 0.034470975 0.74968362
-0.041625656 0.033055693 0.74874133
-0.041350573 0.031621069 0.74762374
-0.033807334 0.024858356 0.7169776
-0.033767931 0.023836195 0.7168175
-0.033780452 0.022851467 0.7168684
-0.033799309 0.021870136 0.71694499
-0.033823501 0.020891011 0.71704328
-0.033816263 0.019891948 0.7170139
-0.033784516 0.018879592 0.71688485
-0.033752937 0.017869234 0.71675658
-0.033724345 0.016862184 0.71664041
-0.033699729 0.01585871 0.71654046
-0.033677392 0.01485768 0.71644974
-0.033657886 0.013859153 0.7163704
-0.03364154 0.012862951 0.71630394
-0.033626549 0.011868209 0.71624315
-0.033615034 0.010875493 0.7161963
-0.033604532 0.0098837018 0.71615362
-0.033615593 0.0088982582 0.71619856
-0.033668533 0.0079220235 0.71641374
-0.033776954 0.0069540739 0.71685421
-0.033930078 0.005987674 0.71747625
-0.034129351 0.0050190389 0.71828586
-0.034349635 0.0040411353 0.71918088
-0.034584373 0.0030516088 0.7201345
-0.034835778 0.0020491779 0.72115594
-0.035107065 0.0010325909 0.72225803
-0.035401318 -0 0.72345352
-0.035722744 -0.0010506511 0.72475946
-0.036076941 -0.002122134 0.72619838
-0.036471091 -0.003218025 0.72779971
-0.036922827 -0.0043438375 0.729635
-0.03744806 -0.0055070519 0.73176891
-0.038097948 -0.0067231655 0.73440921
-0.039004393 -0.0080302954 0.73809183
-0.0413027 0.0488123 0.75251418
-0.041296441 0.047553509 0.7524879
-0.041285671 0.04629001 0.7524429
-0.041254085 0.045004457 0.75231063
-0.041205067 0.043702364 0.75210547
-0.04115444 0.042401552 0.75189358
-0.041056819 0.041056842 0.75148493
-0.04095915 0.039717972 0.7510761
-0.040827099 0.038352758 0.75052333
-0.040677 0.036979079 0.7498951
-0.040491555 0.035583496 0.7491188
-0.040283468 0.034179956 0.7482478
-0.040022593 0.032745749 0.74715579
-0.032789975 0.02583456 0.71688122
-0.032762501 0.024820089 0.71676624
-0.032769613 0.02383247 0.71679598
-0.032776508 0.022844255 0.71682483
-0.032784607 0.021856397 0.71685874
-0.032763816 0.020849705 0.71677172
-0.032723177 0.019832283 0.71660161
-0.032686122 0.018819302 0.71644652
-0.032652628 0.017810553 0.71630627
-0.032621909 0.016805261 0.7161777
-0.032593954 0.015803158 0.7160607
-0.032569405 0.014804274 0.71595794
-0.032546505 0.013807595 0.7158621
-0.032527413 0.012813836 0.71578217
-0.032509848 0.011821777 0.71570867
-0.032495424 0.010831803 0.71564823
-0.032497473 0.0098477304 0.71565688
-0.032546937 0.0088764727 0.71586388
-0.032637857 0.0079122186 0.71624446
-0.032769613 0.0069511533 0.71679598
-0.032946173 0.005990237 0.71753502
-0.033139862 0.0050212145 0.71834576
-0.033344906 0.0040418208 0.71920407
-0.033563171 0.0030511916 0.72011769
-0.033798151 0.0020483434 0.72110128
-0.034051098 0.0010318458 0.72216004
-0.034324415 2.9802322e-08 0.72330415
-0.034621313 -0.0010491014 0.72454697
-0.034946032 -0.0021179318 0.72590613
-0.035306215 -0.0032096207 0.72741377
-0.03571362 -0.0043289065 0.72911912
-0.036177427 -0.0054813921 0.73106056
-0.036732864 -0.0066786706 0.73338556
-0.037437685 -0.0079413354 0.73633581
-0.038532153 -0.0093410909 0.74091709
-0.039772075 0.049715132 0.75130963
-0.039776895 0.048478127 0.75133049
-0.03977906 0.047237664 0.75133979
-0.039758615 0.045970917 0.75125158
-0.039720785 0.0446859 0.75108826
-0.039681531 0.043401688 0.75091881
-0.039601117 0.04207617 0.75057173
-0.039515611 0.040750533 0.75020266
-0.039394729 0.039394736 0.74968076
-0.039263401 0.038036406 0.74911392
-0.03909228 0.036649048 0.74837524
-0.038901642 0.035254627 0.74755234
-0.031901006 0.027913451 0.71733302
-0.031790394 0.026823163 0.71685559
-0.031774789 0.025817066 0.71678817
-0.031771079 0.024821192 0.71677214
-0.031769168 0.023826867 0.71676397
-0.031762913 0.022829622 0.71673691
-0.031726908 0.02181226 0.71658152
-0.031680964 0.020790666 0.71638316
-0.031638309 0.01977396 0.71619904
-0.031598914 0.018761873 0.71602899
-0.031562865 0.017754108 0.71587336
-0.031530239 0.016750485 0.71573251
-0.031500492 0.015750259 0.71560419
-0.031473096 0.014753014 0.71548587
-0.03144886 0.013758898 0.71538126
-0.031426016 0.012766838 0.71528268
-0.03140714 0.011777699 0.71520114
-0.031407554 0.010796368 0.71520293
-0.031445954 0.0098268688 0.71536869
-0.031521257 0.0088653564 0.71569377
-0.031643044 0.0079107881 0.71621943
-0.031798467 0.0069559515 0.71689034
-0.031969268 0.0059942603 0.7176277
-0.032150716 0.0050235987 0.71841097
-0.032344785 0.0040431321 0.71924865
-0.032550666 0.0030516386 0.72013736
-0.032770019 0.0020481348 0.72108424
-0.033004813 0.0010313988 0.72209781
-0.033257991 2.9802322e-08 0.72319061
-0.033532795 -0.0010478795 0.72437686
-0.033832971 -0.0021145642 0.72567266
-0.034163445 -0.003202796 0.72709924
-0.034531239 -0.0043163896 0.72868681
-0.034945235 -0.0054601729 0.73047388
-0.035430774 -0.0066432655 0.73256981
-0.036017839 -0.0078788996 0.73510396
-0.03680044 -0.0092000961 0.73848218
-0.038219333 0.050548196 0.74992895
-0.038232964 0.049332887 0.74998963
-0.038245495 0.048115343 0.75004548
-0.038238514 0.046873033 0.75001442
-0.038209829 0.045605302 0.74988663
-0.038181342 0.044339657 0.74975973
-0.038112529 0.043030292 0.74945307
-0.038042385 0.041723937 0.7491405
-0.037935626 0.040383071 0.74866486
-0.03781395 0.039033771 0.74812257
-0.037656106 0.037656099 0.74741924
-0.03747838 0.036269397 0.74662733
-0.030883294 0.028890818 0.71724033
-0.030821962 0.027839214 0.71696705
-0.030802501 0.026827961 0.71688032
-0.030787276 0.025821596 0.71681243
-0.030777205 0.024820358 0.71676755
-0.030756671 0.023811638 0.71667606
-0.030706063 0.022781909 0.71645057
-0.0306543 0.021754652 0.71622002
-0.030606266 0.020733297 0.71600592
-0.030562233 0.019717604 0.7158097
-0.03052156 0.018706739 0.71562845
-0.030484118 0.017700493 0.71546155
-0.030448979 0.016697824 0.71530509
-0.030417835 0.015699565 0.71516627
-0.03038856 0.014704168 0.7150358
-0.03036204 0.0137119 0.71491772
-0.030337859 0.012722343 0.71480989
-0.03033237 0.011741579 0.71478546
-0.03036684 0.010775357 0.71493906
-0.030439328 0.00981915 0.71526206
-0.030542895 0.0088672638 0.71572351
-0.030681333 0.0079177916 0.71634042
-0.030833613 0.0069624484 0.7170189
-0.030996161 0.0059992671 0.71774322
-0.031167172 0.0050269663 0.71850526
-0.031347539 0.0040448904 0.71930891
-0.031539392 0.0030522346 0.72016382
-0.031745736 0.0020481646 0.72108322
-0.031965766 0.0010311604 0.72206372
-0.032201685 2.9802322e-08 0.72311491
-0.032456528 -0.0010469556 0.7242505
-0.032733329 -0.0021118224 0.72548389
-0.033036187 -0.0031970441 0.72683346
-0.033370286 -0.0043058395 0.72832209
-0.033743419 -0.0054424703 0.72998476
-0.034174193 -0.0066143572 0.73190421
-0.034676652 -0.0078301728 0.73414314
-0.035307191 -0.0091115236 0.73695278
-0.036215782 -0.01051423 0.74100137
-0.036645852 0.051304221 0.74836063
-0.036663018 0.050106168 0.74843973
-0.036683824 0.04891178 0.74853551
-0.036694083 0.047702342 0.74858272
-0.036672667 0.046452075 0.74848413
-0.036651269 0.045203269 0.74838561
-0.036595348 0.043914437 0.74812812
-0.036531515 0.042620122 0.74783421
-0.036439899 0.041298598 0.74741238
-0.036326103 0.039958745 0.7468884
-0.036184229 0.038596541 0.74623513
-0.03007059 0.031072974 0.71808541
-0.029917624 0.029917628 0.71738106
-0.029870646 0.028874993 0.7171647
-0.029844668 0.027855039 0.71704513
-0.02982023 0.026838243 0.71693259
-0.029799113 0.025825918 0.71683538
-0.029758364 0.024798661 0.71664774
-0.029698236 0.02375859 0.71637094
-0.029641896 0.022725493 0.71611148
-0.029589597 0.021699041 0.71587074
-0.02954071 0.02067852 0.71564561
-0.029495297 0.019663543 0.71543646
-0.029453136 0.018653661 0.71524233
-0.029414102 0.017648488 0.71506262
-0.029378459 0.016647816 0.71489853
-0.029344445 0.015650392 0.71474189
-0.029314555 0.014657319 0.71460426
-0.029285787 0.013666719 0.71447176
-0.029280499 0.012688249 0.71444744
-0.029310705 0.011724293 0.7145865
-0.029370625 0.010769218 0.71486247
-0.029467143 0.0098223984 0.71530688
-0.029590579 0.008877188 0.71587521
-0.029727923 0.0079274476 0.71650755
-0.029872347 0.0069702566 0.71717256
-0.030023435 0.0060047209 0.71786827
-0.030183818 0.0050306618 0.71860677
-0.030354699 0.0040473044 0.71939349
-0.030535258 0.003053546 0.72022486
-0.030726865 0.0020484924 0.72110713
-0.03093075 0.0010310709 0.72204596
-0.03115019 2.9802322e-08 0.72305632
-0.031387005 -0.0010462105 0.72414672
-0.031643152 -0.0021095276 0.72532612
-0.031921662 -0.0031921566 0.72660846
-0.032226987 -0.0042968988 0.72801435
-0.032567903 -0.0054279566 0.7295841
-0.032952338 -0.0065904558 0.73135418
-0.033392262 -0.0077915192 0.73337972
-0.033923618 -0.0090462565 0.73582631
-0.03461083 -0.010383219 0.7389906
-0.035779666 -0.011926502 0.74437237
-0.035094086 0.052036077 0.74678773
-0.035064697 0.050783366 0.74664772
-0.035090093 0.049610138 0.74676871
-0.035115663 0.04843536 0.74689049
-0.0351028 0.047207236 0.74682915
-0.035089232 0.045978993 0.74676454
-0.035049159 0.044717938 0.74657369
-0.03498859 0.043434143 0.7462852
-0.03491253 0.042135864 0.74592292
-0.034798011 0.040797681 0.74537742
-0.034674056 0.039456695 0.74478698
-0.029065983 0.032072842 0.71807468
-0.028977992 0.030976474 0.71765554
-0.02893337 0.029931098 0.71744299
-0.028897792 0.028897822 0.71727353
-0.028863652 0.02786839 0.71711087
-0.028830269 0.026841968 0.71695185
-0.028769584 0.025793433 0.71666282
-0.028704187 0.024745017 0.71635133
-0.028642984 0.023704559 0.71605986
-0.028585644 0.022671431 0.7157867
-0.028532211 0.021645159 0.71553218
-0.028482741 0.020625472 0.71529651
-0.028436445 0.019611359 0.71507597
-0.028393473 0.018602639 0.71487135
-0.028353428 0.017598689 0.71468061
-0.028316006 0.016599059 0.71450233
-0.02828202 0.0156039 0.71434045
-0.028249783 0.014611959 0.71418691
-0.028243493 0.013634801 0.71415693
-0.028266264 0.012671113 0.71426541
-0.028327167 0.011721611 0.7145555
-0.028412461 0.010777175 0.71496183
-0.028523907 0.0098358691 0.71549261
-0.028646981 0.0088904798 0.71607882
-0.028775152 0.0079379976 0.71668935
-0.028909514 0.0069781542 0.71732938
-0.02905345 0.0060110688 0.71801496
-0.029204367 0.0050352514 0.71873379
-0.029362954 0.004050076 0.71948922
-0.029531868 0.0030550063 0.72029376
-0.029712152 0.0020491183 0.72115242
-0.029903769 0.0010311902 0.72206521
-0.030108172 2.9802322e-08 0.72303879
-0.030327328 -0.0010457635 0.72408271
-0.03056388 -0.0021078289 0.72520941
-0.030820882 -0.0031883419 0.72643352
-0.031102087 -0.0042899251 0.72777295
-0.031412017 -0.0054158568 0.72924924
-0.031757515 -0.006570518 0.73089492
-0.032148518 -0.0077599585 0.73275733
-0.032609448 -0.008995682 0.73495287
-0.033173759 -0.010295302 0.7376408
-0.033947963 -0.011706173 0.74132848
-0.03343216 0.051342249 0.74455893
-0.03346831 0.050202489 0.74473721
-0.033493482 0.049044073 0.74486136
-0.033500757 0.047858238 0.74489737
-0.033490248 0.046647161 0.74484545
-0.033462927 0.045414001 0.74471068
-0.033412844 0.044152737 0.74446362
-0.033339936 0.042865664 0.74410391
-0.033230305 0.041537881 0.74356312
-0.028270073 0.034327954 0.71909267
-0.028127886 0.033150733 0.7183913
-0.028058602 0.032067001 0.71804947
-0.028009526 0.031010568 0.71780729
-0.027960056 0.029957235 0.71756327
-0.027919931 0.028917074 0.71736538
-0.027865835 0.027865827 0.71709841
-0.027791712 0.026799202 0.71673286
-0.027720938 0.025740892 0.71638364
-0.027654927 0.024691939 0.71605802
-0.027593622 0.023651689 0.71575552
-0.027536409 0.022619218 0.71547329
-0.027482608 0.021593511 0.71520787
-0.02743209 0.020574093 0.71495867
-0.027385717 0.019561231 0.71472991
-0.027341388 0.018553108 0.71451116
-0.027300872 0.017550588 0.71431136
-0.027262973 0.016552508 0.71412432
-0.027230965 0.015560567 0.71396649
-0.027224911 0.01458478 0.71393657
-0.027247807 0.013623923 0.71404952
-0.027296575 0.012673408 0.71429014
-0.027376173 0.011732668 0.71468282
-0.027477801 0.010794878 0.71518415
-0.027587404 0.0098526478 0.71572489
-0.027701294 0.0089039803 0.71628678
-0.02782217 0.0079492033 0.71688306
-0.027949827 0.0069874823 0.71751279
-0.0280833 0.0060178339 0.7181713
-0.028224558 0.005040139 0.71886814
-0.028374784 0.0040535331 0.71960932
-0.028533069 0.003057152 0.7203902
-0.028700151 0.0020499825 0.72121441
-0.028878212 0.0010313988 0.72209287
-0.029069657 5.9604645e-08 0.72303724
-0.029274147 -0.0010454953 0.72404617
-0.029493649 -0.0021066666 0.72512901
-0.029730896 -0.0031854212 0.72629935
-0.029988937 -0.0042841434 0.72757238
-0.030271733 -0.0054056346 0.72896755
-0.030584045 -0.0065536797 0.73050821
-0.030936161 -0.0077340305 0.73224533
-0.031341124 -0.0089545846 0.73424315
-0.031820416 -0.010228008 0.73660767
-0.032428611 -0.01158163 0.73960805
-0.033352353 -0.01310271 0.74416518
-0.031760868 0.051758468 0.74211711
-0.031779852 0.05061236 0.7422142
-0.031811956 0.049485266 0.74237847
-0.031836931 0.04834497 0.74250615
-0.031820655 0.047141701 0.74242294
-0.031804267 0.045939535 0.74233913
-0.031753708 0.04469043 0.74208045
-0.031677671 0.043410152 0.74169147
-0.027531106 0.036708176 0.72047746
-0.027325271 0.035421669 0.71942443
-0.027222075 0.034279674 0.71889651
-0.027154136 0.033188403 0.71854889
-0.027090009 0.032106668 0.71822089
-0.027036285 0.031041652 0.71794593
-0.026980869 0.029978752 0.71766251
-0.026904481 0.028897434 0.71727169
-0.026823234 0.027816713 0.71685594
-0.026748 0.026748031 0.71647108
-0.026678061 0.025689989 0.71611333
-0.026612543 0.024641246 0.71577811
-0.026551122 0.023600996 0.71546388
-0.026493216 0.022568315 0.71516764
-0.026439568 0.021543384 0.7148931
-0.026389258 0.020525008 0.71463573
-0.026341384 0.019512177 0.71439081
-0.026297731 0.018505841 0.71416754
-0.026256027 0.017504036 0.71395415
-0.026225757 0.016512543 0.7137993
-0.026220532 0.015538096 0.71377259
-0.026237324 0.014576316 0.71385849
-0.026285851 0.013629675 0.7141068
-0.026356688 0.012690276 0.71446919
-0.026449321 0.011755288 0.71494305
-0.026546646 0.010815322 0.71544099
-0.026647694 0.0098695457 0.71595794
-0.026756467 0.0089188516 0.71651441
-0.02686955 0.0079613626 0.71709299
-0.026987761 0.00699687 0.71769768
-0.027114524 0.0060254633 0.71834624
-0.027247384 0.0050458014 0.71902597
-0.027386596 0.0040572584 0.71973819
-0.027534787 0.0030594468 0.7204963
-0.02769242 0.0020512938 0.72130281
-0.027859118 0.0010318458 0.72215569
-0.028036248 -0 0.72306186
-0.028225169 -0.0010453761 0.72402835
-0.028428221 -0.0021057725 0.7250672
-0.028647702 -0.0031830668 0.72619003
-0.028885448 -0.0042793155 0.72740638
-0.029144194 -0.0053970516 0.72873014
-0.029429389 -0.0065398216 0.7301892
-0.02974797 -0.0077124238 0.73181903
-0.030107124 -0.00892061 0.73365647
-0.03052371 -0.010174543 0.73578775
-0.031027338 -0.011491567 0.73836434
-0.031697929 -0.012913942 0.74179506
-0.033066694 -0.0146963 0.74879777
-0.030015266 0.050795048 0.73909271
-0.030043721 0.049687743 0.73924381
-0.030072115 0.048578054 0.73939472
-0.030073401 0.047423452 0.73940146
-0.030037535 0.0462116 0.73921096
-0.030001756 0.045002639 0.73902082
-0.026810182 0.039184123 0.72206467
-0.026563622 0.0378021 0.72075474
-0.026428614 0.036593467 0.72003746
-0.026339039 0.035456419 0.71956158
-0.026257645 0.034336954 0.7191292
-0.026184734 0.033234477 0.71874177
-0.026117604 0.032144755 0.71838522
-0.026042219 0.031050354 0.71798468
-0.025950711 0.029943109 0.71749848
-0.025864772 0.028849185 0.71704191
-0.025784818 0.027768254 0.71661711
-0.025710229 0.026699096 0.71622086
-0.025640745 0.025640756 0.71585172
-0.025575019 0.024591386 0.7155025
-0.025514007 0.023551404 0.71517837
-0.025457138 0.022519827 0.71487623
-0.025402945 0.021494806 0.71458828
-0.025352055 0.020476639 0.71431798
-0.025305178 0.019465536 0.71406889
-0.025260206 0.018459409 0.71382999
-0.025229957 0.017466933 0.7136693
-0.025226172 0.016494066 0.71364915
-0.025248 0.015537262 0.71376514
-0.02528904 0.014589846 0.71398318
-0.025353884 0.013652086 0.71432763
-0.025436454 0.01271823 0.71476626
-0.025522597 0.011779666 0.71522397
-0.025612717 0.010836154 0.71570283
-0.025709374 0.0098882616 0.71621633
-0.025809865 0.0089341998 0.7167502
-0.025915746 0.007974118 0.71731269
-0.026028106 0.0070076287 0.71790969
-0.026145421 0.0060335696 0.71853292
-0.026269153 0.0050517619 0.71919036
-0.026401091 0.0040617287 0.71989119
-0.026539462 0.003062278 0.72062635
-0.026685275 0.0020526946 0.7214011
-0.026840895 0.0010323822 0.72222787
-0.027006922 -0 0.72310996
-0.027183326 -0.0010454655 0.72404718
-0.027371932 -0.0021055341 0.72504914
-0.02757428 -0.0031816363 0.72612417
-0.027792921 -0.0042757988 0.72728574
-0.0280308 -0.0053905547 0.7285496
-0.028291509 -0.0065287948 0.72993463
-0.028579172 -0.0076943636 0.73146302
-0.028900372 -0.0088923872 0.73316944
-0.029268038 -0.01013121 0.7351228
-0.02969881 -0.011422604 0.73741138
-0.030235801 -0.012792051 0.74026436
-0.031001458 -0.014308333 0.74433208
-0.028507821 0.051314116 0.73714215
-0.028064162 0.049392968 0.73469079
-0.02804701 0.0482409 0.73459601
-0.028031679 0.047093242 0.73451132
-0.027997267 0.045915544 0.73432118
-0.026101477 0.041762412 0.72384638
-0.025847852 0.040322661 0.72244495
-0.025684889 0.039041042 0.72154456
-0.025565218 0.037836522 0.72088337
-0.025465921 0.036670923 0.72033471
-0.025369899 0.035517871 0.71980411
-0.025288871 0.034392834 0.71935648
-0.025201352 0.033265799 0.7188729
-0.025102481 0.032131165 0.71832657
-0.025004469 0.031005561 0.717785
-0.024913391 0.02989611 0.71728182
-0.02482903 0.028801709 0.71681571
-0.024750343 0.027720392 0.71638083
-0.024676574 0.026650727 0.71597332
-0.024608051 0.025592417 0.71559477
-0.024543794 0.024543792 0.71523964
-0.024483256 0.023503929 0.71490514
-0.024425907 0.022471845 0.71458828
-0.024372501 0.021447808 0.71429324
-0.024322269 0.020430714 0.71401572
-0.024274386 0.019419521 0.71375108
-0.024247628 0.018428206 0.71360326
-0.024245732 0.017456949 0.71359277
-0.024262821 0.016498744 0.71368718
-0.024304222 0.015554696 0.71391594
-0.024364114 0.014618486 0.71424687
-0.024437388 0.013684958 0.7146517
-0.024513448 0.01274702 0.71507204
-0.024593642 0.011804968 0.71551508
-0.024679113 0.010858834 0.71598732
-0.02476774 0.0099071264 0.71647704
-0.024862573 0.0089505613 0.71700102
-0.024962157 0.0079879463 0.71755123
-0.025065668 0.0070184171 0.7181232
-0.025176603 0.0060423911 0.71873617
-0.025292914 0.0050585866 0.71937883
-0.025414648 0.0040663779 0.72005141
-0.025544226 0.0030653179 0.72076738
-0.025681606 0.0020545423 0.72152644
-0.025826572 0.0010330677 0.72232747
-0.025979718 2.9802322e-08 0.72317362
-0.026143054 -0.0010457039 0.72407609
-0.026318701 -0.0021054745 0.72504658
-0.026506547 -0.0031807721 0.72608447
-0.026708314 -0.0042733252 0.72719932
-0.026926922 -0.0053853691 0.72840714
-0.027164809 -0.006519556 0.72972155
-0.027425945 -0.0076792538 0.73116446
-0.027714858 -0.0088687241 0.73276079
-0.028043309 -0.010095596 0.73457557
-0.028419668 -0.011367857 0.73665506
-0.028871702 -0.012703538 0.73915273
-0.029451195 -0.014136523 0.74235457
-0.030407194 -0.015811712 0.7476368
-0.026977846 0.050583482 0.73489946
-0.02628421 0.048187733 0.7309072
-0.025838614 0.046294212 0.72834253
-0.025482079 0.044593662 0.72629046
-0.025214272 0.043074399 0.72474915
-0.025012899 0.041688174 0.72359014
-0.024857406 0.040393293 0.72269517
-0.024722403 0.03914386 0.72191811
-0.024599198 0.037923783 0.72120905
-0.024493594 0.036740422 0.72060126
-0.024392642 0.035572648 0.72002023
-0.024280289 0.034397066 0.71937358
-0.024167985 0.03323099 0.71872711
-0.024064908 0.032086581 0.71813393
-0.023969466 0.03096059 0.71758455
-0.023880687 0.02985087 0.71707362
-0.023797801 0.028755695 0.7165966
-0.023720609 0.027674049 0.71615231
-0.023648383 0.026604474 0.71573663
-0.023580879 0.025545985 0.71534801
-0.023517171 0.024497062 0.71498138
-0.023456732 0.023456752 0.71463352
-0.023400977 0.02242595 0.71431267
-0.023348005 0.021402329 0.71400779
-0.023303412 0.020390481 0.71375114
-0.023277875 0.019398242 0.71360409
-0.023272257 0.018423915 0.71357179
-0.023293905 0.017470419 0.71369642
-0.023331443 0.016526461 0.71391243
-0.0233861 0.015590757 0.71422702
-0.02345049 0.014656574 0.71459758
-0.023517093 0.013718337 0.71498096
-0.023588207 0.012776941 0.71539026
-0.023663593 0.01183182 0.71582419
-0.023741599 0.010881603 0.71627307
-0.023826081 0.009927541 0.71675938
-0.02391381 0.0089676976 0.71726429
-0.024005905 0.0080019832 0.7177943
-0.024104487 0.0070304871 0.71836174
-0.024207082 0.006051749 0.71895218
-0.024314782 0.0050655901 0.71957207
-0.024429962 0.0040716827 0.72023499
-0.02455063 0.0030688643 0.7209295
-0.024677357 0.0020564795 0.72165889
-0.02481273 0.0010338724 0.72243804
-0.024956401 5.9604645e-08 0.72326493
-0.025108544 -0.0010461509 0.72414064
-0.025270335 -0.0021058023 0.72507179
-0.025443109 -0.0031803548 0.72606623
-0.025629025 -0.0042714775 0.72713625
-0.025829919 -0.0053811967 0.72829252
-0.026047667 -0.0065119267 0.72954583
-0.026285758 -0.0076666772 0.73091614
-0.026548766 -0.0088495612 0.73242986
-0.026842603 -0.010065973 0.73412108
-0.027174542 -0.011322677 0.73603147
-0.027564092 -0.012633532 0.73827362
-0.028039457 -0.014019728 0.74100959
-0.028683087 -0.015536666 0.74471402
-0.025187736 0.048185259 0.73089933
-0.024764875 0.046299547 0.72835976
-0.024468195 0.044681102 0.726578
-0.024238085 0.043207049 0.725196
-0.024047213 0.041821212 0.72404969
-0.023888735 0.040506989 0.72309792
-0.023748485 0.039236665 0.72225559
-0.02361786 0.037993968 0.72147107
-0.023487212 0.036762595 0.7206865
-0.023357842 0.035544544 0.71990943
-0.023240071 0.034354895 0.71920222
-0.02313138 0.033188552 0.71854937
-0.023030754 0.032042801 0.71794504
-0.022937614 0.030915946 0.71738565
-0.022851178 0.029805869 0.71686655
-0.022770543 0.028710723 0.71638227
-0.022695143 0.027628869 0.71592939
-0.022624429 0.026559144 0.71550477
-0.022557577 0.02549991 0.71510327
-0.022495115 0.024451226 0.71472812
-0.022436749 0.023412287 0.71437758
-0.02238103 0.022381067 0.71404296
-0.022338124 0.021366954 0.71378523
-0.022319173 0.020378351 0.71367145
-0.022317789 0.019406796 0.7136631
-0.022331269 0.018447608 0.7137441
-0.022368148 0.017505497 0.71396554
-0.022418585 0.01657024 0.71426857
-0.022474419 0.015634388 0.71460384
-0.022532314 0.014695019 0.71495152
-0.02259491 0.013753444 0.7153275
-0.022660857 0.012808293 0.71572357
-0.022729758 0.01185903 0.71613729
-0.022804249 0.010906398 0.71658468
-0.022881446 0.0099484921 0.71704835
-0.022963334 0.0089856982 0.71754014
-0.023050079 0.0080174208 0.71806109
-0.023140457 0.0070427954 0.71860391
-0.023236677 0.0060617626 0.71918178
-0.023337999 0.0050734878 0.71979022
-0.023443982 0.0040772557 0.72042674
-0.02355637 0.0030725598 0.72110176
-0.02367582 0.0020587742 0.72181916
-0.023801124 0.0010348558 0.72257173
-0.023933372 -0 0.72336596
-0.024074888 -0.0010467172 0.72421592
-0.024225637 -0.0021065772 0.72512126
-0.024386195 -0.0031808019 0.72608554
-0.024557712 -0.0042708814 0.72711563
-0.024742212 -0.0053787231 0.72822362
-0.024941778 -0.0065065324 0.72942221
-0.025159109 -0.0076570809 0.73072743
-0.025397601 -0.008833915 0.73215979
-0.025661241 -0.010041356 0.73374319
-0.025956094 -0.011285245 0.73551404
-0.026297072 -0.012576848 0.73756182
-0.026697779 -0.013929278 0.73996842
-0.027205886 -0.015377223 0.74301994
-0.027963184 -0.01702103 0.74756807
-0.024263177 0.048526376 0.73197031
-0.023808388 0.046534598 0.72911483
-0.023504078 0.04487142 0.72720408
-0.023268852 0.043364674 0.7257272
-0.02307461 0.041953832 0.72450757
-0.022897756 0.040591478 0.72339714
-0.022731805 0.039264053 0.72235519
-0.022579301 0.037974328 0.72139764
-0.022441678 0.036722779 0.72053349
-0.022316527 0.035503596 0.71974772
-0.022202326 0.034312695 0.71903068
-0.022097494 0.033146232 0.71837252
-0.022000009 0.032000065 0.71776044
-0.021909762 0.030872881 0.71719372
-0.02182564 0.029762268 0.71666557
-0.021747001 0.028666526 0.7161718
-0.021673234 0.027584136 0.71570867
-0.021604029 0.026514053 0.7152741
-0.021539452 0.025455743 0.71486866
-0.021478498 0.024407417 0.71448594
-0.021423081 0.023370653 0.71413803
-0.02138499 0.022357047 0.71389884
-0.021366483 0.021366507 0.71378261
-0.021365436 0.020394295 0.71377611
-0.021384291 0.019440293 0.71389449
-0.02141656 0.018496156 0.71409702
-0.021459971 0.017558187 0.7143696
-0.021507872 0.016619712 0.71467036
-0.02155762 0.015678316 0.71498269
-0.021612238 0.014735639 0.71532571
-0.021669501 0.013789713 0.71568525
-0.021729955 0.01284042 0.71606481
-0.021795174 0.011888266 0.71647424
-0.02186276 0.010931402 0.71689868
-0.021935325 0.0099706054 0.7173543
-0.022011407 0.0090046823 0.71783197
-0.022090705 0.0080329776 0.71832991
-0.022176288 0.0070561171 0.71886724
-0.022265416 0.006072402 0.71942681
-0.022358622 0.0050815046 0.72001201
-0.022458548 0.0040833652 0.72063947
-0.022563029 0.0030767918 0.72129548
-0.022672646 0.0020611584 0.72198379
-0.022789843 0.0010359287 0.72271955
-0.022913635 -0 0.72349685
-0.023044458 -0.0010474622 0.72431827
-0.023182778 -0.0021074712 0.72518671
-0.023330584 -0.0031814277 0.72611475
-0.023489563 -0.0042708218 0.72711295
-0.023659702 -0.0053771734 0.72818124
-0.023842746 -0.0065025687 0.72933054
-0.024041181 -0.0076494217 0.7305764
-0.02425742 -0.0088208318 0.73193407
-0.024495268 -0.010020792 0.73342758
-0.024759734 -0.0112544 0.73508805
-0.025060652 -0.012530327 0.73697746
-0.025406506 -0.01385808 0.73914897
-0.025826206 -0.015260905 0.74178421
-0.026378268 -0.016786158 0.74525046
-0.027405608 -0.018685669 0.75170094
-0.024121001 0.051687896 0.73828954
-0.023260886 0.048737109 0.73263192
-0.022817688 0.046721935 0.72971666
-0.022498835 0.044997692 0.72761935
-0.022244722 0.043430209 0.7259478
-0.022028714 0.041959494 0.724527
-0.021841586 0.040562987 0.72329611
-0.021676401 0.039223969 0.72220957
-0.021530382 0.037934512 0.72124904
-0.021397749 0.036681861 0.72037667
-0.021277681 0.035462797 0.71958685
-0.021167269 0.034270823 0.71886063
-0.02106617 0.033104002 0.71819562
-0.020972155 0.031957597 0.71757722
-0.020884702 0.030829817 0.71700191
-0.020803099 0.029718727 0.71646518
-0.020726878 0.028622866 0.71596384
-0.020655518 0.027540714 0.71549439
-0.020588716 0.026471227 0.71505505
-0.020525517 0.02541256 0.71463931
-0.020476256 0.024376512 0.7143153
-0.02044007 0.023360103 0.71407723
-0.020424159 0.022369325 0.71397257
-0.020425228 0.021397889 0.71397966
-0.020441875 0.02044189 0.71408916
-0.020472566 0.019497693 0.71429098
-0.020509139 0.018555909 0.7145316
-0.020549629 0.017613977 0.71479791
-0.020591702 0.016669452 0.71507466
-0.020638861 0.015724868 0.71538484
-0.020688085 0.014777213 0.71570867
-0.020740714 0.013827145 0.7160548
-0.02079721 0.012874454 0.71642649
-0.020855896 0.011917681 0.71681243
-0.020919818 0.010958016 0.71723288
-0.020986462 0.009993583 0.71767128
-0.02105644 0.0090242028 0.71813154
-0.02113146 0.0080500841 0.71862507
-0.021209467 0.0070698559 0.71913815
-0.021292262 0.0060835183 0.71968275
-0.02137995 0.0050905049 0.72025955
-0.021471461 0.0040898323 0.72086143
-0.021568377 0.0030812025 0.72149903
-0.021671211 0.00206393 0.72217542
-0.021779357 0.0010371208 0.72288668
-0.021892959 2.9802322e-08 0.723634
-0.022014506 -0.0010482669 0.72443348
-0.02214353 -0.0021089017 0.72528219
-0.022280194 -0.0031828582 0.72618115
-0.022425801 -0.0042715967 0.72713894
-0.022581486 -0.0053765178 0.72816294
-0.022748955 -0.0064996779 0.7292645
-0.022930115 -0.0076433122 0.73045617
-0.023127027 -0.008810252 0.73175144
-0.023342434 -0.010003895 0.73316824
-0.023581283 -0.011229157 0.73473942
-0.02384809 -0.012491852 0.73649442
-0.024150478 -0.013800263 0.73848343
-0.024508528 -0.015171915 0.74083865
-0.024950508 -0.01663366 0.7437458
-0.025571642 -0.018265456 0.74783146
-0.022783633 0.051263183 0.73698592
-0.022103088 0.04862684 0.73228556
-0.021704568 0.046664864 0.7295332
-0.021405714 0.044952005 0.72746909
-0.021163514 0.043385237 0.72579628
-0.020958586 0.041917235 0.72438091
-0.020780798 0.040522546 0.723153
-0.020623505 0.03918466 0.72206664
-0.02048366 0.037894815 0.72110081
-0.020356769 0.036642194 0.72022438
-0.020241287 0.035422295 0.71942681
-0.020135488 0.034230351 0.71869612
-0.020037672 0.03306222 0.7180205
-0.019947022 0.031915247 0.71739447
-0.019862758 0.030787289 0.71681243
-0.01978427 0.029676437 0.71627039
-0.019710906 0.028580844 0.71576369
-0.019641908 0.027498692 0.71528715
-0.019579642 0.026432544 0.71485716
-0.019529691 0.025388598 0.71451211
-0.019504203 0.024380267 0.71433604
-0.019491548 0.023389906 0.7142486
-0.019490335 0.022413909 0.71424031
-0.019507529 0.021458298 0.71435905
-0.019534566 0.020511329 0.71454573
-0.01956483 0.019564867 0.71475476
-0.019598352 0.018618464 0.71498632
-0.019633479 0.017670155 0.71522892
-0.019673547 0.01672253 0.71550566
-0.019715281 0.015772253 0.71579391
-0.019760607 0.014820486 0.71610695
-0.01980911 0.013866395 0.71644193
-0.019859906 0.012908965 0.71679282
-0.019915499 0.011949331 0.7171768
-0.019973213 0.010985315 0.71757531
-0.020034771 0.010017395 0.71800047
-0.020100242 0.0090451539 0.71845263
-0.020168191 0.0080672801 0.71892202
-0.020241356 0.0070844889 0.71942729
-0.020318037 0.0060954392 0.71995693
-0.020398028 0.0050995052 0.72050935
-0.020483941 0.0040967762 0.72110271
-0.020573854 0.0030860901 0.72172374
-0.020667791 0.0020667911 0.72237253
-0.020768316 0.0010384023 0.72306681
-0.020874588 -0 0.72380078
-0.02098617 -0.0010492802 0.72457147
-0.02110419 -0.0021103919 0.72538662
-0.021230668 -0.0031845868 0.72626013
-0.021365346 -0.004273057 0.72719032
-0.021508897 -0.0053772032 0.72818178
-0.021662515 -0.0064987838 0.72924274
-0.021827789 -0.0076397061 0.73038423
-0.022006834 -0.008802712 0.73162085
-0.022202261 -0.00999102 0.7329706
-0.022416806 -0.011208385 0.73445237
-0.022654334 -0.012459844 0.73609293
-0.02292148 -0.013752908 0.73793799
-0.02323151 -0.015100449 0.74007916
-0.023599753 -0.016519785 0.74262255
-0.024072248 -0.018054157 0.74588591
-0.024820413 -0.019856304 0.75105321
-0.021520961 0.050970733 0.7360881
-0.020950211 0.048516303 0.7319386
-0.020587487 0.046592742 0.72930157
-0.020311087 0.044898242 0.72729218
-0.020083828 0.043338776 0.72563994
-0.019890543 0.041874826 0.7242347
-0.01972205 0.040482134 0.72300971
-0.019572714 0.03914547 0.72192407
-0.019439058 0.037855029 0.72095239
-0.019318039 0.036602616 0.72007251
-0.019207716 0.035382658 0.71927053
-0.019106269 0.034190178 0.71853298
-0.019012604 0.033021897 0.71785194
-0.01892568 0.031874865 0.71721995
-0.018844636 0.03074652 0.71663088
-0.018769085 0.0296354 0.71608156
-0.018698158 0.0285393 0.71556592
-0.018641038 0.027471036 0.71515065
-0.018601639 0.026433915 0.71486419
-0.018573392 0.025416225 0.7146588
-0.018561373 0.024422854 0.71457148
-0.018565947 0.023451716 0.71460468
-0.018580781 0.022492528 0.71471262
-0.018601639 0.021538734 0.71486425
-0.018625921 0.02058655 0.71504074
-0.018652914 0.019634664 0.71523696
-0.018681899 0.018681943 0.71544766
-0.018715004 0.017729998 0.71568835
-0.018749777 0.016776115 0.71594119
-0.018788245 0.015821695 0.71622086
-0.018829379 0.014865309 0.71651989
-0.018872961 0.013906419 0.71683669
-0.018920673 0.012945741 0.71718359
-0.018970283 0.011981279 0.71754432
-0.019023933 0.011013865 0.71793437
-0.019080656 0.010042489 0.71834671
-0.019139858 0.0090662539 0.71877712
-0.019203931 0.0080858767 0.71924293
-0.019270603 0.0070996881 0.71972769
-0.019340916 0.0061076581 0.72023886
-0.019416014 0.005109489 0.72078478
-0.019494386 0.0041041076 0.7213546
-0.019577056 0.0030911267 0.72195566
-0.019665152 0.0020700097 0.72259617
-0.019757289 0.0010398924 0.72326601
-0.019854201 -0 0.72397053
-0.019958198 -0.0010504127 0.72472656
-0.020067707 -0.0021123588 0.72552276
-0.020183615 -0.0031868517 0.72636545
-0.020306416 -0.0042750239 0.72725815
-0.02043774 -0.0053783655 0.72821295
-0.020578863 -0.0064985752 0.72923893
-0.020730162 -0.0076374412 0.73033893
-0.020893119 -0.0087970793 0.73152357
-0.021070046 -0.0099805295 0.7328099
-0.021263111 -0.0111911 0.73421347
-0.021475649 -0.012433261 0.73575866
-0.021713652 -0.013713837 0.73748899
-0.021984154 -0.015041769 0.73945558
-0.022298116 -0.016430199 0.74173814
-0.022681557 -0.017906487 0.74452579
-0.023198178 -0.019535303 0.74828172
-0.020298136 0.050745368 0.73539639
-0.019806152 0.048415065 0.73162085
-0.019475976 0.046525955 0.729087
-0.019219009 0.044844359 0.72711504
-0.01900645 0.043292493 0.72548389
-0.018824719 0.041832745 0.72408926
-0.018665481 0.04044193 0.72286725
-0.018523965 0.03910619 0.72178125
-0.018396711 0.037815481 0.72080469
-0.018281611 0.036563247 0.71992141
-0.018176518 0.03534323 0.71911496
-0.018079648 0.034150481 0.71837157
-0.017990148 0.032981962 0.71768469
-0.017906921 0.031834513 0.71704602
-0.017829269 0.030705959 0.71645021
-0.017763596 0.029606014 0.7159462
-0.017711524 0.028535247 0.71554655
-0.017671008 0.027488261 0.71523565
-0.017652359 0.026478559 0.71509254
-0.017642876 0.025484174 0.71501982
-0.017644446 0.024506181 0.71503186
-0.017657718 0.023543626 0.71513367
-0.017672582 0.022581667 0.71524769
-0.017691389 0.021622837 0.71539205
-0.017712109 0.020664155 0.71555102
-0.017735405 0.019706041 0.71572989
-0.017762065 0.01874885 0.7159344
-0.01779028 0.017790318 0.71615094
-0.0178225 0.016832381 0.71639824
-0.017856745 0.015872687 0.71666098
-0.017893633 0.014911383 0.7169441
-0.017934036 0.013948709 0.71725416
-0.017976131 0.012982786 0.71757722
-0.018022552 0.012015045 0.71793342
-0.018071102 0.011043459 0.71830595
-0.018122554 0.010068119 0.71870083
-0.018178124 0.0090890825 0.71912724
-0.018235713 0.0081048012 0.71956921
-0.018297421 0.0071156919 0.72004277
-0.018362505 0.0061208606 0.72054225
-0.018430406 0.0051195621 0.72106326
-0.018503347 0.004111886 0.72162306
-0.0185799 0.0030966699 0.72221053
-0.018659821 0.0020733476 0.7228238
-0.018745221 0.0010414124 0.72347921
-0.018835317 -0 0.72417063
-0.018930165 -0.0010516942 0.72489852
-0.019030031 -0.002114445 0.72566485
-0.019137112 -0.0031895041 0.72648662
-0.019250594 -0.004277885 0.72735745
-0.019370968 -0.0053808093 0.7282812
-0.019499244 -0.0064997375 0.72926563
-0.01963665 -0.0076364279 0.7303201
-0.019784629 -0.0087931454 0.73145568
-0.01994466 -0.0099723339 0.73268378
-0.020119166 -0.011177272 0.73402292
-0.020310538 -0.012411982 0.73549145
-0.020522721 -0.013681799 0.73711979
-0.020760136 -0.014993429 0.73894173
-0.021031989 -0.016358197 0.74102795
-0.021352965 -0.017794102 0.74349111
-0.02175642 -0.019339025 0.74658728
-0.022347232 -0.021105677 0.75112116
-0.019100066 0.050559044 0.73482436
-0.018668786 0.048319221 0.73132002
-0.018367983 0.046460241 0.72887582
-0.018129611 0.044790804 0.72693896
-0.01793131 0.04324612 0.72532767
-0.017760977 0.041790545 0.72394359
-0.01761101 0.040401727 0.72272503
-0.017477378 0.03906709 0.72163928
-0.017356537 0.037775993 0.72065735
-0.017247412 0.036523968 0.71977067
-0.017147556 0.035303831 0.71895927
-0.017055465 0.034110963 0.718211
-0.016970165 0.032942116 0.71751785
-0.016895872 0.031804025 0.71691424
-0.016833315 0.030696064 0.71640593
-0.016785363 0.029621243 0.71601629
-0.016755991 0.028583765 0.71577764
-0.01673414 0.027562141 0.71560013
-0.016726334 0.026565403 0.71553665
-0.016729653 0.025586545 0.71556365
-0.016737185 0.024613529 0.71562487
-0.016746556 0.023642182 0.71570098
-0.01675999 0.022675276 0.71581018
-0.016775005 0.021708846 0.71593219
-0.01679289 0.020744175 0.71607745
-0.016813608 0.019780725 0.71624583
-0.016835781 0.018816471 0.71642601
-0.016862061 0.017853975 0.71663952
-0.016889887 0.01688993 0.7168656
-0.016920637 0.015925348 0.71711552
-0.016954288 0.014959723 0.71738887
-0.016989497 0.013991386 0.71767497
-0.01702904 0.013022244 0.7179963
-0.017070265 0.012049615 0.71833128
-0.017114528 0.011074126 0.71869087
-0.017162049 0.010095358 0.71907705
-0.017211478 0.0091119409 0.71947873
-0.017265258 0.0081248283 0.71991569
-0.017321452 0.007132411 0.72037226
-0.017380405 0.0061342716 0.7208513
-0.017443851 0.0051305294 0.72136682
-0.017510064 0.0041200519 0.72190481
-0.017579716 0.0031023026 0.72247082
-0.017654302 0.0020769835 0.72307688
-0.017732259 0.0010430813 0.7237103
-0.017814109 -0 0.72437537
-0.017901659 -0.0010530055 0.72508669
-0.017994173 -0.0021169484 0.72583848
-0.018091336 -0.003192544 0.72662789
-0.01819453 -0.004281044 0.72746646
-0.01830487 -0.0053837895 0.72836304
-0.018422462 -0.0065020025 0.7293185
-0.018547971 -0.0076373816 0.73033834
-0.018682584 -0.0087917745 0.73143214
-0.018827435 -0.0099674463 0.73260909
-0.018984597 -0.011167407 0.73388612
-0.019156227 -0.012395173 0.73528069
-0.019345041 -0.013655275 0.73681486
-0.019554319 -0.014953285 0.73851538
-0.019791774 -0.016299099 0.74044478
-0.020066718 -0.017705917 0.74267876
-0.020397682 -0.019197822 0.74536806
-0.020828864 -0.020828843 0.74887156
-0.02158482 -0.022854477 0.75501406
-0.018700685 0.053764522 0.74107617
-0.017918115 0.050394714 0.73432004
-0.017538566 0.048231095 0.73104322
-0.017263178 0.046394795 0.72866577
-0.017043669 0.044739664 0.72677064
-0.016858768 0.043200642 0.72517437
-0.016699435 0.041748613 0.72379881
-0.016558686 0.040361822 0.72258365
-0.016432879 0.039028108 0.72149754
-0.016318927 0.037737548 0.7205137
-0.016215378 0.036484629 0.71961975
-0.016120942 0.035264611 0.71880448
-0.016038027 0.034080833 0.71808863
-0.015966775 0.032931477 0.71747351
-0.015911248 0.031822503 0.71699411
-0.015871761 0.030751556 0.71665323
-0.015839955 0.029699892 0.71637869
-0.015823523 0.028680146 0.71623677
-0.015815999 0.027678013 0.7161718
-0.015816106 0.026689678 0.7161727
-0.015818156 0.025704503 0.71619046
-0.015822941 0.024723351 0.71623176
-0.015830839 0.023746282 0.71629995
-0.015840219 0.022770345 0.71638089
-0.015853254 0.021798223 0.71649349
-0.015868269 0.020827115 0.71662307
-0.015885273 0.019856602 0.71676987
-0.01590577 0.018888116 0.71694678
-0.0159276 0.017918557 0.71713531
-0.015952697 0.016949773 0.71735191
-0.015980072 0.015980065 0.71758831
-0.01600932 0.015008748 0.71784079
-0.01604219 0.014036924 0.71812457
-0.016076498 0.013062149 0.7184208
-0.016114172 0.012085617 0.71874601
-0.016154382 0.011106163 0.71909314
-0.016196556 0.010122836 0.71945733
-0.01624272 0.0091365874 0.71985584
-0.016290879 0.0081454515 0.72027159
-0.016342072 0.0071496964 0.72071362
-0.016396638 0.0061487257 0.72118467
-0.016453506 0.0051417351 0.72167563
-0.016514378 0.0041286051 0.72220111
-0.016578648 0.0031085014 0.72275603
-0.016645806 0.0020807385 0.7233358
-0.016717387 0.0010448694 0.72395372
-0.016793141 -0 0.72460783
-0.016872397 -0.0010544956 0.72529197
-0.01695627 -0.0021195114 0.72601616
-0.017046049 -0.0031961203 0.72679126
-0.017140487 -0.0042850971 0.72760653
-0.01724066 -0.0053876936 0.7284714
-0.017347006 -0.0065051019 0.72938949
-0.017460821 -0.0076391101 0.73037207
-0.017583024 -0.0087915361 0.73142707
-0.017714266 -0.0099642575 0.7325601
-0.017855788 -0.011159837 0.73378193
-0.018009737 -0.012381703 0.735111
-0.018177746 -0.013633281 0.73656154
-0.018363439 -0.014920264 0.7381646
-0.018572295 -0.01625073 0.73996776
-0.01880935 -0.017633736 0.74201429
-0.019087845 -0.019087821 0.74441862
-0.019431282 -0.020645738 0.74738359
-0.019906087 -0.0223943 0.75148273
-0.017342282 0.053182989 0.73933005
-0.016749855 0.050249606 0.7338745
-0.016412701 0.048143953 0.73076969
-0.016162943 0.04633376 0.72846973
-0.015960431 0.044689238 0.72660482
-0.015788762 0.043155998 0.72502398
-0.015640022 0.041706741 0.72365421
-0.015508387 0.040321857 0.72244197
-0.015390463 0.038989216 0.72135603
-0.01528353 0.037699401 0.72037131
-0.015190942 0.036458284 0.71951878
-0.015112871 0.03526336 0.71879977
-0.015048228 0.034109354 0.7182045
-0.014999755 0.032999456 0.71775812
-0.014959665 0.031913966 0.71738887
-0.014933574 0.030862749 0.71714866
-0.014916546 0.029833108 0.71699178
-0.01490847 0.028823078 0.71691746
-0.014903041 0.027819067 0.71686745
-0.014899607 0.026819319 0.71683586
-0.014900154 0.025826961 0.71684092
-0.014902743 0.024837911 0.71686471
-0.014907325 0.023851752 0.71690691
-0.014915449 0.022870332 0.71698177
-0.014925029 0.021890104 0.71706992
-0.014937324 0.02091229 0.71718323
-0.014952294 0.019936383 0.71732104
-0.014968649 0.018960327 0.71747166
-0.014988566 0.017986298 0.71765506
-0.01501 0.017011344 0.71785241
-0.015033825 0.016036123 0.71807182
-0.015060574 0.015060574 0.7183181
-0.015088642 0.01408276 0.71857661
-0.015120248 0.0131042 0.71886772
-0.015153685 0.012122989 0.71917558
-0.015189443 0.011138916 0.71950489
-0.015228435 0.01015231 0.71986401
-0.015269039 0.0091614425 0.72023791
-0.01531312 0.0081670582 0.72064376
-0.015359782 0.0071679354 0.72107357
-0.015408378 0.0061633587 0.72152102
-0.015461088 0.0051537156 0.72200644
-0.015516155 0.004137665 0.7225135
-0.015574008 0.0031148195 0.7230463
-0.015636019 0.0020848215 0.72361732
-0.015701015 0.0010467768 0.72421587
-0.015769115 2.9802322e-08 0.72484303
-0.015842196 -0.0010561049 0.72551602
-0.015918911 -0.0021225214 0.7262224
-0.015999814 -0.003199935 0.72696745
-0.016085431 -0.0042894483 0.7277559
-0.016176892 -0.0053922832 0.72859818
-0.016273972 -0.0065095723 0.72949219
-0.016377032 -0.0076425672 0.73044121
-0.016487069 -0.0087931156 0.73145455
-0.016605083 -0.0099630356 0.73254132
-0.016732203 -0.011154771 0.73371196
-0.016869826 -0.012371182 0.73497927
-0.017020116 -0.013616085 0.73636335
-0.017185479 -0.014894038 0.73788607
-0.017368818 -0.016210854 0.73957443
-0.01757423 -0.017574221 0.7414661
-0.017812114 -0.018999577 0.74365675
-0.018093657 -0.020506114 0.74624932
-0.018454667 -0.022145599 0.74957395
-0.019010855 -0.024080396 0.75469571
-0.016326077 0.053642869 0.74071091
-0.015592744 0.050119549 0.73347533
-0.015292865 0.048063308 0.73051655
-0.015065708 0.046273261 0.7282753
-0.014879632 0.044638902 0.7264393
-0.014720963 0.043111414 0.72487384
