# .PCD v0.7 - Point Cloud Data file format
VERSION 0.7
FIELDS x y z
SIZE 4 4 4
TYPE F F F
COUNT 1 1 1
WIDTH 1319
HEIGHT 1
VIEWPOINT 0 0 0 1 0 0 0
POINTS 1319
DATA ascii
-0.028530244 0.026335657 0.73120308
-0.028701484 0.02538982 0.73211277
-0.028876627 0.02443409 0.73304331
-0.029053921 0.023466647 0.73398525
-0.029238822 0.022491425 0.73496759
-0.029426649 0.021504134 0.73596549
-0.029620877 0.020506769 0.73699737
-0.029821137 0.019498467 0.73806131
-0.030027503 0.018478483 0.73915768
-0.030242659 0.01744768 0.74030077
-0.030466441 0.016404986 0.74148965
-0.030700022 0.015350014 0.74273062
-0.030950209 0.01428473 0.7440598
-0.031215595 0.013206631 0.74546975
-0.03150443 0.012117088 0.74700427
-0.031832699 0.011019021 0.7487483
-0.032237075 0.009919107 0.75089669
-0.028147459 0.047287732 0.73515105
-0.027583351 0.045236737 0.73203415
-0.027202576 0.043524146 0.72993028
-0.026906166 0.04197365 0.72829247
-0.026655745 0.040516734 0.72690886
-0.026438775 0.039129376 0.72571003
-0.02624475 0.037792474 0.72463799
-0.02606789 0.03649506 0.72366083
-0.025923917 0.035256565 0.72286528
-0.025870157 0.034148633 0.72256821
-0.025910998 0.033166081 0.72279388
-0.026029926 0.032277107 0.72345102
-0.026162464 0.031394988 0.72418332
-0.026296452 0.030503899 0.72492367
-0.026431726 0.029603571 0.72567105
-0.026570676 0.028696358 0.72643882
-0.026713785 0.027782351 0.7272296
-0.026858442 0.026858449 0.72802883
-0.027004771 0.025924563 0.72883737
-0.027152607 0.024980426 0.72965419
-0.027302068 0.024025857 0.73047996
-0.027453287 0.023060739 0.73131555
-0.027607113 0.022085726 0.73216546
-0.027766712 0.021102726 0.73304731
-0.027928382 0.020108432 0.73394054
-0.028091837 0.019102454 0.73484367
-0.028260762 0.01808691 0.73577708
-0.028432382 0.017059445 0.73672533
-0.0286061 0.016019434 0.7376852
-0.028786745 0.01496914 0.73868334
-0.028970025 0.013905644 0.73969597
-0.029157942 0.012829512 0.74073434
-0.029352019 0.011740834 0.74180663
-0.029549636 0.01063785 0.74289858
-0.0297566 0.00952214 0.74404204
-0.029967088 0.0083907843 0.74520504
-0.030189767 0.0072455704 0.7464354
-0.030418143 0.0060836673 0.74769723
-0.03066024 0.0049056709 0.74903494
-0.030915856 0.0037099123 0.75044733
-0.031187283 0.0024949908 0.75194699
-0.031483233 0.0012593269 0.75358224
-0.031819545 -0 0.75544047
-0.032234933 -0.0012893379 0.75773561
-0.027017979 0.048407257 0.73513043
-0.026452538 0.046291977 0.73187602
-0.026084507 0.044561028 0.72975779
-0.025800414 0.043000698 0.72812271
-0.025561748 0.041537881 0.726749
-0.025355978 0.040147007 0.72556472
-0.025172567 0.03880769 0.72450912
-0.025006413 0.03750962 0.72355276
-0.024851693 0.036242068 0.72266227
-0.024712387 0.035009235 0.72186047
-0.024632901 0.03387025 0.721403
-0.02463001 0.032840043 0.72138637
-0.024716411 0.03192538 0.72188365
-0.024837337 0.031046689 0.72257966
-0.024959542 0.030159444 0.72328305
-0.025082866 0.029263347 0.72399282
-0.025207417 0.02835834 0.72470963
-0.025333479 0.027444601 0.7254352
-0.025463533 0.026524544 0.72618377
-0.025595756 0.025595754 0.72694474
-0.025729267 0.02465722 0.72771323
-0.02586427 0.02370894 0.72849023
-0.026000697 0.022750616 0.72927547
-0.026138477 0.0217821 0.73006845
-0.026277823 0.020803303 0.73087043
-0.02641866 0.019814014 0.73168099
-0.026562499 0.01881513 0.7325089
-0.026710611 0.017807096 0.73336136
-0.026861293 0.016788334 0.73422861
-0.027013686 0.015758038 0.73510569
-0.02716792 0.01471597 0.73599344
-0.027323822 0.013661951 0.73689067
-0.027481629 0.012595773 0.73779893
-0.027643196 0.011518002 0.73872888
-0.027809707 0.010428637 0.7396872
-0.027978567 0.0093262196 0.74065918
-0.028150044 0.0082104504 0.74164605
-0.028327009 0.0070817769 0.74266458
-0.02850678 0.0059389174 0.74369931
-0.028690234 0.004781723 0.74475515
-0.028879685 0.0036099553 0.74584556
-0.029071892 0.0024226904 0.74695176
-0.029271714 0.0012196898 0.74810183
-0.029475521 2.9802322e-08 0.74927491
-0.029687371 -0.0012369454 0.75049424
-0.029905295 -0.0024920702 0.7517485
-0.030132676 -0.0037665665 0.75305718
-0.030367542 -0.005061239 0.7544089
-0.030617129 -0.0063785613 0.75584543
-0.030878862 -0.0077196658 0.75735188
-0.031156806 -0.0090873837 0.7589516
-0.031462662 -0.010487556 0.76071203
-0.031805452 -0.011927038 0.76268494
-0.032232609 -0.013430238 0.76514339
-0.025864134 0.049479216 0.73496163
-0.025319757 0.047336966 0.73169225
-0.024969 0.045595586 0.72958571
-0.024697009 0.044025123 0.72795218
-0.024471173 0.042558551 0.72659588
-0.024275677 0.041163117 0.72542179
-0.024102969 0.03982231 0.72438455
-0.023946526 0.038522691 0.72344494
-0.023801787 0.037254989 0.72257566
-0.023665253 0.036012411 0.72175568
-0.023539994 0.034798265 0.72100341
-0.023439324 0.033630371 0.72039884
-0.023420142 0.032584548 0.72028363
-0.023470046 0.031633586 0.72058332
-0.023575855 0.030751139 0.72121882
-0.023688037 0.02986756 0.72189248
-0.023801206 0.028975397 0.72257221
-0.023915464 0.028074682 0.72325838
-0.024030907 0.027165413 0.7239517
-0.024148067 0.026247919 0.72465539
-0.0242687 0.025323868 0.72537988
-0.02439037 0.02439037 0.72611058
-0.024513355 0.023447573 0.7268492
-0.024637498 0.022495121 0.72759473
-0.024762902 0.021533012 0.72834796
-0.024889681 0.020561039 0.72910935
-0.025017675 0.019579053 0.72987807
-0.025147084 0.018586993 0.73065531
-0.025277836 0.017584592 0.73144054
-0.025411185 0.016572505 0.73224139
-0.025547761 0.015550822 0.73306155
-0.025686584 0.014518499 0.73389542
-0.025827022 0.013475001 0.73473883
-0.025969004 0.012419969 0.73559153
-0.026112456 0.011353254 0.73645306
-0.026257602 0.010274738 0.73732477
-0.026404472 0.0091841817 0.73820686
-0.026554026 0.0080816746 0.73910499
-0.026707474 0.0069671869 0.74002659
-0.026864395 0.0058400929 0.74096906
-0.027023487 0.0046997368 0.74192446
-0.027184477 0.0035458505 0.74289137
-0.027347397 0.0023780465 0.74386984
-0.027513055 0.0011962354 0.7448647
-0.027682412 2.9802322e-08 0.74588186
-0.027856478 -0.0012111366 0.74692726
-0.028033435 -0.0024376512 0.74799007
-0.028214052 -0.0036800802 0.74907476
-0.028399605 -0.0049390793 0.75018913
-0.028588092 -0.0062147975 0.7513212
-0.028782489 -0.0075084567 0.75248861
-0.028981512 -0.0088204443 0.75368392
-0.029185299 -0.010151386 0.75490785
-0.029396392 -0.011502951 0.75617564
-0.029612614 -0.012875021 0.75747424
-0.029838547 -0.014270574 0.75883114
-0.030071126 -0.015689254 0.76022792
-0.030315015 -0.017134547 0.76169264
-0.030570816 -0.018608272 0.76322895
-0.030838754 -0.020112216 0.7648381
-0.031127289 -0.021653742 0.76657104
-0.031442359 -0.02323997 0.76846319
-0.031795025 -0.024883032 0.77058125
-0.032230239 -0.026624948 0.77319509
-0.024147568 0.04939276 0.73124444
-0.023911672 0.047823399 0.72976327
-0.02374083 0.046402544 0.72869062
-0.023582611 0.045021385 0.72769713
-0.023382949 0.043577313 0.72644359
-0.023199299 0.042180538 0.72529048
-0.023036344 0.040837198 0.7242673
-0.022888625 0.039534926 0.7233398
-0.022753228 0.038266808 0.72248966
-0.022626152 0.037024647 0.72169185
-0.022506448 0.035805762 0.72094017
-0.022394745 0.034610093 0.72023886
-0.022295233 0.033442885 0.71961403
-0.02225065 0.032364607 0.71933413
-0.022275724 0.031388551 0.71949154
-0.022363285 0.030495405 0.72004133
-0.022466647 0.029615134 0.72069031
-0.022570968 0.028726727 0.72134531
-0.022676263 0.027829975 0.72200644
-0.022782624 0.026924938 0.72267425
-0.022891428 0.026012987 0.72335744
-0.023002006 0.025093108 0.72405171
-0.023113573 0.0241642 0.72475225
-0.023226229 0.023226202 0.72545958
-0.023340072 0.022279173 0.72617429
-0.023454955 0.021322697 0.72689569
-0.023571055 0.020356834 0.72762465
-0.023688227 0.019381285 0.72836035
-0.02380657 0.01839599 0.72910339
-0.023926187 0.017400831 0.7298544
-0.024047103 0.016395777 0.73061359
-0.024169959 0.015380889 0.73138499
-0.024295431 0.014356434 0.73217285
-0.024423033 0.013321668 0.73297399
-0.024551889 0.012275964 0.73378307
-0.024682116 0.011219174 0.73460072
-0.024813822 0.010151148 0.73542762
-0.024946848 0.0090715885 0.73626292
-0.025081402 0.0079804659 0.73710781
-0.025217514 0.0068775117 0.73796237
-0.025355503 0.0057626367 0.73882884
-0.025496703 0.004635781 0.73971534
-0.025640186 0.0034964085 0.74061626
-0.025786512 0.0023442507 0.74153495
-0.025934517 0.0011788309 0.7424643
-0.026084127 -0 0.74340367
-0.026235579 -0.0011925101 0.74435455
-0.02638912 -0.0023989975 0.74531859
-0.026544791 -0.0036197305 0.74629599
-0.026705034 -0.0048554242 0.74730211
-0.026867665 -0.0061062574 0.74832326
-0.027034076 -0.0073729157 0.74936813
-0.027202675 -0.0086553693 0.75042677
-0.02737339 -0.0099539459 0.75149858
-0.027547421 -0.011269391 0.75259131
-0.027725441 -0.012602448 0.75370908
-0.027908036 -0.013954014 0.75485551
-0.028093418 -0.015323639 0.75601947
-0.02828409 -0.016713291 0.75721663
-0.028478978 -0.018122971 0.75844032
-0.02867745 -0.019552767 0.75968653
-0.028883683 -0.021006286 0.76098132
-0.02909329 -0.022481143 0.76229739
-0.029311081 -0.02398178 0.7636649
-0.029533757 -0.025506377 0.76506299
-0.029766476 -0.027060419 0.7665242
-0.030005507 -0.028641582 0.76802504
-0.030258201 -0.030258179 0.7696116
-0.030520167 -0.031907409 0.77125645
-0.030797292 -0.033597052 0.77299654
-0.031096034 -0.035336405 0.77487218
-0.031420086 -0.03713277 0.77690685
-0.031783655 -0.039007187 0.77918959
-0.032227494 -0.041016817 0.7819764
-0.023774102 0.053208739 0.73600769
-0.023159189 0.050729662 0.73196292
-0.022657756 0.048552364 0.72866464
-0.022412924 0.046960413 0.72705424
-0.022314902 0.045692414 0.72640949
-0.022236485 0.044472992 0.72589368
-0.022122744 0.043192059 0.72514552
-0.021971522 0.041850537 0.72415078
-0.021833643 0.040548205 0.72324383
-0.021706158 0.039277852 0.72240525
-0.021588136 0.038036257 0.7216289
-0.021475816 0.036815703 0.72089016
-0.021370804 0.035618037 0.72019941
-0.021269565 0.034436435 0.7195335
-0.021174304 0.033273935 0.71890688
-0.021119028 0.032181382 0.71854329
-0.021124456 0.03118372 0.71857899
-0.021188887 0.030269861 0.71900278
-0.021284714 0.029393196 0.7196331
-0.021381339 0.028508514 0.72026873
-0.021479512 0.027616531 0.72091442
-0.021579407 0.026717365 0.72157156
-0.021680238 0.025809854 0.72223479
-0.021782015 0.024893731 0.72290426
-0.021884676 0.023968905 0.72357953
-0.021988384 0.023035467 0.7242617
-0.022093082 0.022093058 0.72495043
-0.022198783 0.021141708 0.72564566
-0.022305498 0.020181149 0.72634757
-0.022413244 0.019211352 0.72705626
-0.022522038 0.018232137 0.72777194
-0.022631811 0.017243296 0.72849399
-0.022742989 0.016245008 0.72922528
-0.022855768 0.015237212 0.72996712
-0.022970431 0.01421982 0.73072135
-0.023087017 0.013192564 0.73148823
-0.02320488 0.012154937 0.73226357
-0.023323866 0.01110661 0.73304617
-0.023444077 0.010047466 0.73383689
-0.023565622 0.0089774132 0.73463643
-0.023688346 0.0078961253 0.73544365
-0.023812355 0.0068035424 0.73625934
-0.023937942 0.0056994855 0.7370854
-0.024064956 0.0045838058 0.73792088
-0.02419398 0.0034562945 0.73876959
-0.024325345 0.0023167133 0.73963362
-0.024458906 0.0011647344 0.74051219
-0.02459443 2.9802322e-08 0.74140358
-0.024731364 -0.0011776388 0.74230427
-0.024869831 -0.0023685396 0.74321508
-0.025009958 -0.0035728514 0.74413687
-0.025151774 -0.0047907829 0.74506968
-0.025295619 -0.0060227215 0.74601585
-0.025441635 -0.0072690248 0.74697638
-0.025590921 -0.0085302889 0.7479583
-0.025742287 -0.0098065734 0.74895394
-0.025896743 -0.011098623 0.74996996
-0.02605317 -0.01240623 0.75099885
-0.026211502 -0.013729811 0.75204033
-0.026372325 -0.015069902 0.75309819
-0.026535247 -0.016426593 0.75416982
-0.026702477 -0.017801672 0.75526983
-0.026872521 -0.019194603 0.75638831
-0.027045801 -0.020606309 0.75752807
-0.027222514 -0.022037268 0.75869054
-0.027402397 -0.023487747 0.75987375
-0.027585156 -0.024958014 0.76107591
-0.027772719 -0.026450187 0.76230961
-0.027964601 -0.027964592 0.76357174
-0.028159536 -0.029500455 0.76485401
-0.028361326 -0.031062394 0.76618135
-0.028566685 -0.03264761 0.76753211
-0.028777555 -0.034258962 0.76891917
-0.028995333 -0.035898954 0.77035165
-0.029218072 -0.037566096 0.77181679
-0.029449951 -0.039266586 0.77334201
-0.029687939 -0.040997595 0.77490747
-0.029936837 -0.042766899 0.77654469
-0.023302775 0.055926681 0.7405715
-0.022743559 0.053447366 0.73670912
-0.022326769 0.051351607 0.73383051
-0.021553012 0.048494309 0.72848648
-0.02111513 0.046453297 0.72546214
-0.021004325 0.04515931 0.72469687
-0.020951573 0.043998331 0.72433251
-0.020895706 0.042836249 0.72394663
-0.020781087 0.0415622 0.72315502
-0.02066219 0.04029128 0.72233385
-0.020551391 0.039047658 0.72156858
-0.020447254 0.037827432 0.72084939
-0.020347577 0.036625654 0.7201609
-0.020254521 0.035445392 0.71951818
-0.020163611 0.034278154 0.71889037
-0.020077512 0.033127934 0.71829563
-0.020014748 0.032023609 0.71786225
-0.020009093 0.031014085 0.71782315
-0.02005179 0.030077696 0.71811807
-0.020137466 0.029199332 0.71870977
-0.020227313 0.028318256 0.71933031
-0.020317966 0.027429283 0.7199564
-0.020409647 0.026532561 0.72058964
-0.020502936 0.025628686 0.72123396
-0.020597151 0.024716586 0.72188461
-0.020692164 0.023796022 0.72254086
-0.020788061 0.022866845 0.72320318
-0.020884922 0.021929204 0.72387218
-0.020982616 0.020982623 0.72454691
-0.021081302 0.02002728 0.72522855
-0.021180846 0.019062757 0.72591603
-0.021281336 0.018089175 0.72661006
-0.021382859 0.017106324 0.72731125
-0.021485822 0.016114384 0.72802234
-0.02159033 0.015113264 0.72874415
-0.021696333 0.014102638 0.72947627
-0.021803385 0.013082027 0.73021567
-0.021911494 0.012051344 0.73096234
-0.022020604 0.011010319 0.73171592
-0.022130886 0.0099589229 0.73247761
-0.022242278 0.0088969469 0.73324698
-0.022354797 0.0078241825 0.73402411
-0.022468461 0.0067405701 0.73480916
-0.022583285 0.0056458414 0.73560214
-0.022699552 0.0045399368 0.73640519
-0.022817107 0.0034225881 0.73721707
-0.022937035 0.0022937357 0.73804539
-0.023058232 0.0011529624 0.73888242
-0.02318144 -0 0.7397334
-0.023306154 -0.0011653006 0.74059474
-0.023432309 -0.0023432374 0.7414661
-0.023559744 -0.0035339594 0.74234617
-0.023688573 -0.004737705 0.74323595
-0.023818914 -0.0059546828 0.74413621
-0.023950985 -0.0071852803 0.7450484
-0.024084628 -0.0084295869 0.74597144
-0.024220362 -0.0096881092 0.74690884
-0.024358632 -0.010961354 0.74786383
-0.024498491 -0.012249202 0.74882984
-0.024641188 -0.013552636 0.74981534
-0.024785662 -0.014871389 0.75081319
-0.024931734 -0.016205579 0.75182211
-0.025079856 -0.017555863 0.75284505
-0.025229963 -0.018922448 0.75388181
-0.025381988 -0.020305574 0.75493181
-0.025537498 -0.021706849 0.75600582
-0.02569548 -0.023125917 0.75709701
-0.025855429 -0.024562657 0.75820172
-0.026019204 -0.026019216 0.75933284
-0.026185181 -0.027494431 0.76047915
-0.026353875 -0.028989226 0.76164424
-0.026524637 -0.030503303 0.7628237
-0.026699664 -0.032039583 0.76403248
-0.026878232 -0.033597767 0.76526582
-0.027059201 -0.035176903 0.76651573
-0.027244624 -0.036780238 0.7677964
-0.027434375 -0.03840813 0.76910686
-0.027626788 -0.040058792 0.77043581
-0.027824782 -0.041737169 0.77180332
-0.028027087 -0.043441981 0.77320063
-0.028232891 -0.045172602 0.77462196
-0.022127321 0.055900633 0.7404964
-0.02186802 0.054094613 0.73861128
-0.021556923 0.052190453 0.73634958
-0.021086402 0.04994151 0.73292875
-0.019957421 0.046217203 0.72472095
-0.01976973 0.044742048 0.72335637
-0.019726457 0.043605894 0.72304183
-0.019691123 0.042491376 0.72278488
-0.019618858 0.04130286 0.72225958
-0.019516135 0.040059477 0.72151268
-0.019419484 0.038838983 0.72081006
-0.019327091 0.037636995 0.72013831
-0.019239699 0.036454171 0.71950305
-0.019155495 0.035286456 0.71889079
-0.019074665 0.034133643 0.71830314
-0.018997261 0.032995254 0.71774042
-0.018931005 0.031883806 0.71725881
-0.018909784 0.030852854 0.71710443
-0.018943129 0.029910237 0.71734685
-0.019017339 0.029026479 0.71788639
-0.01910091 0.028148741 0.718494
-0.019185154 0.027263135 0.71910644
-0.019270208 0.02636978 0.71972483
-0.019356219 0.025468737 0.72035009
-0.019443607 0.024560362 0.72098541
-0.019531785 0.023643762 0.72162646
-0.019620765 0.022718817 0.72227341
-0.019710563 0.021785378 0.72292626
-0.019801185 0.020843387 0.72358501
-0.019892642 0.019892693 0.72424996
-0.019984951 0.018933117 0.72492105
-0.020078119 0.017964661 0.72559839
-0.020172158 0.016987085 0.72628212
-0.020267086 0.01600036 0.72697222
-0.020363057 0.015004396 0.72766995
-0.020460237 0.013999104 0.72837651
-0.020558873 0.012984604 0.72909355
-0.020658616 0.011960268 0.7298187
-0.020759255 0.010925919 0.73055035
-0.020860953 0.0098815262 0.73128974
-0.020963579 0.0088267922 0.73203588
-0.021067219 0.0077616572 0.73278934
-0.021171968 0.0066858828 0.73355091
-0.021277761 0.0055994391 0.73432004
-0.021384701 0.0045020878 0.73509741
-0.021493047 0.0033936501 0.73588514
-0.021602992 0.0022740066 0.7366845
-0.021714069 0.0011428297 0.73749202
-0.021826968 2.9802322e-08 0.73831278
-0.021941045 -0.0011548102 0.73914218
-0.022056323 -0.0023216903 0.73998028
-0.022172818 -0.0035009384 0.7408272
-0.022290463 -0.0046927035 0.74168247
-0.02240945 -0.0058972239 0.74254757
-0.022529805 -0.007114619 0.74342251
-0.022651732 -0.0083453357 0.74430901
-0.022775078 -0.0095894635 0.74520576
-0.022900239 -0.010847479 0.74611568
-0.023027441 -0.012119651 0.74704045
-0.023156159 -0.013406157 0.74797618
-0.023286609 -0.014707327 0.74892461
-0.023419218 -0.016023636 0.74988878
-0.023553248 -0.017354995 0.75086313
-0.023688922 -0.018701762 0.75184953
-0.023826266 -0.020064205 0.75284803
-0.023965415 -0.021442741 0.7538597
-0.024106303 -0.022837549 0.75488394
-0.024249585 -0.024249583 0.75592566
-0.024395529 -0.025679499 0.75698662
-0.024543241 -0.027126729 0.75806057
-0.024693184 -0.02859211 0.75915062
-0.024845844 -0.030076534 0.76026052
-0.025000734 -0.031579852 0.76138657
-0.025157904 -0.033102483 0.76252919
-0.025317064 -0.034644395 0.76368636
-0.025478709 -0.036206543 0.76486146
-0.025644293 -0.03779158 0.76606536
-0.025811926 -0.03939715 0.7672841
-0.025981883 -0.041024029 0.76851964
-0.026156154 -0.042675793 0.76978666
-0.026333267 -0.044350743 0.7710743
-0.026512921 -0.046048731 0.77238035
-0.021144807 0.056386173 0.74189377
-0.02093436 0.054661989 0.74027878
-0.020680416 0.052849978 0.73832995
-0.020350147 0.050875396 0.73579544
-0.019783167 0.048358887 0.73144448
-0.018593453 0.044417679 0.72231454
-0.018545335 0.043272465 0.72194529
-0.018518519 0.042181075 0.72173953
-0.018479904 0.041066468 0.72144318
-0.018393043 0.039851636 0.72077656
-0.018307684 0.038649589 0.7201215
-0.018225964 0.037464499 0.71949446
-0.018148296 0.036296606 0.71889842
-0.018073115 0.035142213 0.71832144
-0.018000614 0.034001172 0.71776509
-0.017930731 0.032873034 0.71722877
-0.017866937 0.031763464 0.71673918
-0.01784127 0.030726641 0.71654224
-0.017858233 0.029763728 0.71667242
-0.017920228 0.028871506 0.71714813
-0.017997891 0.027996689 0.71774417
-0.018076167 0.027114302 0.71834487
-0.018155189 0.026224166 0.71895134
-0.018234907 0.025326252 0.71956301
-0.018316014 0.024421334 0.72018546
-0.018397784 0.023508281 0.72081298
-0.018480351 0.022587091 0.72144663
-0.018563598 0.021657556 0.72208548
-0.018647665 0.020719647 0.72273052
-0.01873243 0.019773155 0.7233811
-0.018818036 0.01881808 0.724038
-0.01890436 0.017854095 0.72470045
-0.018991547 0.016881406 0.72536951
-0.019079477 0.015899569 0.7260443
-0.019168289 0.014908701 0.72672588
-0.019257866 0.013908476 0.7274133
-0.019348564 0.012899071 0.7281093
-0.019440541 0.011880368 0.72881514
-0.019533539 0.010851979 0.72952878
-0.019627506 0.0098137856 0.73024988
-0.01972238 0.0087655485 0.73097801
-0.019818176 0.0077070892 0.73171312
-0.019914908 0.0066383183 0.73245543
-0.020012587 0.005559057 0.73320496
-0.020111231 0.0044691861 0.733962
-0.020210849 0.0033684969 0.73472655
-0.020311538 0.0022568703 0.73549914
-0.020413626 0.0011341274 0.73628265
-0.020516744 2.9802322e-08 0.7370739
-0.020621385 -0.0011456311 0.73787701
-0.020727338 -0.0023030639 0.73869008
-0.020834308 -0.0034723282 0.73951095
-0.020942468 -0.0046538711 0.74034101
-0.021051673 -0.0058476925 0.74117905
-0.021162109 -0.0070540309 0.74202657
-0.021273794 -0.0082731545 0.74288362
-0.021386577 -0.0095050931 0.74374908
-0.021500994 -0.010750502 0.74462712
-0.021617167 -0.012009531 0.74551862
-0.021734692 -0.013282299 0.7464205
-0.021853499 -0.014568985 0.74733222
-0.021974063 -0.015870154 0.74825746
-0.022096148 -0.017185837 0.74919438
-0.022219596 -0.018516332 0.75014168
-0.022344433 -0.019861698 0.75109971
-0.022470774 -0.021222383 0.75206929
-0.022598933 -0.022598952 0.75305277
-0.022728467 -0.023991168 0.75404686
-0.022859592 -0.025399536 0.7550531
-0.022993322 -0.026825517 0.75607932
-0.02312883 -0.028268546 0.75711924
-0.023265842 -0.029728532 0.75817066
-0.023404691 -0.03120622 0.75923622
-0.023546034 -0.032702804 0.7603209
-0.023689205 -0.034217715 0.76141953
-0.023834547 -0.03575179 0.76253492
-0.023981579 -0.03730464 0.76366323
-0.024130434 -0.038876802 0.76480556
-0.024282252 -0.040470392 0.76597059
-0.024436772 -0.042085499 0.76715636
-0.024593158 -0.043721139 0.7683565
-0.024751673 -0.045378059 0.76957291
-0.024913521 -0.047058851 0.77081501
-0.020304212 0.058523923 0.74460858
-0.020131117 0.056840807 0.74320215
-0.019952282 0.055162221 0.74174899
-0.019743929 0.053424746 0.74005604
-0.019468928 0.051535428 0.73782146
-0.019080173 0.049383998 0.73466271
-0.017473029 0.044196486 0.72160399
-0.017394695 0.042975157 0.72096741
-0.017378014 0.041911691 0.72083187
-0.017355941 0.040837526 0.72065252
-0.017289348 0.039663851 0.72011143
-0.017213881 0.038478106 0.71949822
-0.017141104 0.037307143 0.71890688
-0.01707205 0.036152631 0.71834582
-0.017004697 0.035009712 0.71779853
-0.016939687 0.033879399 0.71727026
-0.016876582 0.032760441 0.71675754
-0.016815286 0.031652302 0.71625954
-0.016782634 0.030603647 0.71599412
-0.0167925 0.02963385 0.71607435
-0.01684268 0.028731674 0.71648204
-0.016914751 0.027859628 0.71706766
-0.016987499 0.026980191 0.71765876
-0.017060816 0.026093036 0.71825445
-0.017135002 0.025198549 0.71885729
-0.017210187 0.024296761 0.71946824
-0.017286038 0.023386985 0.72008455
-0.017362498 0.022469133 0.72070575
-0.017439699 0.021543175 0.72133315
-0.017517587 0.020608962 0.72196597
-0.017596116 0.019666284 0.72260404
-0.017675411 0.018715143 0.72324836
-0.017755361 0.017755359 0.72389805
-0.017836105 0.016786933 0.72455412
-0.017917583 0.015809685 0.72521609
-0.017999746 0.014823318 0.72588378
-0.01808273 0.01382798 0.72655803
-0.018166482 0.012823403 0.7272386
-0.018251279 0.011809677 0.72792757
-0.018337138 0.010786563 0.72862518
-0.018424008 0.0097539127 0.72933102
-0.018511636 0.0087113976 0.73004305
-0.018600173 0.0076589286 0.73076248
-0.018689489 0.0065963268 0.73148823
-0.018779738 0.005523473 0.7322216
-0.018870793 0.004440248 0.73296142
-0.018962808 0.0033464134 0.73370904
-0.01905565 0.0022418797 0.73446345
-0.019149479 0.0011264682 0.7352258
-0.019244162 2.9802322e-08 0.73599517
-0.01934001 -0.0011375844 0.73677403
-0.019437339 -0.0022867322 0.7375648
-0.019535653 -0.0034474432 0.73836374
-0.019634968 -0.0046199858 0.73917067
-0.019735452 -0.0058045089 0.73998713
-0.019837046 -0.0070012808 0.7408126
-0.019939693 -0.0082104206 0.74164671
-0.020043408 -0.0094321966 0.74248946
-0.020148207 -0.010666698 0.74334097
-0.020254267 -0.011914253 0.74420279
-0.020361781 -0.013175249 0.7450763
-0.02047044 -0.014449716 0.74595928
-0.020580268 -0.015737832 0.74685168
-0.020691786 -0.017040253 0.74775779
-0.020804692 -0.018357068 0.74867529
-0.020918839 -0.019688308 0.74960268
-0.021034328 -0.0210343 0.75054115
-0.021151192 -0.022395372 0.75149071
-0.021269269 -0.023771554 0.75245017
-0.021388765 -0.025163233 0.75342107
-0.021509793 -0.026570916 0.75440443
-0.021633031 -0.027995646 0.75540584
-0.021757597 -0.029436737 0.75641799
-0.0218837 -0.030894578 0.75744265
-0.022011274 -0.032369494 0.75847924
-0.022140732 -0.033862263 0.75953114
-0.022272015 -0.035373211 0.76059794
-0.022405161 -0.036902606 0.76167977
-0.022540011 -0.038450569 0.76277542
-0.022676596 -0.040017515 0.76388532
-0.022814743 -0.041603327 0.76500779
-0.022955416 -0.043210149 0.76615083
-0.023098469 -0.04483819 0.76731318
-0.023243209 -0.046486408 0.76848936
-0.023389883 -0.048155606 0.7696811
-0.02605181 -0.055168539 0.79131043
-0.019222479 0.058868885 0.74558103
-0.019084783 0.057254344 0.74439222
-0.018932158 0.05561322 0.7430746
-0.018745922 0.05389452 0.74146676
-0.018519817 0.052086979 0.73951471
-0.018232564 0.050139576 0.7370348
-0.016411455 0.044105798 0.72131258
-0.016274944 0.042721719 0.72013402
-0.016261427 0.041669905 0.72001731
-0.016247492 0.040618777 0.71989703
-0.016202291 0.039493114 0.71950686
-0.016135648 0.038322181 0.71893144
-0.01607107 0.03716436 0.71837389
-0.016009212 0.036020756 0.71783996
-0.015949005 0.034888506 0.71732008
-0.015890684 0.03376773 0.7168166
-0.015833631 0.032656908 0.71632397
-0.015778501 0.031557024 0.71584809
-0.015742639 0.030501366 0.71553844
-0.015746443 0.029524624 0.71557128
-0.015783317 0.028607279 0.71588969
-0.015848976 0.02773574 0.71645647
-0.015916357 0.026858896 0.71703821
-0.015984582 0.025974959 0.71762723
-0.016053556 0.025083691 0.71822268
-0.016123183 0.024184823 0.71882379
-0.01619336 0.023277968 0.71942973
-0.016264152 0.022363216 0.7200408
-0.016335564 0.021440476 0.72065741
-0.016407665 0.020509601 0.72127986
-0.016480345 0.01957041 0.72190732
-0.016553674 0.018622935 0.72254038
-0.01662766 0.017666906 0.7231791
-0.016702365 0.016702384 0.72382402
-0.016777689 0.0157291 0.72447431
-0.016853692 0.014746994 0.7251305
-0.016930388 0.013755947 0.72579265
-0.017007848 0.012755901 0.72646135
-0.017086018 0.011746645 0.72713625
-0.017165281 0.0107283 0.72782058
-0.017245222 0.0097004473 0.72851068
-0.017326098 0.0086630583 0.72920895
-0.017407803 0.0076159239 0.72991437
-0.017490216 0.0065588355 0.73062587
-0.017573478 0.0054917336 0.7313447
-0.017657537 0.0044143796 0.73207033
-0.017742336 0.003326714 0.73280245
-0.017828023 0.0022285283 0.7335422
-0.017914541 0.0011197031 0.73428917
-0.018001832 -0 0.73504281
-0.01809012 -0.0011306405 0.73580498
-0.018179484 -0.0022723973 0.73657644
-0.018269734 -0.0034255385 0.73735565
-0.018360887 -0.0045902133 0.73814261
-0.018453455 -0.0057666898 0.73894173
-0.018546959 -0.0069550872 0.73974901
-0.018641418 -0.0081556141 0.74056453
-0.018736841 -0.00936836 0.74138832
-0.018833173 -0.010593653 0.74221998
-0.018930502 -0.011831522 0.74306023
-0.019028917 -0.013082385 0.74390996
-0.019128283 -0.014346212 0.74476779
-0.019228771 -0.015623361 0.74563527
-0.019330399 -0.01691407 0.74651265
-0.019433741 -0.018219113 0.74740487
-0.019538196 -0.019538164 0.74830663
-0.019643776 -0.02087149 0.74921811
-0.019750506 -0.02221933 0.75013965
-0.019858485 -0.023581922 0.75107181
-0.019967819 -0.024959743 0.75201571
-0.020078361 -0.026352823 0.7529701
-0.020190224 -0.027761549 0.75393581
-0.020303769 -0.029186696 0.75491613
-0.020418601 -0.030627877 0.75590742
-0.020534739 -0.032085508 0.75691009
-0.020652205 -0.033559829 0.7579242
-0.020771477 -0.035051823 0.75895393
-0.02089241 -0.036561698 0.75999796
-0.021014944 -0.038089573 0.76105583
-0.021138828 -0.039635271 0.76212537
-0.021264277 -0.041199535 0.76320845
-0.021391226 -0.042782426 0.7643044
-0.021519797 -0.044384569 0.76541442
-0.021650909 -0.04600817 0.76654631
-0.021783525 -0.04765144 0.76769125
-0.021917878 -0.049315244 0.76885116
-0.024027571 -0.055563778 0.78706479
-0.024099367 -0.057235956 0.78768462
-0.018128878 0.059221029 0.74657375
-0.018010015 0.057632059 0.74547911
-0.017878218 0.056018442 0.74426538
-0.017712533 0.054318428 0.74273968
-0.017524041 0.052572101 0.74100387
-0.017281549 0.050692558 0.73877078
-0.016941004 0.048564255 0.73563474
-0.015183497 0.042513818 0.71945018
-0.01516904 0.041462064 0.71931696
-0.015158525 0.040422767 0.71922016
-0.015128761 0.039334774 0.71894604
-0.015071106 0.038180172 0.71841514
-0.015013839 0.037034124 0.71788776
-0.014958511 0.035900474 0.71737826
-0.014904634 0.034777492 0.71688211
-0.01485238 0.033665419 0.71640092
-0.014800836 0.032561868 0.71592629
-0.014751161 0.031469166 0.71546882
-0.014711415 0.030403644 0.71510279
-0.014708117 0.029416233 0.71507245
-0.014740193 0.028497696 0.71536785
-0.01479843 0.027623743 0.71590412
-0.014861089 0.026749998 0.71648109
-0.01492428 0.025868773 0.71706307
-0.014988013 0.024980009 0.71764994
-0.015052291 0.024083704 0.71824187
-0.015117122 0.023179621 0.71883893
-0.015182567 0.022267759 0.71944159
-0.015248528 0.02134794 0.72004902
-0.015315064 0.020420104 0.7206617
-0.015382185 0.019484133 0.72127986
-0.015449896 0.018539906 0.72190332
-0.015518206 0.017587334 0.72253239
-0.015587123 0.016626269 0.72316712
-0.015656656 0.01565668 0.72380739
-0.015726808 0.014678389 0.72445345
-0.015797595 0.013691276 0.72510529
-0.015869133 0.012695312 0.7257641
-0.015941324 0.011690319 0.72642881
-0.016014174 0.010676146 0.72709972
-0.016088098 0.0096528828 0.72778046
-0.016162651 0.0086201131 0.72846705
-0.016237896 0.0075777173 0.72915995
-0.016313845 0.0065255463 0.72985941
-0.016390512 0.0054635108 0.73056537
-0.016467959 0.0043914616 0.73127854
-0.016546082 0.0033092499 0.73199797
-0.016624948 0.0022166669 0.73272425
-0.016704571 0.0011136532 0.73345745
-0.016785024 5.9604645e-08 0.73419833
-0.01686619 -0.0011244118 0.73494589
-0.016948147 -0.0022597313 0.73570055
-0.017030967 -0.003406167 0.73646325
-0.017114799 -0.0045639277 0.73723519
-0.01719966 -0.005733192 0.73801666
-0.017285366 -0.006914109 0.73880589
-0.01737193 -0.0081069171 0.7396031
-0.017459366 -0.0093116462 0.7404083
-0.017547892 -0.010528713 0.74122357
-0.017637324 -0.011758178 0.74204707
-0.017727599 -0.01300019 0.74287844
-0.017818874 -0.014255047 0.74371892
-0.017911023 -0.015522897 0.74456751
-0.018004274 -0.01680398 0.7454263
-0.018098721 -0.018098712 0.74629605
-0.018194165 -0.019407094 0.74717492
-0.01829062 -0.020729363 0.74806321
-0.018388182 -0.022065789 0.74896163
-0.018486941 -0.023416787 0.74987108
-0.018587077 -0.024782747 0.75079322
-0.018688304 -0.026163608 0.75172538
-0.018790638 -0.027559578 0.75266778
-0.018894102 -0.028970927 0.75362056
-0.01899871 -0.030397892 0.75458384
-0.019104483 -0.031840801 0.75555789
-0.019211356 -0.033299685 0.75654215
-0.019319516 -0.034775108 0.75753808
-0.019429663 -0.036268681 0.75855243
-0.019541074 -0.037779361 0.75957847
-0.019653855 -0.039307743 0.76061702
-0.019767858 -0.04085353 0.76166683
-0.019883193 -0.042417437 0.76272893
-0.019999878 -0.043999732 0.76380348
-0.020118127 -0.04560107 0.76489246
-0.020238422 -0.047222942 0.76600021
-0.020360166 -0.048864394 0.76712132
-0.020514844 -0.050603271 0.76854575
-0.02218209 -0.056194603 0.78389919
-0.022293946 -0.057964236 0.78492922
-0.017167397 0.061312139 0.74901193
-0.017012306 0.059543073 0.74748158
-0.016907848 0.057969749 0.74645102
-0.016789757 0.056365639 0.74528581
-0.016648838 0.054703325 0.74389541
-0.016485879 0.052990317 0.74228758
-0.016275024 0.051150084 0.7402072
-0.016016582 0.049193799 0.73765719
-0.01411582 0.042347461 0.71890312
-0.014091454 0.041267872 0.71866268
-0.014084972 0.040242761 0.71859872
-0.014069266 0.039193004 0.71844375
-0.014018815 0.038051099 0.71794599
-0.013968068 0.0369156 0.71744525
-0.013918665 0.035790861 0.71695781
-0.013870442 0.034676135 0.71648204
-0.013823608 0.033571661 0.71601993
-0.013777225 0.032474935 0.71556228
-0.013732376 0.031388313 0.71511978
-0.013694796 0.03032425 0.71474904
-0.013686287 0.02932775 0.71466506
-0.013711573 0.028402567 0.7149145
-0.013761833 0.027523696 0.71541047
-0.01381957 0.026652038 0.71598011
-0.013877793 0.025773078 0.71655458
-0.013936508 0.024886668 0.71713388
-0.013995725 0.023992687 0.71771812
-0.014055397 0.023091018 0.7183069
-0.014115629 0.02218172 0.71890122
-0.014176378 0.021264613 0.7195006
-0.014237653 0.020339549 0.72010517
-0.014299461 0.019406408 0.72071505
-0.014361758 0.018465161 0.72132969
-0.014424649 0.017515659 0.72195023
-0.014488094 0.016557813 0.7225762
-0.0145521 0.015591562 0.72320771
-0.014616673 0.014616668 0.72384489
-0.014681771 0.013633102 0.72448713
-0.014747608 0.012640804 0.7251367
-0.014814143 0.011639684 0.72579318
-0.014881227 0.010629445 0.72645509
-0.014949084 0.0096101165 0.72712463
-0.015017617 0.0085815191 0.72780085
-0.015086834 0.0075434148 0.72848374
-0.015156639 0.0064957142 0.72917247
-0.015227091 0.0054382682 0.72986764
-0.015298203 0.0043709278 0.73056924
-0.015369982 0.0032936037 0.73127747
-0.015442437 0.0022061169 0.7319923
-0.015515577 0.0011082888 0.732714
-0.015589416 2.9802322e-08 0.73344249
-0.015663959 -0.001118809 0.73417801
-0.015739338 -0.0022484362 0.73492169
-0.015815446 -0.0033889711 0.73567265
-0.015892293 -0.004540652 0.73643088
-0.015969893 -0.0057035089 0.73719656
-0.016048312 -0.0068778098 0.73797023
-0.016127696 -0.008063823 0.73875356
-0.016207995 -0.0092616975 0.73954582
-0.016289096 -0.010471553 0.74034601
-0.016371079 -0.011693567 0.74115491
-0.016453823 -0.012927979 0.74197137
-0.016537413 -0.014174908 0.74279606
-0.016621852 -0.015434563 0.74362916
-0.01670716 -0.016707152 0.74447083
-0.016793415 -0.017992914 0.74532199
-0.016880497 -0.019291967 0.74618113
-0.016968487 -0.020604551 0.74704933
-0.017057538 -0.021931112 0.74792796
-0.017147884 -0.023272097 0.74881935
-0.017239118 -0.024627298 0.74971956
-0.017331401 -0.025997102 0.75063002
-0.017424678 -0.027381599 0.75155038
-0.017518966 -0.028781146 0.75248069
-0.017614277 -0.030195892 0.75342107
-0.017710857 -0.031626523 0.75437403
-0.017808504 -0.033072889 0.75533742
-0.017907156 -0.034535199 0.75631076
-0.018007295 -0.036014587 0.75729883
-0.018108642 -0.037510723 0.75829875
-0.018211054 -0.039023638 0.75930929
-0.01831463 -0.040553808 0.76033127
-0.018419394 -0.042101443 0.76136488
-0.018525362 -0.043666929 0.76241046
-0.01863314 -0.045251906 0.76347387
-0.018742263 -0.046855658 0.76455057
-0.018852588 -0.048478067 0.76563907
-0.018964218 -0.050119728 0.76674044
-0.019334801 -0.052480161 0.77039689
-0.020525087 -0.057177007 0.78214097
-0.020630756 -0.058945 0.78318352
-0.015966566 0.061409861 0.74928188
-0.015874457 0.05983451 0.74830323
-0.015784176 0.058280051 0.7473439
-0.015676146 0.056675315 0.74619597
-0.0155553 0.05504185 0.74491197
-0.015408863 0.053338379 0.74335599
-0.015232981 0.051557779 0.74148715
-0.015018534 0.049676716 0.73920852
-0.013067144 0.042216957 0.71847379
-0.013031906 0.041100621 0.71809936
-0.013028306 0.040087134 0.71806109
-0.013018084 0.039054275 0.71795249
-0.012977403 0.037933975 0.71752018
-0.012932429 0.036807686 0.71704239
-0.012888498 0.035691231 0.7165755
-0.012845419 0.034583867 0.7161178
-0.012803517 0.033486158 0.71567261
-0.012762099 0.032396108 0.71523249
-0.012721366 0.031314164 0.7147997
-0.012685303 0.030249596 0.7144165
-0.0126737 0.029246986 0.71429324
-0.012691465 0.028311729 0.71448201
-0.012736873 0.027433276 0.71496445
-0.012789879 0.026563615 0.71552771
-0.012843286 0.025686592 0.71609515
-0.012897183 0.024802297 0.71666789
-0.012951535 0.023910522 0.7172454
-0.013006303 0.023011148 0.71782732
-0.013061581 0.022104234 0.71841466
-0.01311733 0.02118957 0.71900702
-0.013173558 0.02026701 0.71960449
-0.013230224 0.019336492 0.72020662
-0.013287425 0.018397987 0.72081441
-0.013345124 0.017451316 0.72142744
-0.013403279 0.01649636 0.72204542
-0.01346199 0.01553309 0.7226693
-0.013521219 0.014561296 0.72329861
-0.013581017 0.013581038 0.72393394
-0.013641491 0.012592167 0.72457659
-0.013702506 0.011594445 0.72522491
-0.01376407 0.010587782 0.72587907
-0.013826289 0.0095720589 0.72654015
-0.013889022 0.0085471272 0.72720677
-0.013952377 0.0075128376 0.72787988
-0.014016314 0.0064691007 0.72855926
-0.014080839 0.0054157376 0.72924495
-0.014145961 0.0043525994 0.7299369
-0.014211636 0.0032796562 0.73063469
-0.014277976 0.0021966398 0.73133957
-0.014344938 0.0011034906 0.73205107
-0.014412532 2.9802322e-08 0.73276937
-0.014480765 -0.0011138916 0.73349434
-0.014549593 -0.0022383928 0.73422569
-0.014619134 -0.0033735931 0.73496461
-0.01468951 -0.0045198202 0.73571241
-0.014760566 -0.005677104 0.73646736
-0.014832372 -0.0068457127 0.73723042
-0.01490482 -0.0080256462 0.73800021
-0.01497798 -0.0092172027 0.73877764
-0.015052038 -0.01042062 0.73956442
-0.015126891 -0.011636049 0.74035984
-0.015202492 -0.012863636 0.74116313
-0.015278853 -0.014103532 0.74197453
-0.015355986 -0.015355974 0.74279404
-0.015433898 -0.016621113 0.743622
-0.015512609 -0.017899126 0.74445832
-0.015592188 -0.019190371 0.74530387
-0.01567265 -0.020494998 0.74615884
-0.015753947 -0.021813124 0.74702269
-0.015836159 -0.023145169 0.74789631
-0.015919166 -0.024490982 0.74877822
-0.016003048 -0.025851041 0.74966949
-0.016087821 -0.027225524 0.7505703
-0.016173696 -0.028614938 0.75148273
-0.0162607 -0.03001973 0.75240719
-0.016348645 -0.031439692 0.75334173
-0.016437545 -0.032875061 0.75428629
-0.016527418 -0.034326166 0.75524127
-0.016618352 -0.035793394 0.75620753
-0.01671022 -0.037276626 0.75718367
-0.016803108 -0.038776398 0.75817066
-0.016897034 -0.040292919 0.75916874
-0.016992018 -0.041826516 0.76017797
-0.01708845 -0.043378353 0.76120263
-0.017186141 -0.044948339 0.76224065
-0.01728495 -0.046536356 0.76329052
-0.017384905 -0.048142791 0.76435256
-0.017485943 -0.049767673 0.76542622
-0.017599691 -0.051445246 0.76663482
-0.018325198 -0.054975569 0.77434379
-0.018956589 -0.058327913 0.78105265
-0.019042581 -0.060057342 0.78196633
-0.014795562 0.06164819 0.74994028
-0.014719343 0.060103983 0.7490629
-0.014642343 0.058569372 0.74817652
-0.014543291 0.056961238 0.74703634
-0.014438908 0.055349171 0.74583477
-0.01430762 0.053653598 0.74432349
-0.014160413 0.051921546 0.74262899
-0.013970773 0.050061971 0.74044603
-0.012036066 0.042126238 0.71817553
-0.011985296 0.040949762 0.71759105
-0.011982438 0.03994149 0.71755815
-0.011978054 0.038928688 0.71750772
-0.011945739 0.037828207 0.71713567
-0.011906126 0.03671056 0.71667975
-0.011867009 0.03560102 0.7162295
-0.011828659 0.034500271 0.71578807
-0.011791142 0.033408254 0.71535617
-0.011754209 0.032324135 0.71493101
-0.011717507 0.031246692 0.71450853
-0.011683634 0.030182719 0.71411866
-0.011670833 0.029177099 0.71397126
-0.011683136 0.028234273 0.71411288
-0.011722086 0.027351528 0.71456128
-0.011770491 0.026483595 0.71511847
-0.011819337 0.025608599 0.71568072
-0.011868549 0.024726152 0.7162472
-0.011918172 0.023836344 0.71681845
-0.011968213 0.022939086 0.71739447
-0.012018717 0.022034317 0.7179758
-0.012069607 0.02112186 0.71856159
-0.01212093 0.020201564 0.71915233
-0.012172692 0.01927346 0.71974826
-0.01222494 0.018337399 0.72034967
-0.012277595 0.017393291 0.72095573
-0.012330749 0.016441047 0.72156763
-0.012384365 0.015480459 0.72218484
-0.012438623 0.014511734 0.72280931
-0.012493358 0.013534486 0.7234394
-0.012548621 0.012548625 0.72407562
-0.012604376 0.011554003 0.72471732
-0.012660583 0.010550499 0.72536439
-0.012717338 0.0095380247 0.72601765
-0.012774606 0.0085164011 0.72667688
-0.012832345 0.0074855387 0.72734153
-0.012890656 0.0064453483 0.72801274
-0.012949497 0.0053956211 0.72869009
-0.013008832 0.0043362975 0.7293731
-0.013068761 0.0032671988 0.73006296
-0.013129244 0.0021882355 0.73075914
-0.01319029 0.0010991991 0.73146188
-0.013251857 2.9802322e-08 0.73217052
-0.013314051 -0.0011095107 0.73288649
-0.013376831 -0.0022294819 0.73360914
-0.013440155 -0.003360033 0.73433805
-0.013504134 -0.0045013726 0.73507452
-0.013568828 -0.0056536794 0.73581928
-0.013634248 -0.0068171024 0.73657227
-0.013700303 -0.0079918504 0.73733264
-0.013766999 -0.0091779828 0.73810041
-0.01383435 -0.010375708 0.73887569
-0.013902362 -0.011585295 0.73965859
-0.013971047 -0.012806773 0.74044919
-0.014040413 -0.014040411 0.74124765
-0.014110584 -0.015286446 0.74205542
-0.014181458 -0.016544998 0.74287128
-0.014253049 -0.017816275 0.74369532
-0.014325366 -0.019100487 0.74452782
-0.014398362 -0.020397663 0.74536812
-0.014472166 -0.02170825 0.74621761
-0.014546789 -0.023032397 0.74707663
-0.014622305 -0.024370492 0.7479459
-0.01469867 -0.025722682 0.74882495
-0.014775775 -0.02708894 0.74971247
-0.014853694 -0.028469563 0.75060946
-0.014932502 -0.029864997 0.75151652
-0.015012087 -0.031275183 0.7524327
-0.015092589 -0.032700568 0.75335932
-0.015173893 -0.034141243 0.75429523
-0.015256275 -0.03559795 0.75524354
-0.015339621 -0.037070721 0.756203
-0.015423951 -0.038559854 0.75717366
-0.015509281 -0.040065646 0.75815588
-0.015595626 -0.041588277 0.75914985
-0.015682871 -0.043127865 0.76015407
-0.015771097 -0.044684738 0.76116967
-0.015860323 -0.046259254 0.76219678
-0.015950562 -0.047851652 0.76323557
-0.016041834 -0.049462318 0.76428622
-0.016134156 -0.051091492 0.76534891
-0.016411195 -0.053336352 0.76853788
-0.017292773 -0.057642549 0.77868581
-0.017437343 -0.059577584 0.78034997
-0.017506801 -0.061273783 0.78114951
-0.01361345 0.061879337 0.75057876
-0.013547882 0.060349673 0.7497555
-0.013477 0.058808774 0.74886537
-0.01339275 0.057223588 0.74780738
-0.013298672 0.055612624 0.74662596
-0.013185041 0.053938836 0.74519908
-0.01305716 0.052228659 0.74359322
-0.012893713 0.050402701 0.74154067
-0.011027853 0.04210636 0.71811008
-0.010951434 0.040818989 0.71715051
-0.01095092 0.039821565 0.71714401
-0.010947879 0.03881526 0.71710581
-0.01092284 0.037733495 0.71679139
-0.010887904 0.036623001 0.7163527
-0.010853262 0.035519809 0.71591771
-0.010819162 0.034424633 0.71548951
-0.010785811 0.033337981 0.71507061
-0.010752981 0.032258958 0.71465838
-0.010720386 0.031186581 0.71424907
-0.010688337 0.030121684 0.71384662
-0.010675536 0.02911514 0.71368587
-0.010684637 0.028168589 0.71380019
-0.010716313 0.027277917 0.71419793
-0.010760303 0.026411682 0.71475035
-0.01080462 0.025538236 0.71530682
-0.010849339 0.024657577 0.71586841
-0.010894431 0.023769677 0.71643466
-0.010939862 0.022874266 0.71700519
-0.01098571 0.021971464 0.71758085
-0.011031906 0.021060944 0.71816099
-0.011078532 0.020142794 0.71874654
-0.011125627 0.019217014 0.71933794
-0.011173088 0.018283248 0.71993393
-0.01122107 0.017341673 0.72053647
-0.011269467 0.016391963 0.7211442
-0.01131832 0.015434086 0.72175765
-0.011367562 0.014467835 0.72237599
-0.011417232 0.013493091 0.72299981
-0.011467339 0.012509853 0.72362894
-0.011517929 0.011517972 0.72426426
-0.011568924 0.01051721 0.72490466
-0.011620375 0.0095075965 0.72555077
-0.011672285 0.0084889531 0.72620255
-0.011724702 0.0074611902 0.72686076
-0.011777551 0.006424129 0.72752452
-0.011830878 0.0053776503 0.72819412
-0.011884689 0.0043216944 0.72886986
-0.011939037 0.0032561421 0.72955227
-0.011993839 0.0021806955 0.73024052
-0.012049147 0.0010954142 0.73093504
-0.012105012 -0 0.73163658
-0.012161398 -0.001105547 0.73234463
-0.012218311 -0.0022214651 0.73305929
-0.012275761 -0.0033479035 0.73378074
-0.012333752 -0.0044849813 0.73450899
-0.012392295 -0.0056328177 0.7352441
-0.012451489 -0.0067917109 0.73598748
-0.012511348 -0.0079617202 0.73673916
-0.012571787 -0.0091431141 0.73749816
-0.01263281 -0.010335922 0.73826438
-0.012694479 -0.011540413 0.73903883
-0.012756702 -0.012756675 0.73982012
-0.01281954 -0.013984948 0.74060929
-0.012882998 -0.015225351 0.7414062
-0.012947141 -0.016478121 0.74221164
-0.013011873 -0.017743468 0.74302447
-0.013077254 -0.019021451 0.74384558
-0.01314335 -0.020312428 0.74467558
-0.013210118 -0.021616518 0.74551398
-0.013277513 -0.0229339 0.7463603
-0.013345654 -0.024264812 0.74721599
-0.013414497 -0.025609463 0.74808049
-0.013483999 -0.026967973 0.74895322
-0.013554507 -0.028341264 0.74983865
-0.013625754 -0.029728889 0.75073338
-0.013697756 -0.031131238 0.75163746
-0.013770522 -0.032548487 0.75255126
-0.013844064 -0.033980846 0.75347471
-0.013918398 -0.035428643 0.75440824
-0.013993533 -0.036891997 0.75535166
-0.014069485 -0.038371295 0.75630546
-0.014146265 -0.039866745 0.75726962
-0.014223888 -0.041378558 0.7582444
-0.014302366 -0.042907089 0.7592299
-0.014381716 -0.044452548 0.76022631
-0.014462143 -0.046015888 0.76123631
-0.014543669 -0.047597438 0.76226014
-0.014626055 -0.04919669 0.76329464
-0.014709378 -0.050814211 0.764341
-0.014822411 -0.052552193 0.76576042
-0.015320759 -0.055711806 0.77201837
-0.015829006 -0.058999002 0.77840078
-0.015914481 -0.060764343 0.77947402
-0.012417668 0.0620884 0.75115633
-0.012359765 0.060562909 0.75035644
-0.012297312 0.059027106 0.74949378
-0.012223769 0.057451725 0.74847788
-0.012140684 0.055847168 0.74733019
-0.012043338 0.054195017 0.74598551
-0.011929186 0.052488446 0.74440873
-0.011792436 0.050707549 0.7425198
-0.011622746 0.048815519 0.74017578
-0.0099287601 0.040707946 0.71677625
-0.009927202 0.039708853 0.71675479
-0.0099250162 0.038707554 0.71672457
-0.0099076563 0.037649095 0.71648479
-0.009876891 0.036544532 0.7160598
-0.0098463809 0.035447031 0.71563834
-0.0098163188 0.034357131 0.71522313
-0.009786793 0.033275098 0.71481526
-0.0097577013 0.032200426 0.7144134
-0.0097288443 0.03113234 0.71401477
-0.0097001903 0.030070603 0.71361899
-0.0096845226 0.029053569 0.71340263
-0.009691434 0.028105199 0.713498
-0.0097184479 0.027211666 0.71387118
-0.009758085 0.026346862 0.71441871
-0.0097980779 0.025475025 0.71497118
-0.0098384004 0.024596006 0.71552813
-0.0098790899 0.023709834 0.71609014
-0.0099201826 0.02281642 0.71665782
-0.0099616516 0.021915644 0.71723062
-0.010003435 0.02100721 0.71780783
-0.010045605 0.020091206 0.71839029
-0.010088132 0.019167453 0.71897775
-0.010130986 0.018235803 0.71956962
-0.010174241 0.017296225 0.72016716
-0.010217831 0.016348511 0.72076929
-0.010261832 0.01539278 0.72137713
-0.010306213 0.014428705 0.72199017
-0.010350944 0.013456255 0.72260803
-0.010396102 0.012475342 0.72323179
-0.010441617 0.011485815 0.7238605
-0.010487571 0.010487586 0.72449529
-0.010533931 0.0094805658 0.72513568
-0.010580665 0.008464545 0.7257812
-0.010627853 0.0074395239 0.72643304
-0.010675427 0.0064052939 0.72709024
-0.010723465 0.0053617656 0.72775376
-0.0107719 0.0043087602 0.72842282
-0.010820813 0.0032462776 0.7290985
-0.010870174 0.0021740496 0.72978032
-0.010919945 0.0010919869 0.7304678
-0.010970256 -0 0.73116279
-0.011021033 -0.0011020601 0.73186415
-0.011072323 -0.0022144616 0.73257262
-0.011124051 -0.0033372045 0.73328722
-0.011176307 -0.0044705272 0.73400903
-0.011229013 -0.0056144893 0.73473704
-0.01128222 -0.0067693293 0.73547202
-0.011335975 -0.0079351664 0.73621452
-0.011390376 -0.0091122687 0.73696595
-0.011445259 -0.010300696 0.73772413
-0.011500672 -0.011500657 0.73848957
-0.011556624 -0.0127123 0.7392624
-0.01161317 -0.013935804 0.74004352
-0.011670224 -0.015171319 0.74083161
-0.011727843 -0.016418934 0.74162757
-0.011786034 -0.017679036 0.74243128
-0.011844852 -0.018951744 0.74324381
-0.01190426 -0.020237207 0.74406445
-0.011964267 -0.021535665 0.74489331
-0.012024882 -0.022847265 0.74573058
-0.012086115 -0.024172187 0.74657643
-0.012147973 -0.025510728 0.74743092
-0.012210419 -0.026862919 0.74829346
-0.01227356 -0.028229147 0.74916571
-0.012337359 -0.029609621 0.75004691
-0.012401823 -0.031004548 0.7509374
-0.012466964 -0.032414079 0.75183719
-0.0125329 -0.033838809 0.75274801
-0.012599696 -0.035279125 0.75367069
-0.012667155 -0.03673473 0.75460255
-0.012735339 -0.038206011 0.75554436
-0.012804262 -0.039693177 0.75649643
-0.012873991 -0.041196734 0.75745952
-0.012944427 -0.042716622 0.75843257
-0.013015637 -0.044253141 0.75941622
-0.013087636 -0.045806736 0.76041073
-0.013160435 -0.047377586 0.76141638
-0.013234109 -0.048966199 0.76243401
-0.013308551 -0.050572485 0.76346231
-0.013385584 -0.052203774 0.76452637
-0.013664938 -0.054659724 0.76838511
-0.014269521 -0.058504999 0.7767365
-0.014388682 -0.060432434 0.77838248
-0.014448521 -0.062128633 0.77920902
-0.011209507 0.062275112 0.75167203
-0.011159919 0.060759544 0.750911
-0.011104867 0.059225976 0.75006604
-0.011040463 0.057655782 0.74907756
-0.010967043 0.056053817 0.74795067
-0.01088467 0.054423362 0.74668646
-0.010783762 0.052720636 0.74513775
-0.010670014 0.050978959 0.74339187
-0.010520748 0.049096823 0.74110091
-0.0089154365 0.040614754 0.71646243
-0.0089126453 0.039611757 0.71641958
-0.0089113396 0.038615823 0.71639955
-0.0088991029 0.037574023 0.7162118
-0.0088723479 0.036475241 0.71580118
-0.0088456357 0.035382569 0.7153911
-0.0088193165 0.034297377 0.71498722
